VERSION .7
FIELDS x y z label object
SIZE 4 4 4 4 4
TYPE F F F I I
COUNT 1 1 1 1 1
WIDTH 1079
HEIGHT 1
POINTS 1079
VIEWPOINT 0 0 0 1 0 0 0
DATA ascii
130.0629425048828 -8 1038.028564453125 0 -1
120.34929656982422 -8 1041.0738525390625 1 -1
-184.3227996826172 -8 1038.0013427734375 0 -1
78.53304290771484 -8 1041.585205078125 1 -1
-7.187455654144287 -8 1043.4429931640625 0 -1
-202.4335479736328 -8 1048.8323974609375 0 -1
-230.32325744628906 -8 1048.5821533203125 0 -1
-102.05157470703125 -8 1046.116455078125 0 -1
-163.3450927734375 -8 1045.9093017578125 0 -1
-198.93951416015625 -8 1041.361328125 0 -1
-59.356075286865234 -8 1038.9697265625 0 -1
-223.68125915527344 -8 1038.76708984375 0 -1
-242.4182586669922 -8 1048.7255859375 0 -1
-112.93638610839844 -8 1038.7664794921875 0 -1
29.843271255493164 -8 1038.8214111328125 0 -1
-264.8621520996094 -8 1044.3446044921875 0 -1
-37.97429275512695 -8 1041.328857421875 0 -1
7.469165802001953 -8 1039.3026123046875 0 -1
-190.36312866210938 -8 1043.9803466796875 0 -1
-123.6153793334961 -8 1039.505859375 0 -1
44.80718994140625 -8 1039.8106689453125 0 -1
-91.32524871826172 -8 1044.8289794921875 0 -1
-209.30825805664062 -8 1040.4066162109375 0 -1
-222.11904907226562 -8 1047.4068603515625 0 -1
-276.1416931152344 -8 1049.474365234375 0 -1
-150.8623046875 -8 1045.0731201171875 0 -1
-254.16661071777344 -0.5358102917671204 1038 1 -1
-319.28009033203125 0 1053.1297607421875 0 -1
-271.1006774902344 0 1042.9010009765625 1 -1
-294.2158508300781 0 1044.409423828125 1 -1
-310.87493896484375 0 1049.7083740234375 0 -1
-459.0773620605469 0 546.6978149414062 0 -1
-367.47900390625 0 679.3781127929688 0 -1
-428.7842712402344 0 590.8223876953125 0 -1
-475.4806823730469 0 490.4273376464844 0 -1
-361.19122314453125 0 837.744873046875 0 -1
-417.8027038574219 0 538.6405029296875 0 -1
-447.2134094238281 0 460.2729187011719 0 -1
-409.6767272949219 0 567.898681640625 0 -1
-402.9244689941406 0 620.1646728515625 0 -1
-503.6835632324219 0 376.3717956542969 0 -1
-399.16314697265625 0 800.1201171875 0 -1
-394.6131896972656 0 787.7452392578125 0 -1
-397.4637451171875 0 577.5001831054688 0 -1
-464.868408203125 0 463.97979736328125 0 -1
-499.8302001953125 0 331.3721618652344 0 -1
-374.8864440917969 0 774.7858276367188 0 -1
-430.0716552734375 0 694.685302734375 0 -1
-450.1134033203125 0 603.1421508789062 0 -1
-365.7685546875 0 916.6892700195312 0 -1
-351.9093933105469 0 938.9202880859375 0 -1
-548.9036254882812 0 218.33197021484375 0 -1
-358.4532470703125 0 958.4234619140625 0 -1
-412.5621032714844 0 720.7469482421875 0 -1
-424.4554748535156 0 551.412109375 0 -1
-400.9252624511719 0 780.6450805664062 0 -1
-435.6332702636719 0 583.9490356445312 0 -1
-404.2411193847656 0 690.60693359375 1 -1
-361.6861572265625 0 747.822021484375 0 -1
-343.80029296875 0 1008.2418212890625 0 -1
-534.5435791015625 0 303.3370666503906 0 -1
-441.5636291503906 0 600.8650512695312 0 -1
-404.5292663574219 0 609.653564453125 0 -1
-419.497802734375 0 644.2470092773438 0 -1
-494.8652648925781 0 400.77838134765625 0 -1
-489.8252258300781 0 365.0763244628906 0 -1
-350.2308349609375 0 759.7924194335938 0 -1
-481.2941589355469 0 392.13494873046875 0 -1
-369.4512634277344 0 823.813232421875 0 -1
-351.1946105957031 0 771.671142578125 0 -1
-374.4333801269531 0 696.1875610351562 0 -1
-436.8227844238281 0 549.2551879882812 0 -1
-432.3887939453125 0 575.7398681640625 0 -1
-460.3960266113281 0 472.65655517578125 0 -1
-355.42156982421875 0 739.9862060546875 0 -1
-369.2770690917969 0 705.2101440429688 0 -1
-406.7045593261719 0 745.8907470703125 0 -1
-422.0047912597656 0 628.9100341796875 0 -1
-483.25726318359375 0 483.3172912597656 0 -1
-346.4194030761719 0 971.0036010742188 0 -1
-424.7134704589844 0 528.925048828125 0 -1
-414.4007263183594 0 652.164794921875 0 -1
-389.5613098144531 0 691.65283203125 0 -1
-415.59332275390625 0 600.1118774414062 0 -1
-419.5128173828125 0 714.7948608398438 0 -1
-394.3702392578125 0 643.6932983398438 0 -1
-380.7674865722656 0 647.5953979492188 0 -1
-383.3753662109375 0 698.346435546875 0 -1
-427.1260070800781 0 640.2357177734375 0 -1
-513.0133666992188 0 375.7872619628906 0 -1
-361.9337158203125 0 817.375732421875 0 -1
-527.9376831054688 0 281.6905822753906 0 -1
-359.89447021484375 0 940.49658203125 0 -1
-393.44427490234375 0 828.2025146484375 0 -1
-390.2674865722656 0 617.70458984375 0 -1
-446.0671691894531 0 592.9357299804688 0 -1
-453.36187744140625 0 521.896240234375 0 -1
-423.2143859863281 0 561.1791381835938 0 -1
-361.28326416015625 0 757.1349487304688 0 -1
-450.64166259765625 0 620.5052490234375 0 -1
-376.875 0 657.9281616210938 0 -1
-435.6182556152344 0 628.7056884765625 0 -1
-365.10546875 0 904.9086303710938 0 -1
-543.0618896484375 0 242.90399169921875 0 -1
-525.4783935546875 0 310.89288330078125 0 -1
-381.9891662597656 0 665.0482788085938 1 -1
-348.0888671875 0 871.02587890625 0 -1
-427.61505126953125 0 618.6567993164062 0 -1
-548.7595825195312 0 235.02584838867188 0 -1
-375.5601806640625 0 817.00048828125 0 -1
-379.0018615722656 0 760.8294677734375 0 -1
-372.9629211425781 0 912.41259765625 0 -1
-401.03106689453125 0 589.7071533203125 0 -1
-347.4493713378906 0 931.93701171875 0 -1
-486.99755859375 0 377.5 0 -1
-359.14300537109375 0 864.9659423828125 0 -1
-388.4941711425781 0 740.2142333984375 0 -1
-469.93853759765625 0 435.3810119628906 0 -1
-430.85125732421875 0 493.1229553222656 0 -1
-474.70172119140625 0 508.0490417480469 0 -1
-515.2962036132812 0 315.53790283203125 0 -1
-441.21405029296875 0 647.7669677734375 0 -1
-406.5461120605469 0 773.4796752929688 0 -1
-507.1983947753906 0 387.4424133300781 0 -1
-356.6463928222656 0 912.947265625 0 -1
-462.93988037109375 0 567.0958251953125 0 -1
-435.40191650390625 0 606.660400390625 0 -1
-562.2811889648438 0 170.76181030273438 0 -1
-402.18292236328125 0 650.077392578125 0 -1
-516.3626708984375 0 281.8101806640625 0 -1
-394.5005798339844 0 711.7888793945312 0 -1
-469.267333984375 0 426.8144226074219 0 -1
-369.5798034667969 0 791.6785888671875 0 -1
-422.7188415527344 0 513.7820434570312 0 -1
-466.2325134277344 0 411.9455261230469 0 -1
-463.9219970703125 0 554.057373046875 0 -1
-482.387939453125 0 455.940185546875 0 -1
-371.87835693359375 0 739.728271484375 0 -1
-510.1463623046875 0 367.8578186035156 0 -1
-426.1689758300781 0 661.9285278320312 1 -1
-408.4615478515625 0 755.9634399414062 0 -1
-353.4393005371094 0 821.9302368164062 0 -1
-423.1952819824219 0 724.4544067382812 0 -1
-426.8283996582031 0 568.435546875 0 -1
-352.41094970703125 0 839.154052734375 0 -1
-427.2642517089844 0 542.8380126953125 0 -1
-369.62701416015625 0 649.3869018554688 0 -1
-449.7362365722656 0 511.29327392578125 0 -1
-560.6077880859375 0 195.7722930908203 0 -1
-494.9234924316406 0 344.61944580078125 0 -1
-518.5836791992188 0 331.4538269042969 0 -1
-444.0888671875 0 534.5352172851562 0 -1
-345.7440185546875 0 893.4354248046875 0 -1
-392.9915466308594 0 682.6080932617188 0 -1
-434.065185546875 0 657.6258544921875 0 -1
-348.5006408691406 0 985.3988647460938 0 -1
-353.2333984375 0 749.9719848632812 0 -1
-379.3537902832031 0 635.276123046875 0 -1
-488.5615539550781 0 465.1387023925781 0 -1
-491.1852722167969 0 447.7536926269531 0 -1
-442.37353515625 0 622.5631713867188 0 -1
-381.69195556640625 0 798.289306640625 0 -1
-383.8251647949219 0 771.69921875 0 -1
-510.4554443359375 0 338.83453369140625 0 -1
-462.6199951171875 0 496.4111022949219 0 -1
-461.0203552246094 0 527.5565795898438 0 -1
-351.0301818847656 0 794.2745361328125 0 -1
-375.51397705078125 0 785.8700561523438 0 -1
-403.5097351074219 0 792.69580078125 0 -1
-473.8992004394531 0 445.92156982421875 0 -1
-459.4713439941406 0 427.8004150390625 0 -1
-460.0758361816406 0 438.4508972167969 0 -1
-386.39013671875 0 785.2186279296875 0 -1
-405.0778503417969 0 737.014892578125 0 -1
-501.4569396972656 0 424.2280578613281 0 -1
-452.5902099609375 0 533.1454467773438 0 -1
-345.66485595703125 0 856.177734375 0 -1
-382.7652282714844 0 753.715087890625 0 -1
-448.1825866699219 0 493.9409484863281 0 -1
-511.8560485839844 0 353.25189208984375 0 -1
-397.1830139160156 0 720.6638793945312 0 -1
-500.4930419921875 0 353.61944580078125 0 -1
-469.0455627441406 0 513.9891357421875 0 -1
-401.8714599609375 0 672.5322265625 0 -1
-375.00018310546875 0 862.0414428710938 0 -1
-465.2071838378906 0 505.1190185546875 0 -1
-380.0085144042969 0 885.6614379882812 0 -1
-525.5162353515625 0 321.818359375 0 -1
-388.0917663574219 0 762.8081665039062 0 -1
-364.1759338378906 0 924.747802734375 0 -1
-479.1744079589844 0 381.5687561035156 0 -1
-410.0474853515625 0 556.9257202148438 0 -1
-349.4146728515625 0 810.1981201171875 0 -1
-492.63037109375 0 355.6927185058594 0 -1
-540.737548828125 0 229.30978393554688 0 -1
-437.87969970703125 0 472.4122009277344 0 -1
-370.2531433105469 0 852.0875854492188 0 -1
-363.0804138183594 0 800.1155395507812 0 -1
-441.9372253417969 0 576.291015625 0 -1
-432.0685729980469 0 517.2323608398438 0 -1
-380.0196838378906 0 680.8922729492188 0 -1
-522.5970458984375 0 290.40533447265625 0 -1
-478.1643981933594 0 515.460693359375 0 -1
-417.31689453125 0 569.7042236328125 0 -1
-360.27764892578125 0 847.39697265625 0 -1
-360.74896240234375 0 879.8403930664062 0 -1
-384.24737548828125 0 817.5426025390625 0 -1
-376.13006591796875 0 626.049560546875 0 -1
-369.7696533203125 0 891.7180786132812 0 -1
-469.1422119140625 0 541.0126342773438 0 -1
-346.4349060058594 0 884.6126708984375 0 -1
-435.38775634765625 0 674.6554565429688 0 -1
-412.8833923339844 0 547.2742309570312 0 -1
-480.0386962890625 0 420.0225524902344 0 -1
-543.9872436523438 0 251.2770538330078 0 -1
-457.60498046875 0 559.546142578125 0 -1
-398.96368408203125 0 766.6246337890625 0 -1
-425.5518798828125 0 598.9618530273438 0 -1
-390.17340087890625 0 664.1705932617188 1 -1
-355.8346862792969 0 785.6295166015625 0 -1
-391.4614562988281 0 634.3231201171875 0 -1
-454.0187072753906 0 567.2653198242188 0 -1
-506.7945556640625 0 346.1478576660156 0 -1
-447.23980712890625 0 559.5136108398438 0 -1
-422.3149719238281 0 689.8413696289062 1 -1
-457.22601318359375 0 459.2936706542969 0 -1
-411.3174133300781 0 711.2943115234375 0 -1
-523.8474731445312 0 300.0619812011719 0 -1
-379.4327087402344 0 728.3853759765625 0 -1
-436.7935791015625 0 639.199462890625 0 -1
-433.43182373046875 0 531.8556518554688 0 -1
-365.6136474609375 0 714.807861328125 0 -1
-393.1495666503906 0 753.3036499023438 0 -1
-439.8349304199219 0 488.77276611328125 0 -1
-472.8174743652344 0 522.7465209960938 0 -1
-389.1601867675781 0 721.5995483398438 0 -1
-342.7589416503906 0 1018.595703125 0 -1
-348.67724609375 0 955.00830078125 0 -1
-357.19915771484375 0 900.5567016601562 0 -1
-373.02197265625 0 877.8182983398438 0 -1
-396.9261169433594 0 700.408935546875 0 -1
-504.5678405761719 0 405.19732666015625 0 -1
-441.96405029296875 0 500.2730712890625 0 -1
-449.7777404785156 0 468.7451477050781 0 -1
-445.5340881347656 0 613.1920166015625 0 -1
-457.6674499511719 0 512.6268920898438 0 -1
-441.2270202636719 0 568.1011962890625 0 -1
-404.868408203125 0 663.8619995117188 1 -1
-482.7006530761719 0 473.11895751953125 0 -1
-522.17626953125 0 339.74932861328125 0 -1
-351.23553466796875 0 919.9573974609375 0 -1
-389.5968933105469 0 796.6869506835938 0 -1
-379.32147216796875 0 809.9813232421875 0 -1
-523.2791748046875 0 269.18878173828125 0 -1
-496.4043273925781 0 416.78125 0 -1
-364.70489501953125 0 662.730224609375 1 -1
-482.43475341796875 0 440.18194580078125 0 -1
-365.0456237792969 0 782.3058471679688 0 -1
-362.0308532714844 0 770.9854736328125 0 -1
-437.05926513671875 0 480.6733703613281 0 -1
-377.1513671875 0 844.3283081054688 0 -1
-360.9052429199219 0 727.8772583007812 0 -1
-411.89599609375 0 618.42578125 0 -1
-531.6963500976562 0 289.5086669921875 0 -1
-390.7698974609375 0 805.3970947265625 0 -1
-464.9610290527344 0 482.340576171875 0 -1
-370.5404357910156 0 729.8001708984375 0 -1
-357.68121337890625 0 967.5475463867188 0 -1
-387.442626953125 0 675.8156127929688 0 -1
-457.4743957519531 0 488.3565368652344 0 -1
-494.2464904785156 0 436.2325134277344 0 -1
-399.8565673828125 0 729.270263671875 0 -1
-398.7695617675781 0 569.0970458984375 0 -1
-346.06475830078125 0 998.1289672851562 0 -1
-354.92254638671875 0 703.6702880859375 0 -1
-529.1694946289062 0 258.3807373046875 0 -1
-370.24310302734375 0 757.28955078125 0 -1
-496.53021240234375 0 371.7491455078125 0 -1
-544.4826049804688 0 263.7572937011719 0 -1
-363.66510009765625 0 951.7203369140625 0 -1
-535.1135864257812 0 270.9473571777344 0 -1
-487.54376220703125 0 430.04681396484375 0 -1
-381.3719787597656 0 716.5955200195312 0 -1
-457.5185546875 0 448.22576904296875 0 -1
-355.3016052246094 0 830.0275268554688 0 -1
-413.36993408203125 0 695.9766235351562 0 -1
-436.8296203613281 0 558.9909057617188 0 -1
-554.4627685546875 0 205.3520050048828 0 -1
-369.80621337890625 0 832.5011596679688 0 -1
-387.4880676269531 0 600.9675903320312 0 -1
-413.73345947265625 0 734.562744140625 0 -1
-444.2025146484375 0 524.0482788085938 0 -1
-431.291015625 0 648.1043090820312 0 -1
-369.3081970214844 0 810.5418701171875 0 -1
-344.82269287109375 0 913.9143676757812 0 -1
-454.6886291503906 0 580.3598022460938 0 -1
-393.3719482421875 0 593.4482421875 0 -1
-363.7613525390625 0 871.5203857421875 0 -1
-404.4913330078125 0 601.1226196289062 0 -1
-358.0382385253906 0 856.64794921875 0 -1
-397.9812316894531 0 816.6106567382812 0 -1
-379.75225830078125 0 745.15625 0 -1
-410.3167419433594 0 685.1593017578125 1 -1
-381.7359924316406 0 873.9404907226562 0 -1
-418.5223693847656 0 522.2352294921875 0 -1
-451.27899169921875 0 501.7233581542969 0 -1
-425.647216796875 0 607.6177978515625 0 -1
-412.24176025390625 0 588.25830078125 0 -1
-405.7762451171875 0 703.3504028320312 0 -1
-378.90313720703125 0 853.6726684570312 0 -1
-431.64337158203125 0 502.05316162109375 0 -1
-363.978515625 0 737.8363647460938 0 -1
-474.80352783203125 0 412.46466064453125 0 -1
-392.728271484375 0 651.6884765625 0 -1
-492.5628967285156 0 388.09527587890625 0 -1
-398.3269958496094 0 627.8146362304688 0 -1
-421.0577087402344 0 578.0742797851562 0 -1
-344.2626037597656 0 902.5369262695312 0 -1
-449.5162048339844 0 544.1058959960938 0 -1
-358.2319641113281 0 685.8819580078125 1 -1
-571.3743286132812 0 145.63290405273438 0 -1
-502.3474426269531 0 362.51177978515625 0 -1
-342.7685546875 0 924.6736450195312 0 -1
-353.58251953125 0 722.0333251953125 0 -1
-515.2833251953125 0 304.6942138671875 0 -1
-461.3860168457031 0 536.2479858398438 0 -1
-483.09967041015625 0 408.5139465332031 0 -1
-534.683837890625 0 248.90814208984375 0 -1
-358.2091979980469 0 931.7196655273438 0 -1
-367.4721374511719 0 689.1677856445312 1 -1
-409.93035888671875 0 576.99365234375 0 -1
-394.96417236328125 0 608.2290649414062 0 -1
-446.74664306640625 0 483.0487365722656 0 -1
-384.1509704589844 0 830.55322265625 0 -1
-396.24365234375 0 740.7936401367188 0 -1
-476.6302490234375 0 401.6962890625 0 -1
-438.4151611328125 0 507.77862548828125 0 -1
-410.6246032714844 0 633.5811157226562 0 -1
-342.46478271484375 0 947.631591796875 0 -1
-471.02130126953125 0 497.13555908203125 0 -1
-372.629150390625 0 749.1023559570312 0 -1
-562.7565307617188 0 179.67413330078125 0 -1
-424.56646728515625 0 701.2364501953125 0 -1
-508.8392333984375 0 309.88037109375 0 -1
-441.4692077636719 0 515.995361328125 0 -1
-466.2401428222656 0 452.6322326660156 0 -1
-401.7539367675781 0 638.963134765625 0 -1
-472.28924560546875 0 479.6072998046875 0 -1
-343.3450927734375 0 777.7689208984375 0 -1
-306.1339111328125 0 763.15185546875 0 -1
-328.8909606933594 0 718.6069946289062 0 -1
-327.6836242675781 0 886.8387451171875 0 -1
-315.02667236328125 0 777.6806640625 0 -1
-316.8791809082031 0 808.0513916015625 0 -1
-322.2194519042969 0 879.5657348632812 0 -1
-309.85821533203125 0 701.7212524414062 0 -1
-324.00347900390625 0 973.9822998046875 0 -1
-346.8323669433594 0 801.8129272460938 0 -1
-335.24310302734375 0 986.5828247070312 0 -1
-349.0062561035156 0 731.0264892578125 0 -1
-325.7995300292969 0 947.768310546875 0 -1
-298.03155517578125 0 742.0533447265625 0 -1
-308.9205017089844 0 853.3823852539062 0 -1
-332.470947265625 0 855.75830078125 0 -1
-300.6971435546875 0 840.5303955078125 0 -1
-314.5812072753906 0 926.283447265625 0 -1
-318.67901611328125 0 706.9384765625 0 -1
-310.3157653808594 0 794.1694946289062 0 -1
-341.23150634765625 0 793.5449829101562 0 -1
-300.4135437011719 0 786.5662231445312 0 -1
-326.7645263671875 0 731.2991333007812 0 -1
-310.455322265625 0 734.7215576171875 0 -1
-320.63653564453125 0 938.5641479492188 0 -1
-337.85302734375 0 964.3346557617188 0 -1
-305.3651428222656 0 872.53662109375 0 -1
-332.0409240722656 0 766.9197998046875 0 -1
-310.2284240722656 0 786.3433837890625 0 -1
-311.2595520019531 0 717.6734008789062 0 -1
-327.27740478515625 0 751.15185546875 0 -1
-334.1679382324219 0 1011.5919799804688 0 -1
-342.0992126464844 0 724.1591796875 0 -1
-316.7991638183594 0 906.578125 0 -1
-345.6859130859375 0 832.0584716796875 0 -1
-336.2509460449219 0 698.3983154296875 0 -1
-320.427001953125 0 798.8577270507812 0 -1
-322.31304931640625 0 962.5051879882812 0 -1
-324.08123779296875 0 836.9724731445312 0 -1
-347.0910339355469 0 786.52099609375 0 -1
-326.5614318847656 0 809.9766845703125 0 -1
-301.63104248046875 0 808.2843017578125 0 -1
-330.34136962890625 0 1020.0136108398438 0 -1
-294.1498107910156 0 802.5484008789062 0 -1
-335.05706787109375 0 883.4951171875 0 -1
-291.4437561035156 0 735.1227416992188 0 -1
-339.7806396484375 0 873.8917846679688 0 -1
-325.98388671875 0 863.0172729492188 0 -1
-330.2732849121094 0 940.0029907226562 0 -1
-337.8817138671875 0 735.218994140625 0 -1
-284.27386474609375 0 729.3514404296875 0 -1
-332.8004455566406 0 776.3104248046875 0 -1
-341.5756530761719 0 769.5249633789062 0 -1
-285.5011901855469 0 757.5321655273438 0 -1
-316.526611328125 0 728.0079956054688 0 -1
-290.1075439453125 0 708.6292114257812 0 -1
-287.4225158691406 0 768.2174682617188 0 -1
-295.20880126953125 0 725.4664916992188 0 -1
-339.1146545410156 0 838.6781616210938 0 -1
-290.34246826171875 0 750.0368041992188 0 -1
-337.814453125 0 826.8436279296875 0 -1
-304.0575866699219 0 726.427978515625 0 -1
-320.3975524902344 0 717.640625 0 -1
-327.3621826171875 0 988.9937133789062 0 -1
-303.7265625 0 863.3916015625 0 -1
-301.48883056640625 0 734.528076171875 0 -1
-319.6546936035156 0 918.90771484375 0 -1
-331.7712707519531 0 816.0628662109375 0 -1
-344.2370910644531 0 696.5062866210938 0 -1
-324.4555358886719 0 854.9716186523438 0 -1
-338.50469970703125 0 715.7695922851562 0 -1
-324.1979675292969 0 776.32421875 0 -1
-292.3166809082031 0 784.7942504882812 0 -1
-302.52618408203125 0 752.3868408203125 0 -1
-316.3541259765625 0 816.7501831054688 0 -1
-345.27490234375 0 751.0203857421875 0 -1
-315.87744140625 0 888.2991943359375 0 -1
-337.0951843261719 0 973.6422119140625 0 -1
-323.8113708496094 0 894.8569946289062 0 -1
-290.27874755859375 0 777.1175537109375 0 -1
-330.76007080078125 0 911.7452392578125 0 -1
-348.2120056152344 0 687.2914428710938 1 -1
-335.0483703613281 0 932.138671875 0 -1
-347.77886962890625 0 715.9395751953125 0 -1
-317.28753662109375 0 862.3583984375 0 -1
-309.07275390625 0 842.8721923828125 0 -1
-344.8392028808594 0 818.0944213867188 0 -1
-324.5434875488281 0 929.2102661132812 0 -1
-316.67010498046875 0 758.6786499023438 0 -1
-331.1510009765625 0 921.6136474609375 0 -1
-307.4858093261719 0 827.7960205078125 0 -1
-313.7514343261719 0 896.9386596679688 0 -1
-339.91766357421875 0 687.395751953125 1 -1
-307.5161437988281 0 818.6589965820312 0 -1
-340.6117858886719 0 939.5160522460938 0 -1
-330.989013671875 0 792.7011108398438 0 -1
-322.27838134765625 0 738.239013671875 0 -1
-334.2025451660156 0 707.2144165039062 0 -1
-329.53839111328125 0 830.9097290039062 0 -1
-336.34051513671875 0 786.42138671875 0 -1
-297.2882995605469 0 718.0244750976562 0 -1
-306.1002502441406 0 774.1182250976562 0 -1
-329.9524230957031 0 742.897705078125 0 -1
-340.66259765625 0 759.8579711914062 0 -1
-335.49139404296875 0 896.2950439453125 0 -1
-338.6927185058594 0 847.82373046875 0 -1
-294.5469970703125 0 763.7085571289062 0 -1
-324.0050048828125 0 871.6010131835938 0 -1
-285.09912109375 0 719.3090209960938 0 -1
-316.119384765625 0 847.2477416992188 0 -1
-334.5843200683594 0 806.0280151367188 0 -1
-340.8672180175781 0 862.627197265625 0 -1
-337.8829040527344 0 746.805419921875 0 -1
-299.02862548828125 0 825.8082885742188 0 -1
-328.5908203125 0 846.4470825195312 0 -1
-320.9508361816406 0 788.38037109375 0 -1
-304.35028076171875 0 800.9323120117188 0 -1
-305.7455749511719 0 708.9594116210938 0 -1
-337.406494140625 0 954.6903686523438 0 -1
-298.397216796875 0 771.0319213867188 0 -1
-315.0098876953125 0 767.1836547851562 0 -1
-330.8552551269531 0 996.3790893554688 0 -1
-314.7604675292969 0 748.6276245117188 0 -1
-311.1005859375 0 988.9530639648438 0 -1
-288.0208435058594 0 916.9356689453125 0 -1
-267.50054931640625 0 1011.595703125 0 -1
-317.77728271484375 0 1006.9843139648438 0 -1
-295.7436218261719 0 892.2446899414062 0 -1
-285.1081848144531 0 790.8447875976562 0 -1
-271.70733642578125 0 882.87939453125 0 -1
-278.329345703125 0 853.5199584960938 0 -1
-286.0523986816406 0 991.442626953125 0 -1
-298.0682373046875 0 925.9794311523438 0 -1
-304.87091064453125 0 963.8982543945312 0 -1
-295.4762268066406 0 966.3949584960938 0 -1
-276.66162109375 0 890.83740234375 0 -1
-277.2076416015625 0 762.0315551757812 0 -1
-291.90692138671875 0 812.7767944335938 0 -1
-308.22808837890625 0 908.6589965820312 0 -1
-283.9441833496094 0 954.8405151367188 0 -1
-315.89495849609375 0 996.8573608398438 0 -1
-289.4599914550781 0 905.7146606445312 0 -1
-304.20416259765625 0 900.7141723632812 0 -1
-276.42510986328125 0 823.5921630859375 0 -1
-326.9612731933594 0 1045.8162841796875 0 -1
-283.46173095703125 0 842.1483764648438 0 -1
-274.6319580078125 0 976.4631958007812 0 -1
-283.6316223144531 0 810.99169921875 0 -1
-282.4477233886719 0 832.5570678710938 0 -1
-310.3574523925781 0 942.7533569335938 0 -1
-297.9559326171875 0 917.184814453125 0 -1
-287.3100280761719 0 890.1799926757812 0 -1
-311.0924072265625 0 917.2614135742188 0 -1
-282.2459716796875 0 981.6424560546875 0 -1
-296.2727355957031 0 1021.497314453125 0 -1
-275.9351501464844 0 752.9976196289062 0 -1
-296.1590270996094 0 953.90185546875 0 -1
-278.7256164550781 0 867.659912109375 0 -1
-315.69189453125 0 956.2595825195312 0 -1
-279.79345703125 0 965.9954223632812 0 -1
-280.43218994140625 0 802.8624267578125 0 -1
-312.4307556152344 0 1021.3812255859375 0 -1
-269.3341979980469 0 992.987548828125 0 -1
-280.47991943359375 0 783.6832275390625 0 -1
-291.5840759277344 0 834.9566650390625 0 -1
-289.1180419921875 0 1007.5467529296875 0 -1
-288.6416015625 0 945.2240600585938 0 -1
-303.2703552246094 0 1011.2020263671875 0 -1
-292.96356201171875 0 859.0107421875 0 -1
-279.7696228027344 0 946.4757690429688 0 -1
-274.8519287109375 0 1023.7503662109375 0 -1
-302.11688232421875 0 934.3243408203125 0 -1
-277.307861328125 0 794.8987426757812 0 -1
-288.3872375488281 0 823.0888061523438 0 -1
-287.24298095703125 0 1017.2249755859375 0 -1
-296.9128112792969 0 867.4503784179688 0 -1
-295.6720275878906 0 975.5012817382812 0 -1
-331.99346923828125 0 1033.3663330078125 0 -1
-305.37042236328125 0 977.0549926757812 0 -1
-282.0198669433594 0 937.898193359375 0 -1
-289.264892578125 0 874.8016967773438 0 -1
-280.3748779296875 0 746.0205078125 0 -1
-302.0273132324219 0 944.3599853515625 0 -1
-270.7986755371094 0 984.28515625 0 -1
-271.41912841796875 0 1002.9063720703125 0 -1
-275.7428283691406 0 928.45068359375 0 -1
-276.0002746582031 0 724.1488037109375 0 -1
-299.58221435546875 0 1000.4088134765625 0 -1
-293.0622863769531 0 986.268310546875 0 -1
-305.5398864746094 0 956.107666015625 0 -1
-284.6666259765625 0 860.9307250976562 0 -1
-275.2201843261719 0 956.2592163085938 0 -1
-278.75927734375 0 910.792236328125 0 -1
-304.2568054199219 0 890.0827026367188 0 -1
-284.8385314941406 0 881.2667846679688 0 -1
-297.2579650878906 0 882.0498657226562 0 -1
-278.948486328125 0 1010.5402221679688 0 -1
-314.4578857421875 0 972.5826416015625 0 -1
-288.5395202636719 0 928.1968383789062 0 -1
-295.1037902832031 0 938.8310546875 0 -1
-275.68170166015625 0 900.8569946289062 0 -1
-273.24725341796875 0 860.3555908203125 0 -1
-275.22760009765625 0 838.580078125 0 -1
-320.2139892578125 0 1014.9716186523438 0 -1
-301.46929931640625 0 992.6512451171875 0 -1
-286.9148254394531 0 971.2948608398438 0 -1
-284.3034973144531 0 999.7611083984375 0 -1
-272.58087158203125 0 939.242431640625 0 -1
-276.5285339355469 0 876.0091552734375 0 -1
-292.8024597167969 0 846.4742431640625 0 -1
-276.76055908203125 0 735.8450927734375 0 -1
-103.38191223144531 0 1049.3238525390625 0 -1
76.82061767578125 0 1055.59326171875 0 -1
121.65621185302734 0 1052.8580322265625 0 -1
-120.48204040527344 0 1053.2752685546875 0 -1
291.48370361328125 0 1053.8162841796875 0 -1
199.43426513671875 0 1039.45361328125 0 -1
179.3603515625 0 1052.013916015625 0 -1
18.45810317993164 0 1044.6934814453125 1 -1
2.7229037284851074 0 1055.5064697265625 0 -1
8.086641311645508 0 1045.865478515625 1 -1
215.98477172851562 0 1045.8006591796875 1 -1
151.42266845703125 0 1041.051025390625 1 -1
237.48611450195312 0 1053.3299560546875 0 -1
188.28416442871094 0 1051.42626953125 0 -1
227.84954833984375 0 1047.7431640625 1 -1
-45.503684997558594 0 1055.6126708984375 0 -1
-191.74354553222656 0 1055.973876953125 0 -1
-71.26629638671875 0 1054.1549072265625 0 -1
32.07621383666992 0 1050.853515625 0 -1
-129.4889373779297 0 1051.64306640625 0 -1
-20.97283172607422 0 1055.5 0 -1
39.85951232910156 0 1054.3896484375 0 -1
159.8741455078125 0 1041.707763671875 1 -1
-222.9439697265625 0 1053.8079833984375 0 -1
69.46495056152344 0 1051.6806640625 0 -1
196.554443359375 0 1049.8134765625 0 -1
55.28396224975586 0 1055.6746826171875 0 -1
-60.10845184326172 0 1049.4866943359375 0 -1
105.19908142089844 0 1049.1846923828125 0 -1
58.15861892700195 0 1046.8563232421875 1 -1
257.62445068359375 0 1055.929931640625 0 -1
47.750999450683594 0 1050.023681640625 0 -1
132.72705078125 0 1046.0931396484375 1 -1
-276.4237365722656 0 1055.0325927734375 0 -1
272.66131591796875 0 1053.609375 0 -1
-0.2861323058605194 0 1045.271484375 1 -1
-200.50350952148438 0 1056.466552734375 0 -1
39.34941482543945 0 1046.288818359375 1 -1
79.4354476928711 0 1044.376708984375 1 -1
-94.52237701416016 0 1052.709716796875 0 -1
-83.83800506591797 0 1049.226806640625 0 -1
85.1198959350586 0 1050.5491943359375 0 -1
22.255844116210938 0 1055.0196533203125 0 -1
-10.619550704956055 0 1056.18701171875 0 -1
12.961261749267578 0 1055.3431396484375 0 -1
264.88739013671875 0 1050.1441650390625 0 -1
282.5478820800781 0 1049.3753662109375 0 -1
203.3982696533203 0 1055.5775146484375 0 -1
-34.33415222167969 0 1049.304931640625 0 -1
144.57205200195312 0 1053.634765625 0 -1
-10.13966178894043 0 1044.1048583984375 1 -1
-225.46392822265625 0 1042.1932373046875 1 -1
-160.4020538330078 0 1041.9742431640625 1 -1
-236.79086303710938 0 1045.528076171875 0 -1
-285.2635803222656 0 1050.8013916015625 0 -1
-146.81642150878906 0 1046.32763671875 0 -1
-44.24855041503906 0 1042.32763671875 1 -1
-245.85372924804688 0 1047.14306640625 0 -1
-156.47877502441406 0 1049.8759765625 0 -1
-18.777713775634766 0 1043.2586669921875 1 -1
-201.94320678710938 0 1039.3924560546875 1 -1
-171.23081970214844 0 1047.247314453125 0 -1
-262.08941650390625 0 1046.4654541015625 0 -1
-186.38160705566406 0 1048.0089111328125 0 -1
-138.58958435058594 0 1049.234130859375 0 -1
-207.45889282226562 0 1049.232666015625 0 -1
-111.26968383789062 0 1044.5504150390625 1 -1
-254.48663330078125 0 1053.1500244140625 0 -1
-196.8114013671875 0 1048.2794189453125 0 -1
-439.0640869140625 0.00006865158502478153 665.9210815429688 1 -1
-550.88720703125 0.043416332453489304 244.7286834716797 0 -1
-356.3656005859375 0.03127291798591614 982.6905517578125 0 -1
-427.87957763671875 0.024780986830592155 710.8536987304688 0 -1
-582.132568359375 0.016205409541726112 124.0943603515625 0 -1
-564.9992065429688 0.0019795671105384827 188.0185546875 0 -1
-417.4635009765625 0.008269752375781536 749.0756225585938 0 -1
-586.6192016601562 0.12994469702243805 111.39741516113281 0 -1
-458.0126647949219 0.11232499033212662 599.2933349609375 0 -1
-579.2516479492188 0.14165417850017548 139.69439697265625 0 -1
-377.8992614746094 0.11383425444364548 903.5606689453125 0 -1
-537.9850463867188 0.09023980051279068 295.0005187988281 0 -1
-435.3740539550781 0.1285923570394516 685.6920166015625 1 -1
-368.8802185058594 0.12245238572359085 937.9989013671875 0 -1
-340.28985595703125 0.17239168286323547 1047.591552734375 0 -1
-463.5025634765625 0.20376531779766083 580.358642578125 0 -1
-414.0229187011719 0.21990223228931427 768.4970703125 0 -1
-372.6391296386719 0.21985019743442535 925.6251831054688 0 -1
-528.2948608398438 0.20105503499507904 334.2911071777344 0 -1
-507.2447814941406 0.1900377720594406 414.0428466796875 0 -1
-558.72021484375 0.19128026068210602 218.604736328125 0 -1
-476.16229248046875 0.33593782782554626 534.3672485351562 0 -1
-352.36907958984375 0.3096669912338257 1003.9622192382812 0 -1
-539.063232421875 0 103.91451263427734 0 -1
-512.0897827148438 0 102.22835540771484 0 -1
-465.8869934082031 0 101.07415771484375 0 -1
-401.5288391113281 0 98.1025161743164 0 -1
-332.5743713378906 0 95.14481353759766 0 -1
-449.87158203125 0 100.56305694580078 0 -1
-480.0782470703125 0 102.44306182861328 0 -1
-441.6955261230469 0 101.48113250732422 0 -1
-409.8696594238281 0 101.1280517578125 0 -1
-523.5707397460938 0 105.40741729736328 0 -1
-351.416015625 0 101.49964904785156 0 -1
-359.5468444824219 0 102.40507507324219 0 -1
-418.42083740234375 0 104.13575744628906 0 -1
-433.3919982910156 0 104.94679260253906 0 -1
-499.6829833984375 0 142.13043212890625 0 -1
-375.7019958496094 0 139.062255859375 0 -1
-528.3064575195312 0 145.37948608398438 0 -1
-339.7992248535156 0 249.186279296875 0 -1
-356.3888854980469 0 315.358154296875 0 -1
-392.2076110839844 0 240.1119842529297 0 -1
-519.0386352539062 0 116.45677947998047 0 -1
-392.43853759765625 0 252.2681427001953 0 -1
-349.33502197265625 0 529.9254150390625 0 -1
-399.61077880859375 0 122.78638458251953 0 -1
-347.9172668457031 0 224.40130615234375 0 -1
-530.5778198242188 0 161.14657592773438 0 -1
-400.1616516113281 0 438.5135498046875 0 -1
-445.1731872558594 0 237.5718994140625 0 -1
-434.5558776855469 0 206.41696166992188 0 -1
-383.8489685058594 0 173.31021118164062 0 -1
-381.8274841308594 0 232.5464630126953 0 -1
-336.5771179199219 0 240.33453369140625 0 -1
-499.4018249511719 0 106.34138488769531 0 -1
-399.3165283203125 0 114.27932739257812 0 -1
-461.0386962890625 0 172.33523559570312 0 -1
-390.5680847167969 0 116.53070068359375 0 -1
-459.934814453125 0 110.548095703125 0 -1
-328.078857421875 0 162.51025390625 0 -1
-492.90460205078125 0 268.91192626953125 0 -1
-476.31158447265625 0 177.1748809814453 0 -1
-407.8030700683594 0 267.7679138183594 0 -1
-336.60076904296875 0 314.6410827636719 0 -1
-447.4886474609375 0 350.4300231933594 0 -1
-455.4424743652344 0 127.58513641357422 0 -1
-543.4949951171875 0 160.82110595703125 0 -1
-430.59228515625 0 466.1197204589844 0 -1
-527.3110961914062 0 133.37623596191406 0 -1
-417.32733154296875 0 210.61959838867188 0 -1
-404.3146667480469 0 420.4342041015625 0 -1
-412.45355224609375 0 248.6019287109375 0 -1
-366.23858642578125 0 141.73065185546875 0 -1
-336.57281494140625 0 212.3645477294922 0 -1
-521.7901611328125 0 163.77664184570312 0 -1
-398.73974609375 0 270.92608642578125 0 -1
-444.421630859375 0 158.78494262695312 0 -1
-421.93487548828125 0 504.01727294921875 0 -1
-435.8432312011719 0 436.6845397949219 0 -1
-357.8509521484375 0 442.5533752441406 0 -1
-468.2429504394531 0 380.3812561035156 0 -1
-353.23321533203125 0 147.20703125 0 -1
-393.87933349609375 0 500.2152099609375 0 -1
-468.8132019042969 0 230.06358337402344 0 -1
-402.3152160644531 0 316.0650939941406 0 -1
-440.9233703613281 0 318.8227844238281 0 -1
-521.4164428710938 0 233.80262756347656 0 -1
-455.82318115234375 0 420.3653869628906 0 -1
-462.26025390625 0 395.6451110839844 0 -1
-420.39703369140625 0 388.09246826171875 0 -1
-435.9329528808594 0 420.8246765136719 0 -1
-395.55462646484375 0 427.3675231933594 0 -1
-378.17608642578125 0 307.9562683105469 0 -1
-482.78997802734375 0 300.2304382324219 0 -1
-446.6905212402344 0 385.2655029296875 0 -1
-478.3992614746094 0 187.77923583984375 0 -1
-445.2806701660156 0 338.8226013183594 0 -1
-375.6963806152344 0 441.1470947265625 0 -1
-484.3856506347656 0 271.12213134765625 0 -1
-550.5316162109375 0 147.7588653564453 0 -1
-450.026123046875 0 199.10150146484375 0 -1
-367.7007751464844 0 438.14886474609375 0 -1
-448.2125549316406 0 440.5654602050781 0 -1
-384.8211975097656 0 110.68955993652344 0 -1
-338.3785705566406 0 159.2357940673828 0 -1
-419.1644287109375 0 294.9163513183594 0 -1
-407.9490966796875 0 349.1383056640625 0 -1
-391.4346618652344 0 396.5845031738281 0 -1
-412.4552917480469 0 314.19720458984375 0 -1
-397.0673522949219 0 195.5187530517578 0 -1
-535.82763671875 0 176.72068786621094 0 -1
-465.6349182128906 0 213.58868408203125 0 -1
-360.58740234375 0 528.8861694335938 0 -1
-357.1312561035156 0 225.09730529785156 0 -1
-520.0820922851562 0 198.68031311035156 0 -1
-332.91162109375 0 186.17431640625 0 -1
-365.15081787109375 0 618.610107421875 0 -1
-404.2757873535156 0 305.7257995605469 0 -1
-446.9449462890625 0 173.84048461914062 0 -1
-527.1143188476562 0 220.15118408203125 0 -1
-463.3459167480469 0 240.1980438232422 0 -1
-359.0201721191406 0 508.5984191894531 0 -1
-355.5481262207031 0 258.87213134765625 0 -1
-368.5099182128906 0 478.15264892578125 0 -1
-432.256103515625 0 244.9578399658203 0 -1
-405.43695068359375 0 459.77215576171875 0 -1
-382.41729736328125 0 553.2808227539062 0 -1
-374.29632568359375 0 570.3137817382812 0 -1
-465.9365539550781 0 330.0904541015625 0 -1
-344.8645324707031 0 497.6335754394531 0 -1
-335.6610107421875 0 327.5894775390625 0 -1
-401.6208190917969 0 536.1717529296875 0 -1
-348.1963806152344 0 353.2849426269531 0 -1
-465.82275390625 0 159.983642578125 0 -1
-335.29119873046875 0 302.4397888183594 0 -1
-344.25396728515625 0 483.35174560546875 0 -1
-554.9768676757812 0 110.4064712524414 0 -1
-441.284912109375 0 281.1336364746094 0 -1
-347.5271911621094 0 332.7466735839844 0 -1
-358.8712158203125 0 306.1673889160156 0 -1
-482.6315002441406 0 205.48609924316406 0 -1
-494.1499328613281 0 236.81568908691406 0 -1
-420.18463134765625 0 147.3121337890625 0 -1
-443.4356994628906 0 357.9247131347656 0 -1
-420.2252197265625 0 192.599365234375 0 -1
-414.5506286621094 0 420.530029296875 0 -1
-459.36737060546875 0 229.71311950683594 0 -1
-400.9720764160156 0 239.2177734375 0 -1
-387.76873779296875 0 280.2720642089844 0 -1
-418.8326721191406 0 411.5417175292969 0 -1
-421.68865966796875 0 246.48243713378906 0 -1
-410.5846862792969 0 448.228759765625 0 -1
-362.184326171875 0 558.6744384765625 0 -1
-429.5752258300781 0 254.58773803710938 0 -1
-492.176025390625 0 137.45706176757812 0 -1
-353.47369384765625 0 363.3165283203125 0 -1
-438.2607116699219 0 261.5183410644531 0 -1
-359.7975769042969 0 328.336181640625 0 -1
-479.0682067871094 0 316.12445068359375 0 -1
-370.4122009277344 0 116.85222625732422 0 -1
-374.37506103515625 0 364.3377380371094 0 -1
-496.4906921386719 0 323.5883483886719 0 -1
-393.4312744140625 0 230.2785186767578 0 -1
-414.6752624511719 0 240.80767822265625 0 -1
-473.5220642089844 0 207.2495880126953 0 -1
-375.3031005859375 0 162.90328979492188 0 -1
-355.8003234863281 0 413.4009094238281 0 -1
-451.95245361328125 0 409.9980773925781 0 -1
-494.5558776855469 0 215.9962921142578 0 -1
-561.2689208984375 0 136.3628387451172 0 -1
-352.12591552734375 0 514.0204467773438 0 -1
-373.3323974609375 0 202.3896484375 0 -1
-382.8141784667969 0 330.6396789550781 0 -1
-350.924560546875 0 113.619140625 0 -1
-550.5387573242188 0 138.1025848388672 0 -1
-393.92926025390625 0 467.66900634765625 0 -1
-369.2093200683594 0 281.5002746582031 0 -1
-495.4670715332031 0 190.30291748046875 0 -1
-494.51617431640625 0 200.2850341796875 0 -1
-380.3028869628906 0 250.7769775390625 0 -1
-495.53375244140625 0 165.73866271972656 0 -1
-452.8286437988281 0 402.0717468261719 0 -1
-404.9621887207031 0 215.99681091308594 0 -1
-451.3809814453125 0 428.4448547363281 0 -1
-427.0858154296875 0 282.5177001953125 0 -1
-439.7015380859375 0 444.19793701171875 0 -1
-342.2198791503906 0 168.32281494140625 0 -1
-385.3607482910156 0 185.83094787597656 0 -1
-504.31182861328125 0 297.8226013183594 0 -1
-369.7354736328125 0 500.5498046875 0 -1
-379.9461364746094 0 562.4284057617188 0 -1
-388.0068359375 0 445.43658447265625 0 -1
-451.6914978027344 0 285.44439697265625 0 -1
-340.86871337890625 0 264.2217102050781 0 -1
-501.86236572265625 0 209.51071166992188 0 -1
-503.77471923828125 0 217.98049926757812 0 -1
-365.48883056640625 0 162.27871704101562 0 -1
-472.9469299316406 0 372.93048095703125 0 -1
-391.44775390625 0 287.7372741699219 0 -1
-508.1599426269531 0 277.7017822265625 0 -1
-381.59295654296875 0 118.5009765625 0 -1
-391.69775390625 0 406.2770080566406 0 -1
-429.05682373046875 0 474.4876708984375 0 -1
-364.7829895019531 0 219.0054931640625 0 -1
-430.95147705078125 0 135.20912170410156 0 -1
-458.2796325683594 0 296.6920471191406 0 -1
-352.4784851074219 0 464.2414855957031 0 -1
-370.78997802734375 0 149.42189025878906 0 -1
-419.4541015625 0 125.00636291503906 0 -1
-370.2079162597656 0 561.129150390625 0 -1
-361.4561767578125 0 252.4550323486328 0 -1
-375.9607849121094 0 456.10736083984375 0 -1
-537.7485961914062 0 148.10964965820312 0 -1
-469.0560607910156 0 115.59779357910156 0 -1
-347.46551513671875 0 381.40203857421875 0 -1
-428.1072998046875 0 224.27752685546875 0 -1
-442.6040954589844 0 125.38082885742188 0 -1
-341.0831298828125 0 104.94646453857422 0 -1
-323.075439453125 0 105.49364471435547 0 -1
-455.6425476074219 0 308.19427490234375 0 -1
-372.0836486816406 0 252.16885375976562 0 -1
-411.52032470703125 0 299.9555358886719 0 -1
-356.76763916015625 0 137.3955841064453 0 -1
-458.0246276855469 0 144.38174438476562 0 -1
-350.7200622558594 0 582.3141479492188 0 -1
-464.86102294921875 0 317.13336181640625 0 -1
-353.277099609375 0 191.24078369140625 0 -1
-493.09429931640625 0 175.578857421875 0 -1
-441.9462890625 0 429.986328125 0 -1
-468.02020263671875 0 184.61016845703125 0 -1
-478.14410400390625 0 168.84817504882812 0 -1
-390.88067626953125 0 513.203369140625 0 -1
-466.5326843261719 0 222.42514038085938 0 -1
-457.2787170410156 0 154.5492706298828 0 -1
-487.76080322265625 0 181.96104431152344 0 -1
-488.1050720214844 0 244.92742919921875 0 -1
-385.37738037109375 0 340.47247314453125 0 -1
-388.6930236816406 0 267.7080993652344 0 -1
-351.2485046386719 0 570.4624633789062 0 -1
-458.7176208496094 0 189.19676208496094 0 -1
-371.6224670410156 0 373.2127990722656 0 -1
-383.8074645996094 0 387.94500732421875 0 -1
-529.4323120117188 0 199.95468139648438 0 -1
-414.16583251953125 0 356.8221435546875 0 -1
-339.7445373535156 0 222.45001220703125 0 -1
-370.1722106933594 0 240.505126953125 0 -1
-576.6627807617188 0 108.06130981445312 0 -1
-425.3343505859375 0 269.7099304199219 0 -1
-343.42169189453125 0 461.39190673828125 0 -1
-345.69598388671875 0 522.8114013671875 0 -1
-374.5265197753906 0 598.7525024414062 0 -1
-403.638427734375 0 523.131103515625 0 -1
-470.6989440917969 0 351.5122985839844 0 -1
-366.551513671875 0 446.7677001953125 0 -1
-498.1242980957031 0 315.7771301269531 0 -1
-410.3916320800781 0 483.1985778808594 0 -1
-485.59210205078125 0 120.46546936035156 0 -1
-407.609130859375 0 340.8164367675781 0 -1
-352.13458251953125 0 286.2131652832031 0 -1
-361.19146728515625 0 457.576416015625 0 -1
-411.21563720703125 0 143.70834350585938 0 -1
-431.1347351074219 0 381.814208984375 0 -1
-411.7630615234375 0 505.30584716796875 0 -1
-344.12982177734375 0 293.9095153808594 0 -1
-463.0631408691406 0 338.67437744140625 0 -1
-329.1077575683594 0 176.8168182373047 0 -1
-394.9497985839844 0 221.92532348632812 0 -1
-351.7922668457031 0 599.805419921875 0 -1
-377.73492431640625 0 180.46551513671875 0 -1
-395.9100036621094 0 541.7261352539062 0 -1
-379.3493957519531 0 260.60528564453125 0 -1
-354.8928527832031 0 540.251953125 0 -1
-509.1707458496094 0 289.75335693359375 0 -1
-410.3982849121094 0 471.529541015625 0 -1
-528.5885620117188 0 228.56280517578125 0 -1
-440.1708068847656 0 376.70465087890625 0 -1
-453.2071228027344 0 323.3216552734375 0 -1
-398.96099853515625 0 142.94094848632812 0 -1
-575.7951049804688 0 116.8932113647461 0 -1
-382.41552734375 0 591.2327270507812 0 -1
-373.8166809082031 0 293.064208984375 0 -1
-399.554443359375 0 409.9996032714844 0 -1
-479.7053527832031 0 255.47027587890625 0 -1
-390.6088562011719 0 550.72314453125 0 -1
-408.14654541015625 0 187.96205139160156 0 -1
-358.66314697265625 0 155.9954376220703 0 -1
-458.6159973144531 0 379.6060791015625 0 -1
-401.92181396484375 0 392.9075927734375 0 -1
-352.2816467285156 0 129.48043823242188 0 -1
-383.5728759765625 0 536.6853637695312 0 -1
-373.2411804199219 0 269.0274658203125 0 -1
-376.1683654785156 0 584.9725341796875 0 -1
-538.0800170898438 0 217.4095458984375 0 -1
-420.3868103027344 0 457.404052734375 0 -1
-413.98468017578125 0 131.63583374023438 0 -1
-451.46075439453125 0 245.39552307128906 0 -1
-469.6354675292969 0 134.91189575195312 0 -1
-363.20953369140625 0 352.3218078613281 0 -1
-375.0748596191406 0 222.9812774658203 0 -1
-505.344482421875 0 257.64312744140625 0 -1
-415.7801208496094 0 496.66156005859375 0 -1
-403.3872375488281 0 330.1615905761719 0 -1
-353.1148681640625 0 420.9073791503906 0 -1
-368.93365478515625 0 180.0720672607422 0 -1
-512.7916870117188 0 152.4978485107422 0 -1
-503.2829284667969 0 176.430419921875 0 -1
-377.1666259765625 0 506.1363525390625 0 -1
-490.3385925292969 0 227.56895446777344 0 -1
-351.5147399902344 0 162.4473419189453 0 -1
-396.86474609375 0 381.1332702636719 0 -1
-519.8364868164062 0 187.16749572753906 0 -1
-492.2989196777344 0 126.3487319946289 0 -1
-520.9613647460938 0 155.56765747070312 0 -1
-422.85546875 0 396.9721374511719 0 -1
-469.88067626953125 0 250.85421752929688 0 -1
-408.6050720214844 0 169.64413452148438 0 -1
-477.6251525878906 0 281.34246826171875 0 -1
-495.2686462402344 0 306.2121276855469 0 -1
-562.7965698242188 0 145.82225036621094 0 -1
-337.5426025390625 0 336.8780517578125 0 -1
-409.1766357421875 0 124.05523681640625 0 -1
-499.7633972167969 0 287.0965270996094 0 -1
-356.63201904296875 0 590.8587646484375 0 -1
-476.49652099609375 0 110.6791763305664 0 -1
-467.4353332519531 0 193.51486206054688 0 -1
-403.7799377441406 0 246.8103485107422 0 -1
-357.49664306640625 0 575.790283203125 0 -1
-376.09307861328125 0 616.7416381835938 0 -1
-536.9036254882812 0 167.73033142089844 0 -1
-565.7967529296875 0 127.49949645996094 0 -1
-367.76239013671875 0 311.13458251953125 0 -1
-403.1988220214844 0 150.0701904296875 0 -1
-497.7442321777344 0 247.54806518554688 0 -1
-333.72393798828125 0 127.47517395019531 0 -1
-378.8359069824219 0 608.7456665039062 0 -1
-351.9762268066406 0 400.1069641113281 0 -1
-383.5924987792969 0 349.9983215332031 0 -1
-450.7024841308594 0 108.90015411376953 0 -1
-448.59417724609375 0 393.2096862792969 0 -1
-439.6306457519531 0 135.8935089111328 0 -1
-326.1324157714844 0 135.55104064941406 0 -1
-448.3970642089844 0 261.1628723144531 0 -1
-456.9390563964844 0 220.18377685546875 0 -1
-377.8545227050781 0 546.2848510742188 0 -1
-421.05096435546875 0 480.9852294921875 0 -1
-347.67291259765625 0 371.32330322265625 0 -1
-350.6040954589844 0 561.044677734375 0 -1
-552.9691772460938 0 166.49087524414062 0 -1
-488.7590026855469 0 327.6182556152344 0 -1
-528.83935546875 0 210.67242431640625 0 -1
-362.8214416503906 0 234.76754760742188 0 -1
-405.52716064453125 0 198.52780151367188 0 -1
-406.077392578125 0 178.71768188476562 0 -1
-464.93292236328125 0 367.9559631347656 0 -1
-473.305419921875 0 263.16827392578125 0 -1
-378.5557861328125 0 284.098876953125 0 -1
-415.6421203613281 0 435.6283264160156 0 -1
-352.0679626464844 0 324.7784729003906 0 -1
-342.87298583984375 0 205.2223663330078 0 -1
-362.49761962890625 0 569.3490600585938 0 -1
-474.98797607421875 0 243.83914184570312 0 -1
-487.16943359375 0 162.96644592285156 0 -1
-342.2320556640625 0 323.0470275878906 0 -1
-370.7386169433594 0 492.5626220703125 0 -1
-471.0982971191406 0 124.09567260742188 0 -1
-534.6764526367188 0 188.12559509277344 0 -1
-545.3622436523438 0 182.09263610839844 0 -1
-386.41192626953125 0 205.54046630859375 0 -1
-411.92791748046875 0 109.07865905761719 0 -1
-414.9964294433594 0 394.6076354980469 0 -1
-509.1002502441406 0 234.67059326171875 0 -1
-491.73919677734375 0 112.16202545166016 0 -1
-394.0321044921875 0 456.81732177734375 0 -1
-501.83966064453125 0 115.88289642333984 0 -1
-377.7649841308594 0 337.729736328125 0 -1
-388.4203186035156 0 489.49725341796875 0 -1
-394.2136535644531 0 335.6918640136719 0 -1
-399.7164306640625 0 356.153076171875 0 -1
-352.7938232421875 0 251.48037719726562 0 -1
-380.4141540527344 0 240.46238708496094 0 -1
-464.1773986816406 0 303.9255676269531 0 -1
-391.0040283203125 0 179.89178466796875 0 -1
-396.2154846191406 0 171.53744506835938 0 -1
-469.1787414550781 0 169.0137939453125 0 -1
-362.5657653808594 0 366.6106872558594 0 -1
-379.2093505859375 0 319.4259338378906 0 -1
-367.38311767578125 0 331.560302734375 0 -1
-508.6673889160156 0 133.52000427246094 0 -1
-535.849365234375 0 117.06476593017578 0 -1
-381.2527160644531 0 527.3289794921875 0 -1
-348.98907470703125 0 266.20904541015625 0 -1
-407.4473571777344 0 378.7140808105469 0 -1
-506.868408203125 0 267.6005859375 0 -1
-496.173095703125 0 294.19244384765625 0 -1
-387.8877868652344 0 379.1364440917969 0 -1
-420.0261535644531 0 232.0465850830078 0 -1
-514.716796875 0 243.025634765625 0 -1
-387.13787841796875 0 295.1479797363281 0 -1
-489.5204772949219 0 337.5251159667969 0 -1
-428.5000915527344 0 408.6737976074219 0 -1
-354.40228271484375 0 649.8153686523438 0 -1
-354.0069274902344 0 608.4507446289062 0 -1
-426.443115234375 0 445.7120361328125 0 -1
-355.5357971191406 0 625.6248168945312 0 -1
-432.90704345703125 0 341.7953186035156 0 -1
-472.9333190917969 0 310.9231872558594 0 -1
-453.8333435058594 0 362.3663024902344 0 -1
-355.3680419921875 0 549.1065673828125 0 -1
-544.3092041015625 0 172.39089965820312 0 -1
-449.57244873046875 0 315.15435791015625 0 -1
-363.2337646484375 0 627.5122680664062 0 -1
-379.43829345703125 0 378.8406982421875 0 -1
-337.55706787109375 0 348.6739501953125 0 -1
-352.0014953613281 0 216.86143493652344 0 -1
-432.09112548828125 0 354.7652587890625 0 -1
-375.5825500488281 0 171.47164916992188 0 -1
-421.5102233886719 0 218.28297424316406 0 -1
-436.8201904296875 0 333.5899963378906 0 -1
-355.297607421875 0 377.8061218261719 0 -1
-436.7388610839844 0 112.80997467041016 0 -1
-429.26373291015625 0 233.2518768310547 0 -1
-365.1299743652344 0 268.95819091796875 0 -1
-523.71533203125 0 244.18666076660156 0 -1
-367.1213073730469 0 194.6827392578125 0 -1
-548.3095703125 0 118.33230590820312 0 -1
-370.67938232421875 0 514.3859252929688 0 -1
-500.2532043457031 0 130.0580596923828 0 -1
-515.2905883789062 0 139.41812133789062 0 -1
-398.856201171875 0 157.3238983154297 0 -1
-374.1050109863281 0 533.4581298828125 0 -1
-371.4935302734375 0 188.08131408691406 0 -1
-436.0600280761719 0 364.39105224609375 0 -1
-478.55926513671875 0 128.24835205078125 0 -1
-348.28668212890625 0 553.4271240234375 0 -1
-380.03448486328125 0 406.13299560546875 0 -1
-480.1372985839844 0 230.82864379882812 0 -1
-368.7737121582031 0 418.4186706542969 0 -1
-462.238037109375 0 357.708251953125 0 -1
-425.668701171875 0 416.99993896484375 0 -1
-357.9921569824219 0 434.5264587402344 0 -1
-367.1575927734375 0 410.5021667480469 0 -1
-330.6091613769531 0 145.699462890625 0 -1
-481.57086181640625 0 351.7168273925781 0 -1
-449.1077575683594 0 190.55140686035156 0 -1
-482.8016357421875 0 195.24124145507812 0 -1
-385.3472595214844 0 520.05029296875 0 -1
-482.22271728515625 0 343.5021057128906 0 -1
-412.6058654785156 0 152.14276123046875 0 -1
-381.89404296875 0 194.6813507080078 0 -1
-404.3451843261719 0 134.22134399414062 0 -1
