VERSION .7
FIELDS x y z label object
SIZE 4 4 4 4 4
TYPE F F F I I
COUNT 1 1 1 1 1
WIDTH 1080
HEIGHT 1
POINTS 1080
VIEWPOINT 0 0 0 1 0 0 0
DATA ascii
-209.09373474121094 -8 757.9547729492188 0 -1
-245.08131408691406 -8 742.8611450195312 0 -1
-178.4073028564453 -8 876.5271606445312 0 -1
-208.84400939941406 -8 829.8248901367188 0 -1
-194.41493225097656 -8 839.9212036132812 0 -1
-238.90281677246094 -8 773.8422241210938 0 -1
-219.00790405273438 -8 761.5878295898438 0 -1
-216.92526245117188 -8 732.5957641601562 0 -1
-212.54454040527344 -8 807.2667846679688 0 -1
-154.98414611816406 -8 816.1314086914062 0 -1
-248.49667358398438 -8 715.7039794921875 0 -1
-218.7200164794922 -8 775.3505249023438 0 -1
-148.52789306640625 -8 715.4385375976562 0 -1
-262.3515930175781 0 714.9710693359375 0 -1
-212.8762969970703 0 835.2454833984375 0 -1
-255.18751525878906 -8 741.0340576171875 0 -1
-225.41184997558594 -8 808.7946166992188 0 -1
-261.69195556640625 -8 731.2091674804688 0 -1
-245.9241485595703 -8 766.12646484375 0 -1
-269.2418518066406 -8 720.6123046875 0 -1
-255.99539184570312 0 748.7900390625 0 -1
-130.84674072265625 0 945.191162109375 0 -1
-142.74038696289062 0 964.1118774414062 0 -1
-113.21302032470703 0 949.4865112304688 0 -1
-103.80546569824219 0 938.9146118164062 0 -1
-149.02391052246094 0 953.2182006835938 0 -1
-94.50521087646484 0 931.75048828125 0 -1
-82.80792236328125 0 915.94677734375 0 -1
-120.75868225097656 0 935.9171752929688 0 -1
-59.056663513183594 0 914.2684936523438 0 -1
-71.2355728149414 0 916.471435546875 0 -1
-133.91488647460938 0 956.859130859375 0 -1
-45.32209014892578 0 894.2471923828125 0 -1
-10.779476165771484 0 870.5595092773438 0 -1
-24.286821365356445 -8 880.142822265625 0 -1
-72.24264526367188 -8 905.0957641601562 0 -1
-119.84444427490234 -8 930.0021362304688 0 -1
-141.69058227539062 -8 951.1627197265625 0 -1
-99.64556884765625 -8 942.923583984375 0 -1
-50.91105651855469 -8 898.9811401367188 0 -1
-111.1770248413086 -8 937.884765625 0 -1
-149.6169891357422 -8 963.2633666992188 0 -1
-81.82169342041016 -8 930.1461791992188 0 -1
-105.384521484375 -8 925.3487548828125 0 -1
-11.474603652954102 -8 880.1249389648438 0 -1
-95.70305633544922 -8 920.1372680664062 0 -1
-152.62843322753906 -8 947.2489013671875 0 -1
-31.036916732788086 -8 891.4675903320312 0 -1
-148.4066925048828 -8 975.2384033203125 0 -1
-60.83381271362305 -8 906.2532348632812 0 -1
-121.62477111816406 -8 947.0980834960938 0 -1
62.152957916259766 -8 972.0130615234375 0 -1
-77.70298767089844 -8 975.812744140625 0 -1
-5.970186233520508 -8 928.3753662109375 0 -1
-105.55284881591797 -8 960.0438842773438 0 -1
100.279541015625 -8 959.873046875 0 -1
82.32878875732422 -8 938.751708984375 0 -1
41.224609375 -8 981.3142700195312 0 -1
67.11898040771484 -8 960.9306640625 0 -1
-26.171981811523438 -8 960.2383422851562 0 -1
-43.887081146240234 -8 921.4771118164062 0 -1
-116.80472564697266 -8 956.4027099609375 0 -1
-124.81935119628906 -8 980.6666259765625 0 -1
30.909543991088867 -8 931.9387817382812 0 -1
9.046220779418945 -8 900.91015625 0 -1
-56.12905502319336 -8 941.6448974609375 0 -1
-95.67190551757812 -8 966.1593627929688 0 -1
122.1291732788086 -8 977.1466064453125 0 -1
-42.5361442565918 -8 942.865478515625 0 -1
-10.844985008239746 -8 959.3728637695312 0 -1
70.2077407836914 -8 929.9228515625 0 -1
-17.885334014892578 -8 972.8298950195312 0 -1
20.78892707824707 -8 943.8875122070312 0 -1
33.24554443359375 -8 944.02587890625 0 -1
84.90057373046875 -8 976.54150390625 0 -1
-32.21531295776367 -8 909.147705078125 0 -1
-20.131202697753906 -8 891.4057006835938 0 -1
43.126792907714844 -8 925.7985229492188 0 -1
131.75009155273438 -8 971.47021484375 0 -1
37.58450698852539 -8 957.7229614257812 0 -1
51.101539611816406 -8 975.1597900390625 0 -1
24.03265953063965 -8 913.2155151367188 0 -1
-72.15103149414062 -8 943.46044921875 0 -1
58.845130920410156 -8 927.3746337890625 0 -1
115.91848754882812 -8 958.9905395507812 0 -1
29.879863739013672 -8 901.659423828125 0 -1
-23.015275955200195 -8 921.118896484375 0 -1
-41.54844665527344 -8 904.59326171875 0 -1
-59.36553955078125 -8 931.2252197265625 0 -1
-33.9610481262207 -8 972.9783935546875 0 -1
72.35387420654297 -8 973.7140502929688 0 -1
9.52031421661377 -8 966.67431640625 0 -1
22.07061195373535 -8 963.0045776367188 0 -1
112.158935546875 -8 981.34814453125 0 -1
39.0147590637207 -8 970.2413330078125 0 -1
-52.12924575805664 -8 911.53857421875 0 -1
74.19983673095703 -8 951.3634033203125 0 -1
98.31949615478516 -8 970.141357421875 0 -1
-21.390836715698242 -8 906.3424072265625 0 -1
-50.571144104003906 -8 954.8170776367188 0 -1
-15.6391019821167 -8 931.501708984375 0 -1
53.54595947265625 -8 944.6525268554688 0 -1
44.73863220214844 -8 915.355224609375 0 -1
-114.86859130859375 -8 975.5224609375 0 -1
44.19952392578125 -8 940.1920166015625 0 -1
104.50420379638672 -8 948.5119018554688 0 -1
6.565692901611328 -8 937.7555541992188 0 -1
-1.639367699623108 -8 951.687744140625 0 -1
64.6908950805664 -8 938.279052734375 0 -1
-30.98285484313965 -8 934.7887573242188 0 -1
-48.63965606689453 -8 967.5114135742188 0 -1
87.05023193359375 -8 963.1282348632812 0 -1
-12.134157180786133 -8 915.7536010742188 0 -1
-18.577959060668945 -8 941.9755249023438 0 -1
-3.2864506244659424 -8 887.903076171875 0 -1
51.22248458862305 -8 957.4133911132812 0 -1
-102.337158203125 -8 974.2821655273438 0 -1
1.515697717666626 -8 918.92626953125 0 -1
-2.0884640216827393 -8 907.614501953125 0 -1
-83.61174011230469 -8 945.4572143554688 0 -1
-81.94174194335938 -8 958.8939819335938 0 -1
-72.5416030883789 -8 965.34423828125 0 -1
-13.268882751464844 -8 981.60888671875 0 -1
28.53364372253418 -8 973.9450073242188 0 -1
10.124137878417969 -8 953.2366333007812 0 -1
10.10421371459961 -8 978.3838500976562 0 -1
92.63258361816406 -8 988.0402221679688 0 -1
-4.359030246734619 -8 994.3284301757812 0 -1
-28.967365264892578 -8 982.42236328125 0 -1
156.24423217773438 -8 997.1809692382812 0 -1
71.91075897216797 -8 991.5901489257812 0 -1
15.404547691345215 -8 1002.2546997070312 0 -1
36.49855041503906 -8 992.1983642578125 0 -1
132.46209716796875 -8 1025.532958984375 0 -1
37.939815521240234 -8 1006.0292358398438 0 -1
95.8980484008789 -8 1000.830810546875 0 -1
118.95755004882812 -8 1006.8381958007812 0 -1
131.17591857910156 -8 986.0869140625 0 -1
139.1077423095703 -8 1009.6005859375 0 -1
27.062124252319336 -8 1006.6583251953125 0 -1
176.76559448242188 -8 1018.4953002929688 0 -1
-83.4141616821289 -8 990.0016479492188 0 -1
-57.97193908691406 -8 995.9725341796875 0 -1
-1.3686811923980713 -8 1004.5175170898438 0 -1
153.2732391357422 -8 1023.0413818359375 0 -1
120.39620208740234 -8 990.721923828125 0 -1
187.48880004882812 -8 1030.5740966796875 0 -1
-18.52523422241211 -8 992.6517944335938 0 -1
87.64411163330078 -8 1008.8556518554688 0 -1
131.5404052734375 -8 1000.784912109375 0 -1
164.8813934326172 -8 1011.7435302734375 0 -1
151.30654907226562 -8 982.7421264648438 0 -1
102.13574981689453 -8 991.5169677734375 0 -1
-56.94735336303711 -8 983.0100708007812 0 -1
172.1199188232422 -8 1002.2051391601562 0 -1
-108.12664794921875 -8 985.1161499023438 0 -1
59.90129089355469 -8 995.320068359375 0 -1
-67.91765594482422 -8 984.5248413085938 0 -1
109.6866455078125 -8 1011.3956909179688 0 -1
-32.37564468383789 -8 994.6534423828125 0 -1
110.00049591064453 -8 1001.0259399414062 0 -1
18.12458038330078 -8 988.0543212890625 0 -1
-41.54005432128906 -8 984.6112670898438 0 -1
1.6546283960342407 0 876.25732421875 0 -1
33.03462219238281 0 981.67138671875 0 -1
46.36611557006836 0 953.538818359375 0 -1
3.8507466316223145 0 897.2772827148438 0 -1
11.593189239501953 0 911.4630737304688 0 -1
-125.72689056396484 0 964.7900390625 0 -1
-22.913225173950195 0 932.389892578125 0 -1
114.8639907836914 0 972.2030029296875 0 -1
67.42304229736328 0 954.48876953125 0 -1
-36.45036697387695 0 917.91455078125 0 -1
-29.9939022064209 0 965.4819946289062 0 -1
-88.44178009033203 0 952.313720703125 0 -1
-45.98003387451172 0 912.445068359375 0 -1
84.32223510742188 0 954.380859375 0 -1
112.72759246826172 0 953.8248901367188 0 -1
-84.12834167480469 0 940.2737426757812 0 -1
-63.0821418762207 0 961.072021484375 0 -1
51.48881149291992 0 929.1588134765625 0 -1
12.291979789733887 0 887.28662109375 0 -1
45.68749237060547 0 969.0062866210938 0 -1
-7.045875549316406 0 911.8502197265625 0 -1
-12.2606782913208 0 885.5408325195312 0 -1
104.30984497070312 0 979.1243286132812 0 -1
55.309112548828125 0 965.08251953125 0 -1
-68.96183776855469 0 971.7035522460938 0 -1
-33.78365707397461 0 927.8394775390625 0 -1
23.60112953186035 0 937.7457885742188 0 -1
60.49781799316406 0 977.519775390625 0 -1
-68.31070709228516 0 928.2029418945312 0 -1
-21.695528030395508 0 979.94970703125 0 -1
-63.48173141479492 0 939.7733764648438 0 -1
-44.030364990234375 0 958.831298828125 0 -1
95.73933410644531 0 955.1124267578125 0 -1
9.629018783569336 0 946.4921875 0 -1
0.8143704533576965 0 959.046142578125 0 -1
-41.171180725097656 0 969.7778930664062 0 -1
-53.38551330566406 0 947.6497802734375 0 -1
-73.26713562011719 0 951.8352661132812 0 -1
61.60538101196289 0 943.1998291015625 0 -1
50.03080749511719 0 915.7958374023438 0 -1
87.76863098144531 0 945.0105590820312 0 -1
-52.427669525146484 0 974.090576171875 0 -1
-90.47970581054688 0 977.209228515625 0 -1
-0.3777066469192505 0 943.8424682617188 0 -1
2.1013665199279785 0 980.8536376953125 0 -1
27.649572372436523 0 954.8096313476562 0 -1
-8.736187934875488 0 977.0123901367188 0 -1
-133.55381774902344 0 976.0780639648438 0 -1
16.04134750366211 0 956.816162109375 0 -1
-48.31477355957031 0 931.1345825195312 0 -1
-6.436983585357666 0 967.0170288085938 0 -1
-10.919181823730469 0 952.7061157226562 0 -1
-6.904199123382568 0 897.9489135742188 0 -1
-100.5119857788086 0 951.483642578125 0 -1
99.2120361328125 0 944.4886474609375 0 -1
24.606821060180664 0 920.5582275390625 0 -1
14.050437927246094 0 925.5473022460938 0 -1
34.271949768066406 0 923.44384765625 0 -1
21.653493881225586 0 904.8914794921875 0 -1
12.943262100219727 0 936.8279418945312 0 -1
-28.325023651123047 0 947.716552734375 0 -1
-25.775043487548828 0 897.8201904296875 0 -1
56.709312438964844 0 952.683837890625 0 -1
-37.3309440612793 0 937.8416137695312 0 -1
1.5768669843673706 0 927.9789428710938 0 -1
77.32292938232422 0 932.903076171875 0 -1
78.06175994873047 0 971.1195678710938 0 -1
107.83367156982422 0 963.4149780273438 0 -1
-56.98722839355469 0 924.5049438476562 0 -1
-86.41300964355469 0 968.4095458984375 0 -1
39.861820220947266 0 932.6331176757812 0 -1
-22.091270446777344 0 915.8204345703125 0 -1
-18.935224533081055 0 963.0595092773438 0 -1
32.270328521728516 0 911.2661743164062 0 -1
-10.052087783813477 0 937.93017578125 0 -1
-36.0378303527832 0 902.333251953125 0 -1
-114.94682312011719 0 967.8948974609375 0 -1
19.230619430541992 0 973.4467163085938 0 -1
38.464691162109375 0 946.4931030273438 0 -1
24.43353843688965 0 890.9378051757812 0 -1
129.67617797851562 -8 949.2813110351562 0 -1
141.39212036132812 -8 943.2288818359375 0 -1
96.90730285644531 -8 925.242431640625 0 -1
141.5574493408203 -8 959.7516479492188 0 -1
120.81361389160156 -8 945.114013671875 0 -1
109.64306640625 -8 933.2901611328125 0 -1
68.13381958007812 -8 919.2323608398438 0 -1
149.71514892578125 -8 952.8596801757812 0 -1
56.35035705566406 -8 912.4769897460938 0 -1
93.03362274169922 -8 937.4121704101562 0 -1
22.702919006347656 -8 884.4662475585938 0 -1
125.21256256103516 0 954.3485717773438 0 -1
131.8932647705078 0 964.0242919921875 0 -1
142.72073364257812 0 950.1543579101562 0 -1
142.7671661376953 0 970.9752807617188 0 -1
110.58585357666016 0 943.3408203125 0 -1
133.75901794433594 0 940.7711181640625 0 -1
44.47517395019531 0 904.157470703125 0 -1
101.45067596435547 0 930.9468994140625 0 -1
88.07685852050781 0 928.484375 0 -1
65.5875015258789 0 909.5794677734375 0 -1
78.3800277709961 0 917.8369140625 0 -1
35.93225860595703 -8 889.6492919921875 0 -1
55.48212432861328 -8 898.4653930664062 0 -1
126.2115249633789 0 933.076904296875 0 -1
14.27908706665039 -8 877.5400390625 0 -1
80.26190185546875 -8 909.814697265625 0 -1
89.96723937988281 0 914.3429565429688 0 -1
42.26742172241211 0 889.8909301757812 0 -1
154.6278076171875 -8 944.1173706054688 0 -1
148.35797119140625 -8 876.0984497070312 0 -1
140.78147888183594 -8 805.3582153320312 0 -1
139.3560791015625 -8 787.3145141601562 0 -1
153.7941436767578 -8 890.1940307617188 0 -1
130.1058349609375 -8 828.2056274414062 0 -1
116.27854919433594 -8 772.8426513671875 0 -1
59.59540939331055 -8 868.9805297851562 0 -1
89.65210723876953 -8 805.4282836914062 0 -1
135.5580291748047 -8 893.5227661132812 0 -1
42.98637390136719 -8 847.5198974609375 0 -1
140.3883819580078 -8 907.6950073242188 0 -1
116.78877258300781 -8 870.0693359375 0 -1
129.98568725585938 -8 811.9923706054688 0 -1
106.73150634765625 -8 863.9724731445312 0 -1
131.78065490722656 -8 774.1516723632812 0 -1
66.5331039428711 -8 818.0936889648438 0 -1
143.09262084960938 -8 886.131591796875 0 -1
90.67866516113281 -8 900.05908203125 0 -1
77.73887634277344 -8 898.1485595703125 0 -1
42.097755432128906 -8 863.89990234375 0 -1
94.27501678466797 -8 791.3706665039062 0 -1
129.82937622070312 -8 849.3203125 0 -1
126.43291473388672 -8 762.6314086914062 0 -1
100.5869140625 -8 764.8411865234375 0 -1
107.11056518554688 -8 780.906982421875 0 -1
48.14045333862305 -8 818.5908203125 0 -1
108.89122009277344 -8 853.4334716796875 0 -1
141.30723571777344 -8 829.82275390625 0 -1
50.44729232788086 -8 855.583251953125 0 -1
99.06575775146484 -8 888.3251342773438 0 -1
109.82762908935547 -8 836.4320068359375 0 -1
98.27543640136719 -8 857.3888549804688 0 -1
46.36180114746094 -8 835.8438110351562 0 -1
83.39790344238281 -8 865.421630859375 0 -1
104.4215316772461 -8 797.397705078125 0 -1
117.2243423461914 -8 897.5203857421875 0 -1
128.3988800048828 -8 794.52001953125 0 -1
118.19828033447266 -8 828.56201171875 0 -1
71.63976287841797 -8 872.4754638671875 0 -1
96.975341796875 -8 912.9957275390625 0 -1
102.06272888183594 -8 898.8863525390625 0 -1
49.558258056640625 -8 890.03173828125 0 -1
86.68502044677734 -8 834.8889770507812 0 -1
71.89450073242188 -8 858.9931030273438 0 -1
122.7198257446289 -8 839.5586547851562 0 -1
36.08777618408203 -8 875.89111328125 0 -1
65.35021209716797 -8 891.1702880859375 0 -1
134.43531799316406 -8 877.3617553710938 0 -1
82.70594024658203 -8 818.9263305664062 0 -1
131.604736328125 -8 728.0126342773438 0 -1
148.54898071289062 -8 899.736083984375 0 -1
141.389404296875 -8 932.0362548828125 0 -1
57.10721206665039 -8 826.48046875 0 -1
74.25678253173828 -8 882.9528198242188 0 -1
87.0178451538086 -8 883.7166748046875 0 -1
88.77824401855469 -8 845.8306274414062 0 -1
92.43464660644531 -8 871.4111328125 0 -1
26.91618537902832 -8 855.7181396484375 0 -1
123.87985229492188 -8 858.1748657226562 0 -1
125.6500244140625 -8 888.337890625 0 -1
73.41859436035156 -8 825.3397216796875 0 -1
75.47795104980469 -8 840.1152954101562 0 -1
125.7024154663086 -8 784.076171875 0 -1
106.65925598144531 -8 875.8402709960938 0 -1
109.86947631835938 -8 911.6014404296875 0 -1
119.08781433105469 -8 809.5357666015625 0 -1
133.0471649169922 -8 739.7352294921875 0 -1
71.9266586303711 -8 808.9917602539062 0 -1
150.73776245117188 -8 913.3641967773438 0 -1
121.6109848022461 -8 925.1425170898438 0 -1
110.67723846435547 -8 923.2832641601562 0 -1
122.22382354736328 -8 913.02001953125 0 -1
120.05354309082031 -8 752.147705078125 0 -1
100.69303894042969 -8 821.0988159179688 0 -1
135.23008728027344 -8 865.8937377929688 0 -1
115.38823699951172 -8 798.924560546875 0 -1
135.53399658203125 -8 922.624267578125 0 -1
76.33724212646484 -8 792.4103393554688 0 -1
101.56974029541016 -8 810.3016967773438 0 -1
66.04405212402344 -8 835.1676025390625 0 -1
63.049034118652344 -8 799.2046508789062 0 -1
96.01102447509766 0 758.0006103515625 0 -1
93.84394073486328 0 818.9718627929688 0 -1
89.50811004638672 0 854.5 0 -1
106.04020690917969 0 844.5849609375 0 -1
128.59588623046875 0 897.51416015625 0 -1
143.31976318359375 0 920.5967407226562 0 -1
25.57892417907715 0 876.0469360351562 0 -1
60.640846252441406 0 812.5405883789062 0 -1
135.65760803222656 0 791.8765258789062 0 -1
110.95759582519531 0 822.076171875 0 -1
116.36071014404297 0 741.4756469726562 0 -1
97.50785827636719 0 774.50244140625 0 -1
127.4988021850586 0 879.0629272460938 0 -1
95.66444396972656 0 846.3504028320312 0 -1
62.45815658569336 0 897.4978637695312 0 -1
101.62030029296875 0 918.3352661132812 0 -1
142.2804718017578 0 871.765869140625 0 -1
68.69559478759766 0 867.3271484375 0 -1
113.85880279541016 0 765.4412231445312 0 -1
44.15776824951172 0 854.0270385742188 0 -1
116.65486907958984 0 859.528076171875 0 -1
63.077091217041016 0 825.8770141601562 0 -1
78.9271011352539 0 887.0651245117188 0 -1
48.409423828125 0 877.6207885742188 0 -1
134.75711059570312 0 766.2117919921875 0 -1
104.39679718017578 0 904.8778076171875 0 -1
97.73138427734375 0 863.108642578125 0 -1
113.09203338623047 0 778.2390747070312 0 -1
133.64389038085938 0 913.425537109375 0 -1
92.98448944091797 0 784.5317993164062 0 -1
93.80523681640625 0 831.5360717773438 0 -1
80.78263854980469 0 875.4827270507812 0 -1
84.53270721435547 0 809.7593383789062 0 -1
131.3041229248047 0 754.939208984375 0 -1
89.42650604248047 0 767.94921875 0 -1
71.36290740966797 0 796.5466918945312 0 -1
143.51300048828125 0 842.6251220703125 0 -1
126.16031646728516 0 803.6455688476562 0 -1
117.08204650878906 0 845.9918823242188 0 -1
69.1922378540039 0 846.3656005859375 0 -1
126.69251251220703 0 738.2286987304688 0 -1
97.0147933959961 0 876.5106201171875 0 -1
128.80503845214844 0 922.8320922851562 0 -1
89.78910064697266 0 891.1586303710938 0 -1
81.1899185180664 0 859.8521728515625 0 -1
123.7064437866211 0 778.3607177734375 0 -1
80.45278930664062 0 845.6651611328125 0 -1
83.10527038574219 0 826.8148193359375 0 -1
58.68266296386719 0 881.386962890625 0 -1
134.84950256347656 0 856.7757568359375 0 -1
137.3717803955078 0 883.4432983398438 0 -1
117.35152435302734 0 904.1695556640625 0 -1
16.20903968811035 0 862.8383178710938 0 -1
75.96688079833984 0 819.2158813476562 0 -1
83.32953643798828 0 780.66015625 0 -1
130.4275360107422 0 837.54345703125 0 -1
126.67195129394531 0 868.5471801757812 0 -1
86.94255065917969 0 798.8218994140625 0 -1
48.66349411010742 0 829.4223022460938 0 -1
135.7900848388672 0 781.1531372070312 0 -1
38.98781967163086 0 841.2793579101562 0 -1
112.09288787841797 0 886.3818969726562 0 -1
110.21372985839844 0 802.96923828125 0 -1
56.810054779052734 0 850.4483032226562 0 -1
149.83566284179688 0 929.4421997070312 0 -1
59.024559020996094 0 835.7308349609375 0 -1
32.64823913574219 0 856.538330078125 0 -1
126.64997100830078 0 818.856201171875 0 -1
114.98188018798828 0 915.5733642578125 0 -1
54.9324951171875 0 864.5724487304688 0 -1
120.84478759765625 0 729.6535034179688 0 -1
140.9599609375 0 895.6422119140625 0 -1
103.9921646118164 0 790.0048217773438 0 -1
107.71310424804688 0 754.47314453125 0 -1
145.85862731933594 0 860.3170166015625 0 -1
158.19442749023438 -8 920.5209350585938 0 -1
142.47952270507812 0 815.0285034179688 0 -1
138.76280212402344 -8 756.6956787109375 0 -1
134.18612670898438 0 718.1768188476562 0 -1
151.0381317138672 -8 854.859619140625 0 -1
139.6143798828125 0 746.7110595703125 0 -1
139.7937469482422 0 736.7329711914062 0 -1
145.2065887451172 -8 777.1815185546875 0 -1
158.1649169921875 -8 540.1890258789062 0 -1
157.92591857910156 -8 314.12890625 0 -1
157.01402282714844 -8 604.218505859375 0 -1
157.43621826171875 -8 514.5902709960938 0 -1
141.9483184814453 -8 657.4098510742188 0 -1
160.77903747558594 -8 904.41552734375 0 -1
149.3251190185547 -8 648.7454223632812 0 -1
154.79139709472656 -8 674.4022216796875 0 -1
156.02932739257812 -8 430.0166320800781 0 -1
148.01544189453125 -8 713.928955078125 0 -1
161.261962890625 -8 414.8824157714844 0 -1
146.77943420410156 -8 631.3946533203125 0 -1
160.1542510986328 -8 631.0197143554688 0 -1
152.83265686035156 -8 809.4555053710938 0 -1
153.7310333251953 -8 841.5135498046875 0 -1
160.26678466796875 -8 276.2749938964844 0 -1
158.98187255859375 -8 642.7140502929688 0 -1
148.1507568359375 -8 743.1212768554688 0 -1
154.9630126953125 -8 764.4290161132812 0 -1
149.832275390625 -8 506.1405029296875 0 -1
157.05621337890625 -8 728.1775512695312 0 -1
146.07444763183594 -8 583.667236328125 0 -1
145.90228271484375 -8 612.8682861328125 0 -1
153.56736755371094 -8 408.8079528808594 0 -1
160.02438354492188 -8 501.5883483886719 0 -1
160.18161010742188 -8 477.42156982421875 0 -1
149.843505859375 -8 466.72515869140625 0 -1
157.2333526611328 -8 752.5446166992188 0 -1
159.0478515625 -8 300.6637878417969 0 -1
151.69937133789062 -8 686.7804565429688 0 -1
157.19461059570312 -8 558.8553466796875 0 -1
142.72824096679688 -8 674.777587890625 0 -1
151.63328552246094 -8 527.1536865234375 0 -1
153.41238403320312 -8 621.867919921875 0 -1
156.75067138671875 -8 775.4666748046875 0 -1
155.88653564453125 -8 591.5089721679688 0 -1
152.2550811767578 -8 820.6820678710938 0 -1
159.63230895996094 -8 790.2407836914062 0 -1
144.9730224609375 -8 694.0488891601562 0 -1
153.22421264648438 -8 446.31060791015625 0 -1
140.97071838378906 -8 704.188232421875 0 -1
159.73956298828125 -8 861.5174560546875 0 -1
145.01806640625 -8 730.5221557617188 0 -1
188.12989807128906 -8 961.3275756835938 0 -1
183.2993927001953 -8 801.5707397460938 0 -1
169.90069580078125 -8 469.63238525390625 0 -1
174.2015380859375 -8 660.6321411132812 0 -1
199.31507873535156 -8 820.6219482421875 0 -1
202.1833038330078 -8 923.9047241210938 0 -1
192.11822509765625 -8 853.6085205078125 0 -1
180.510498046875 -8 828.63916015625 0 -1
165.80052185058594 -8 666.2991943359375 0 -1
201.9531707763672 -8 939.7089233398438 0 -1
162.14508056640625 -8 251.2207489013672 0 -1
172.3744354248047 -8 897.6599731445312 0 -1
178.838134765625 -8 907.2031860351562 0 -1
176.46241760253906 -8 605.3545532226562 0 -1
185.73545837402344 -8 840.5454711914062 0 -1
164.10606384277344 -8 849.6973266601562 0 -1
165.96604919433594 -8 384.02557373046875 0 -1
171.0420379638672 -8 857.6769409179688 0 -1
162.8968505859375 -8 569.4956665039062 0 -1
168.47218322753906 -8 635.5806274414062 0 -1
184.96011352539062 -8 620.4862060546875 0 -1
177.87109375 -8 681.1527099609375 0 -1
171.44400024414062 -8 752.7091674804688 0 -1
177.3170928955078 -8 940.365234375 0 -1
170.25535583496094 -8 824.544677734375 0 -1
179.61196899414062 -8 889.55126953125 0 -1
202.85665893554688 -8 1006.4560546875 0 -1
195.3447723388672 -8 896.4910278320312 0 -1
169.848876953125 -8 880.97509765625 0 -1
192.09278869628906 -8 764.0152587890625 0 -1
190.00047302246094 -8 934.3777465820312 0 -1
172.93597412109375 -8 412.7308654785156 0 -1
164.7281494140625 -8 838.52685546875 0 -1
164.29885864257812 -8 616.7766723632812 0 -1
168.31625366210938 -8 677.474609375 0 -1
170.17544555664062 -8 722.03466796875 0 -1
187.18585205078125 -8 869.70361328125 0 -1
171.70330810546875 -8 560.412841796875 0 -1
171.3811492919922 -8 529.7619018554688 0 -1
167.9396514892578 -8 292.06158447265625 0 -1
181.30697631835938 -8 706.5941772460938 0 -1
181.8159942626953 -8 553.4904174804688 0 -1
175.2807159423828 -8 926.2001342773438 0 -1
207.7911834716797 -8 1027.6590576171875 0 -1
167.4251251220703 -8 509.85223388671875 0 -1
178.96356201171875 -8 594.6605224609375 0 -1
161.63067626953125 -8 460.9188537597656 0 -1
181.99510192871094 -8 758.0073852539062 0 -1
200.449462890625 -8 871.359130859375 0 -1
162.17697143554688 -8 354.6516418457031 0 -1
177.1224822998047 -8 695.4915771484375 0 -1
168.3601531982422 -8 766.607421875 0 -1
165.24203491210938 -8 596.3367309570312 0 -1
182.77622985839844 -8 648.04931640625 0 -1
167.60623168945312 -8 344.8050231933594 0 -1
192.4901580810547 -8 979.5935668945312 0 -1
179.49424743652344 -8 540.7802124023438 0 -1
167.9765167236328 -8 547.3789672851562 0 -1
191.92689514160156 -8 948.177734375 0 -1
161.77735900878906 -8 489.7843933105469 0 -1
162.5712890625 -8 189.57872009277344 0 -1
187.66915893554688 -8 660.8672485351562 0 -1
164.00196838378906 -8 329.7464599609375 0 -1
173.8186492919922 -8 519.44921875 0 -1
161.52064514160156 -8 398.9981994628906 0 -1
171.88174438476562 -8 868.3551635742188 0 -1
161.62265014648438 -8 656.2728881835938 0 -1
166.78604125976562 -8 944.923583984375 0 -1
164.25186157226562 -8 804.4061889648438 0 -1
192.83489990234375 -8 883.2985229492188 0 -1
183.56576538085938 -8 569.9912109375 0 -1
180.78404235839844 -8 778.9303588867188 0 -1
181.31971740722656 -8 972.1287841796875 0 -1
177.39210510253906 -8 740.6077270507812 0 -1
163.52745056152344 -8 450.06256103515625 0 -1
183.2501983642578 -8 858.7208251953125 0 -1
175.160400390625 -8 956.668701171875 0 -1
170.30226135253906 -8 426.80340576171875 0 -1
169.56016540527344 -8 498.8183898925781 0 -1
188.7313690185547 -8 725.7723388671875 0 -1
173.28872680664062 -8 786.5836181640625 0 -1
162.2082977294922 -8 366.42889404296875 0 -1
206.55856323242188 -8 978.5125732421875 0 -1
187.5877227783203 -8 818.9178466796875 0 -1
194.7255859375 -8 777.521240234375 0 -1
201.3969268798828 -8 990.5111694335938 0 -1
187.92050170898438 -8 914.0900268554688 0 -1
167.43699645996094 -8 989.915771484375 0 -1
183.37551879882812 -8 992.9602661132812 0 -1
187.27142333984375 -8 1003.7352294921875 0 -1
164.7880859375 -8 974.9301147460938 0 -1
199.3666229248047 -8 1019.59130859375 0 -1
161.5 -6.136059761047363 963.7454833984375 0 -1
145.0633087158203 0 763.0999145507812 0 -1
152.14053344726562 0 415.99127197265625 0 -1
157.05784606933594 0 331.20562744140625 0 -1
147.7561492919922 0 555.3441772460938 0 -1
146.49156188964844 0 719.88720703125 0 -1
152.71548461914062 0 788.9759521484375 0 -1
160.0676727294922 0 380.4240417480469 0 -1
149.4904327392578 0 538.0144653320312 0 -1
151.2125244140625 0 803.3381958007812 0 -1
153.46278381347656 0 494.22772216796875 0 -1
156.99745178222656 0 482.74200439453125 0 -1
150.92059326171875 0 641.7697143554688 0 -1
158.10337829589844 0 583.5320434570312 0 -1
146.93646240234375 0 705.4698486328125 0 -1
144.72412109375 0 664.810302734375 0 -1
154.64987182617188 0 828.1062622070312 0 -1
150.7498779296875 0 772.714599609375 0 -1
153.48080444335938 0 521.092041015625 0 -1
150.76364135742188 0 473.5650939941406 0 -1
145.47134399414062 0 602.7660522460938 0 -1
93.6227798461914 0 696.6222534179688 0 -1
41.1794548034668 0 755.3851318359375 0 -1
63.93318557739258 0 722.0663452148438 0 -1
78.78881072998047 0 728.893798828125 0 -1
24.34117317199707 0 732.0657348632812 0 -1
12.72555923461914 0 636.156982421875 0 -1
92.82865905761719 0 744.0130615234375 0 -1
42.55331802368164 0 775.304443359375 0 -1
14.743145942687988 0 702.8053588867188 0 -1
22.83719825744629 0 845.3715209960938 0 -1
86.44438171386719 0 752.2963256835938 0 -1
29.540287017822266 0 749.0740966796875 0 -1
65.67361450195312 0 761.856689453125 0 -1
19.12791633605957 0 825.0525512695312 0 -1
69.59197235107422 0 709.13818359375 0 -1
19.024972915649414 0 774.007568359375 0 -1
74.28348541259766 0 740.4906616210938 0 -1
18.15191078186035 0 749.740478515625 0 -1
9.006440162658691 0 667.9053955078125 0 -1
29.641292572021484 0 696.6458129882812 0 -1
100.42852783203125 0 719.5194091796875 0 -1
29.41526222229004 0 708.3997192382812 0 -1
74.36012268066406 0 696.032470703125 0 -1
28.513032913208008 0 684.5099487304688 0 -1
85.49386596679688 0 720.9801635742188 0 -1
95.28138732910156 0 709.3263549804688 0 -1
53.964473724365234 0 772.7941284179688 0 -1
56.782691955566406 0 783.9036865234375 0 -1
29.158491134643555 0 664.7415161132812 0 -1
32.92544174194336 0 812.2800903320312 0 -1
56.9535026550293 0 711.8836669921875 0 -1
29.606752395629883 0 822.3502197265625 0 -1
25.9375057220459 0 787.0706176757812 0 -1
38.96766662597656 0 647.240966796875 0 -1
9.11955451965332 0 785.499267578125 0 -1
9.837730407714844 0 837.85546875 0 -1
21.25542449951172 0 807.2222900390625 0 -1
53.531471252441406 0 732.4810791015625 0 -1
31.401453018188477 0 770.3375854492188 0 -1
30.50322151184082 0 797.0249633789062 0 -1
48.78617858886719 0 676.0579833984375 0 -1
88.70146179199219 0 733.7425537109375 0 -1
65.4671401977539 0 750.0984497070312 0 -1
24.42938995361328 0 651.5755615234375 0 -1
19.397920608520508 0 689.8589477539062 0 -1
11.424666404724121 0 648.6445922851562 0 -1
35.50004959106445 0 739.1160888671875 0 -1
77.50993347167969 0 768.8395385742188 0 -1
8.553861618041992 0 848.7578735351562 0 -1
43.131996154785156 0 701.62841796875 0 -1
53.162078857421875 0 694.455078125 0 -1
38.780006408691406 0 786.5686645507812 0 -1
14.412095069885254 0 659.3218994140625 0 -1
101.0116195678711 0 730.4295043945312 0 -1
13.607419967651367 0 729.8317260742188 0 -1
59.3178596496582 0 665.2431640625 0 -1
40.77901077270508 0 715.292724609375 0 -1
54.458465576171875 0 757.3703002929688 0 -1
47.95440673828125 0 809.4977416992188 0 -1
59.45398712158203 0 740.7849731445312 0 -1
68.21403503417969 0 782.7969360351562 0 -1
76.2808837890625 0 757.6767578125 0 -1
41.3564453125 0 659.0938110351562 0 -1
41.934993743896484 0 685.6375122070312 0 -1
120.87384033203125 0 719.0491333007812 0 -1
105.71975708007812 0 741.0242309570312 0 -1
77.84796142578125 -8 779.1887817382812 0 -1
28.498159408569336 -8 840.9086303710938 0 -1
110.0327377319336 -8 735.194580078125 0 -1
83.97953033447266 -8 765.5460815429688 0 -1
114.74127960205078 -8 723.615234375 0 -1
39.70488739013672 -8 823.991455078125 0 -1
92.95269775390625 -8 750.43310546875 0 -1
81.56369018554688 -8 699.5650634765625 0 -1
37.28468322753906 -8 771.9149780273438 0 -1
22.628803253173828 -8 795.5277099609375 0 -1
67.6524429321289 -8 673.4669799804688 0 -1
27.439945220947266 -8 764.6419677734375 0 -1
19.520458221435547 -8 721.2330322265625 0 -1
30.056421279907227 -8 646.2196655273438 0 -1
11.742480278015137 -8 824.14990234375 0 -1
50.64976501464844 -8 751.60302734375 0 -1
68.91748809814453 -8 771.9209594726562 0 -1
21.941469192504883 -8 665.6206665039062 0 -1
49.33176803588867 -8 794.6276245117188 0 -1
52.164608001708984 -8 705.2835083007812 0 -1
48.895179748535156 -8 655.3828125 0 -1
88.70043182373047 -8 716.1014404296875 0 -1
25.7231502532959 -8 692.0059204101562 0 -1
16.48490333557129 -8 854.94189453125 0 -1
115.37240600585938 -8 713.7103271484375 0 -1
42.563514709472656 -8 694.255615234375 0 -1
47.40220642089844 -8 762.0115966796875 0 -1
27.269622802734375 -8 816.6820068359375 0 -1
15.44426155090332 -8 737.7380981445312 0 -1
82.3233871459961 -8 739.5703735351562 0 -1
77.84835815429688 -8 681.5684814453125 0 -1
73.85488891601562 -8 722.6123657226562 0 -1
44.70856857299805 -8 732.7160034179688 0 -1
58.31988525390625 -8 681.48486328125 0 -1
44.76514434814453 -8 721.2959594726562 0 -1
35.30497741699219 -8 702.175537109375 0 -1
16.846149444580078 -8 628.1063842773438 0 -1
32.409664154052734 -8 726.6676635742188 0 -1
12.008936882019043 -8 710.3541870117188 0 -1
11.9835844039917 -8 797.2239379882812 0 -1
53.97167205810547 -8 717.1013793945312 0 -1
63.810302734375 -8 729.8790893554688 0 -1
11.101837158203125 -8 676.8211669921875 0 -1
69.14795684814453 -8 688.7725219726562 0 -1
40.09294891357422 -8 803.4547729492188 0 -1
8.945655822753906 -8 688.5878295898438 0 -1
22.29988670349121 -8 831.954345703125 0 -1
28.040815353393555 -8 739.3914794921875 0 -1
13.774968147277832 -8 813.24267578125 0 -1
106.65814971923828 -8 703.0145874023438 0 -1
15.309967994689941 -8 842.9312744140625 0 -1
24.481016159057617 -8 753.4804077148438 0 -1
61.57866668701172 -8 697.2400512695312 0 -1
15.211828231811523 -8 780.0968017578125 0 -1
97.97823333740234 -8 737.9418334960938 0 -1
38.36343765258789 -8 792.4979248046875 0 -1
29.632362365722656 -8 673.1365966796875 0 -1
28.41789436340332 -8 805.3790283203125 0 -1
62.01261901855469 -8 754.0135498046875 0 -1
14.712333679199219 -8 764.9014282226562 0 -1
88.94950103759766 -8 688.357421875 0 -1
41.5086784362793 -8 744.7565307617188 0 -1
47.5950813293457 -8 668.8115234375 0 -1
18.570152282714844 -8 641.4332885742188 0 -1
29.161514282226562 -8 715.7380981445312 0 -1
62.83454895019531 -8 709.5860595703125 0 -1
36.57901382446289 -8 655.0164184570312 0 -1
40.1539192199707 -8 678.4016723632812 0 -1
79.3729248046875 -8 749.6519775390625 0 -1
26.134321212768555 -8 777.7998657226562 0 -1
78.51311492919922 -8 709.3910522460938 0 -1
103.76036834716797 -8 714.1243286132812 0 -1
78.44461059570312 0 674.5693969726562 0 -1
120.02111053466797 -1.9839565753936768 706.48291015625 0 -1
26.61437225341797 -8 632.74072265625 0 -1
103.14103698730469 -8 691.1795654296875 0 -1
63.09415054321289 -8 659.2898559570312 0 -1
15.701221466064453 -0.4702668786048889 618.96484375 0 -1
72.44544219970703 0 666.8482055664062 0 -1
111.08226013183594 0 698.4048461914062 0 -1
37.368404388427734 0 633.2406616210938 0 -1
23.813486099243164 -8 619.2902221679688 0 -1
49.137062072753906 0 640.8329467773438 0 -1
57.927040100097656 -8 646.0933837890625 0 -1
82.4370346069336 -8 665.6912231445312 0 -1
41.352813720703125 -8 627.3887329101562 0 -1
120.91129302978516 0 598.3943481445312 0 -1
121.1668930053711 0 573.9515991210938 0 -1
70.70767974853516 -8 645.7579345703125 0 -1
41.65062713623047 -8 614.4503173828125 0 -1
114.24163055419922 -8 692.328369140625 0 -1
54.37147521972656 -8 630.9346313476562 0 -1
48.74397277832031 0 627.8309936523438 0 -1
70.03742218017578 0 653.3888549804688 0 -1
61.04457092285156 0 638.8992919921875 0 -1
32.026611328125 -2.0078015327453613 615.636962890625 0 -1
98.13628387451172 -8 678.3399658203125 0 -1
83.9850845336914 -8 655.470947265625 0 -1
4.112168788909912 0 816.836669921875 0 -1
6.254140377044678 0 764.61181640625 0 -1
7.86024808883667 0 804.5680541992188 0 -1
7.290406227111816 -6.93660306930542 866.2651977539062 0 -1
6.9048662185668945 -8 718.9655151367188 0 -1
3.155193328857422 -8 845.59814453125 0 -1
8.208446502685547 -8 656.3408203125 0 -1
2.9026920795440674 -8 830.767333984375 0 -1
3.514557361602783 -8 790.9029541015625 0 -1
-233.49562072753906 -8 712.1673583984375 0 -1
-180.2298126220703 0 710.340087890625 0 -1
-138.50390625 -4.995038986206055 711.2454833984375 0 -1
-213.02806091308594 0 710.2615356445312 0 -1
-205.42181396484375 -8 709.3880615234375 0 -1
-173.81468200683594 -8 708.9459228515625 0 -1
-162.6090087890625 0 707.049560546875 0 -1
-191.98341369628906 0 707.2168579101562 0 -1
-151.4974822998047 0 705.2133178710938 0 -1
-225.0402374267578 0 705.3914794921875 0 -1
-255.0020751953125 -8 703.9931030273438 0 -1
-192.61428833007812 -8 671.5370483398438 0 -1
-212.78256225585938 -8 465.0686950683594 0 -1
-192.47938537597656 -8 460.2875671386719 0 -1
-206.7935028076172 -8 435.4471435546875 0 -1
-144.64842224121094 -8 702.6209716796875 0 -1
-196.64808654785156 -8 551.9041748046875 0 -1
-246.65731811523438 -8 674.9326171875 0 -1
-154.9018096923828 -8 622.181640625 0 -1
-186.2841796875 -8 238.96267700195312 0 -1
-154.16139221191406 -8 514.2540893554688 0 -1
-167.75013732910156 -8 471.9298400878906 0 -1
-203.94815063476562 -8 375.1405334472656 0 -1
-168.69126892089844 -8 545.7647094726562 0 -1
-184.7800750732422 -8 546.101318359375 0 -1
-271.9034118652344 -8 671.1553955078125 0 -1
-252.07508850097656 -8 565.4585571289062 0 -1
-192.95147705078125 -8 356.5766906738281 0 -1
-284.8257141113281 -8 576.8817138671875 0 -1
-183.2254638671875 -8 535.3886108398438 0 -1
-190.6620330810547 -8 488.7019958496094 0 -1
-177.06153869628906 -8 586.7966918945312 0 -1
-165.26547241210938 -8 439.02423095703125 0 -1
-216.94798278808594 -8 666.2684936523438 0 -1
-154.967529296875 -8 481.2287902832031 0 -1
-209.81912231445312 -8 681.5399780273438 0 -1
-175.03451538085938 -8 294.03387451171875 0 -1
-227.67662048339844 -8 526.2592163085938 0 -1
-257.7875061035156 -8 508.3664245605469 0 -1
-266.9464111328125 -8 651.7560424804688 0 -1
-161.44354248046875 -8 353.4822692871094 0 -1
-178.53172302246094 -8 478.2513122558594 0 -1
-148.9954833984375 -8 610.739013671875 0 -1
-170.07200622558594 -8 410.4484558105469 0 -1
-214.87933349609375 -8 391.55865478515625 0 -1
-257.0477294921875 -8 473.3497009277344 0 -1
-194.0095672607422 -8 642.2308349609375 0 -1
-224.9250946044922 -8 407.8529052734375 0 -1
-148.3691864013672 -8 688.5765991210938 0 -1
-233.15402221679688 -8 615.199462890625 0 -1
-203.89657592773438 -8 446.8224792480469 0 -1
-175.0121612548828 -8 336.9599914550781 0 -1
-269.7680969238281 -8 532.70947265625 0 -1
-286.7504577636719 -8 602.6734619140625 0 -1
-161.2080841064453 -8 654.9544067382812 0 -1
-234.37051391601562 -8 652.3522338867188 0 -1
-206.3441162109375 -8 415.8334045410156 0 -1
-145.8521270751953 -8 629.3819580078125 0 -1
-179.9367218017578 -8 364.82666015625 0 -1
-193.54115295410156 -8 299.9595031738281 0 -1
-261.10052490234375 -8 540.3555908203125 0 -1
-226.36607360839844 -8 372.05364990234375 0 -1
-187.1201934814453 -8 254.4329376220703 0 -1
-170.68588256835938 -8 560.6241455078125 0 -1
-235.85145568847656 -8 519.5804443359375 0 -1
-272.9979248046875 -8 642.8319702148438 0 -1
-195.19252014160156 -8 523.007080078125 0 -1
-242.88027954101562 -8 556.770751953125 0 -1
-237.63436889648438 -8 489.0645751953125 0 -1
-189.38070678710938 -8 652.9271240234375 0 -1
-224.32421875 -8 605.8980712890625 0 -1
-180.1974639892578 -8 644.430419921875 0 -1
-159.3770294189453 -8 290.5907897949219 0 -1
-214.1177215576172 -8 447.25518798828125 0 -1
-158.6151885986328 -8 416.25775146484375 0 -1
-196.4769744873047 -8 274.3630676269531 0 -1
-183.64175415039062 -8 378.7908020019531 0 -1
-167.66419982910156 -8 393.83050537109375 0 -1
-238.47775268554688 -8 472.0440673828125 0 -1
-173.45248413085938 -8 656.87890625 0 -1
-204.52882385253906 -8 666.9199829101562 0 -1
-213.40560913085938 -8 596.6571655273438 0 -1
-213.46893310546875 -8 477.25238037109375 0 -1
-217.29005432128906 -8 554.0983276367188 0 -1
-176.75856018066406 -8 263.3000183105469 0 -1
-172.46932983398438 -8 350.3245849609375 0 -1
-251.5210723876953 -8 523.7871704101562 0 -1
-304.4370422363281 -8 650.0660400390625 0 -1
-182.5043487548828 -8 498.0519714355469 0 -1
-257.435302734375 -8 654.5274658203125 0 -1
-293.63995361328125 -8 678.5606079101562 0 -1
-158.10853576660156 -8 491.19171142578125 0 -1
-235.5847930908203 -8 426.52294921875 0 -1
-204.12742614746094 -8 608.3467407226562 0 -1
-200.21060180664062 -8 315.99920654296875 0 -1
-203.720947265625 -8 458.8724365234375 0 -1
-161.73992919921875 -8 677.4453125 0 -1
-274.4477233886719 -8 604.0296020507812 0 -1
-206.09800720214844 -8 355.1109924316406 0 -1
-194.66168212890625 -8 695.2844848632812 0 -1
-166.7110137939453 -8 221.63092041015625 0 -1
-175.38645935058594 -8 510.78497314453125 0 -1
-158.90245056152344 -8 427.32733154296875 0 -1
-244.444091796875 -8 646.06298828125 0 -1
-187.45802307128906 -8 626.880615234375 0 -1
-162.5467987060547 -8 250.05189514160156 0 -1
-193.24728393554688 -8 684.0004272460938 0 -1
-252.45486450195312 -8 598.3229370117188 0 -1
-224.466552734375 -8 487.1379699707031 0 -1
-213.8367919921875 -8 403.04766845703125 0 -1
-158.9010467529297 -8 535.214111328125 0 -1
-224.29513549804688 -8 540.6317749023438 0 -1
-158.66566467285156 -8 261.7703552246094 0 -1
-171.31967163085938 -8 687.3814697265625 0 -1
-186.87843322753906 -8 434.4254150390625 0 -1
-169.33560180664062 -8 371.3848876953125 0 -1
-228.33457946777344 -8 572.9193725585938 0 -1
-154.00601196289062 -8 564.6005859375 0 -1
-213.25396728515625 -8 566.1268310546875 0 -1
-188.0214385986328 -8 613.4781494140625 0 -1
-277.6598815917969 -8 559.35400390625 0 -1
-283.5157775878906 -8 650.0025024414062 0 -1
-228.73097229003906 -8 460.5174255371094 0 -1
-225.69171142578125 -8 394.1656799316406 0 -1
-198.01913452148438 -8 386.2823791503906 0 -1
-220.65194702148438 -8 589.8447875976562 0 -1
-181.32308959960938 -8 414.97406005859375 0 -1
-174.03536987304688 -8 212.19342041015625 0 -1
-159.02650451660156 -8 700.3931274414062 0 -1
-234.62437438964844 -8 583.7670288085938 0 -1
-188.5654754638672 -8 585.2393188476562 0 -1
-228.06326293945312 -8 511.49560546875 0 -1
-181.9568328857422 -8 322.3481140136719 0 -1
-295.5378112792969 -8 616.09716796875 0 -1
-174.0145263671875 -8 601.0765991210938 0 -1
-152.65130615234375 -8 500.4559020996094 0 -1
-217.10494995117188 -8 528.5430297851562 0 -1
-198.81703186035156 -8 365.6148986816406 0 -1
-237.9422607421875 -8 440.1630859375 0 -1
-174.46987915039062 -8 626.9290161132812 0 -1
-232.24151611328125 -8 638.3944702148438 0 -1
-221.9373779296875 -8 687.0514526367188 0 -1
-283.9631652832031 -8 637.3721923828125 0 -1
-264.73126220703125 -8 520.2988891601562 0 -1
-223.946044921875 -8 499.4297790527344 0 -1
-196.2996368408203 -8 577.496826171875 0 -1
-221.9291534423828 -8 469.1639404296875 0 -1
-182.0139923095703 -8 403.1528625488281 0 -1
-182.26156616210938 -8 390.2384033203125 0 -1
-202.79725646972656 -8 330.6466979980469 0 -1
-223.8340301513672 -8 432.265380859375 0 -1
-295.2652893066406 -8 630.2544555664062 0 -1
-261.4984436035156 -8 592.3184814453125 0 -1
-172.1585235595703 -8 532.5889892578125 0 -1
-218.5921173095703 -8 379.2352600097656 0 -1
-197.35595703125 -8 631.803466796875 0 -1
-234.485107421875 -8 678.5897827148438 0 -1
-165.3454132080078 -8 622.6785888671875 0 -1
-252.5397186279297 -8 624.648193359375 0 -1
-152.1949005126953 -8 644.0741577148438 0 -1
-210.52923583984375 -8 318.5593566894531 0 -1
-218.6841278076172 -8 517.5585327148438 0 -1
-285.8173828125 -8 621.2346801757812 0 -1
-168.28770446777344 -8 637.1793212890625 0 -1
-216.76068115234375 -8 576.1544189453125 0 -1
-307.8049621582031 -8 672.9232788085938 0 -1
-185.60585021972656 -8 597.3910522460938 0 -1
-200.26646423339844 -8 622.0432739257812 0 -1
-163.8330535888672 -8 501.6100158691406 0 -1
-291.28509521484375 -8 656.1046752929688 0 -1
-154.3621063232422 -8 383.8236999511719 0 -1
-210.31236267089844 -8 617.5487670898438 0 -1
-185.37718200683594 -8 566.845703125 0 -1
-257.9990539550781 -8 486.79718017578125 0 -1
-175.1976776123047 -8 228.8310089111328 0 -1
-203.81268310546875 -8 399.4097900390625 0 -1
-182.9811248779297 -8 347.4595947265625 0 -1
-162.6675567626953 -8 572.802490234375 0 -1
-217.6845703125 -8 356.6434020996094 0 -1
-183.3470001220703 -8 272.28125 0 -1
-229.9132080078125 -8 559.8916015625 0 -1
-191.85519409179688 -8 506.25714111328125 0 -1
-240.789306640625 -8 626.27099609375 0 -1
-243.29530334472656 -8 452.13031005859375 0 -1
-248.36781311035156 -8 463.3828430175781 0 -1
-167.85464477539062 -8 318.7384948730469 0 -1
-164.17344665527344 -8 274.8623962402344 0 -1
-287.0879211425781 -8 666.91650390625 0 -1
-164.7652587890625 -8 583.1775512695312 0 -1
-244.55650329589844 -8 685.9846801757812 0 -1
-158.56149291992188 -8 310.9870300292969 0 -1
-195.1983184814453 -8 420.4859924316406 0 -1
-146.9757843017578 -8 541.8058471679688 0 -1
-310.55780029296875 -8 660.4991455078125 0 -1
-159.88270568847656 -8 689.4014892578125 0 -1
-204.52682495117188 -8 514.4962768554688 0 -1
-254.86708068847656 -8 578.4358520507812 0 -1
-217.38662719726562 -8 638.2500610351562 0 -1
-270.4408874511719 -8 569.3434448242188 0 -1
-151.23001098632812 -8 659.9729614257812 0 -1
-223.62330627441406 -8 616.724365234375 0 -1
-258.10394287109375 -8 613.7616577148438 0 -1
-271.2905578613281 -8 586.1887817382812 0 -1
-164.40914916992188 -8 192.10508728027344 0 -1
-181.05130004882812 -8 677.939453125 0 -1
-169.3395538330078 -8 383.5603942871094 0 -1
-200.01385498046875 -8 340.52667236328125 0 -1
-147.4154510498047 -8 595.5028076171875 0 -1
-160.70645141601562 -8 456.4331359863281 0 -1
-184.0484619140625 -8 696.6130981445312 0 -1
-216.78590393066406 -8 625.9313354492188 0 -1
-148.38552856445312 -8 554.0955810546875 0 -1
-180.87557983398438 -8 453.6245422363281 0 -1
-168.6009979248047 -8 483.405517578125 0 -1
-243.10177612304688 -8 510.7966003417969 0 -1
-164.1378631591797 -8 338.3627014160156 0 -1
-172.67994689941406 -8 283.3571472167969 0 -1
-271.05718994140625 -8 615.1841430664062 0 -1
-151.46572875976562 -8 674.456787109375 0 -1
-301.9679260253906 -8 640.4346923828125 0 -1
-299.471923828125 -8 663.1520385742188 0 -1
-199.35923767089844 -8 542.26171875 0 -1
-213.1001434326172 -8 495.2586669921875 0 -1
-171.06942749023438 -8 671.2578735351562 0 -1
-151.92958068847656 -8 441.9290771484375 0 -1
-161.3253173828125 -8 598.1378784179688 0 -1
-197.45877075195312 -8 286.8450622558594 0 -1
-267.8217468261719 -8 627.4954833984375 0 -1
-155.27072143554688 -8 469.985595703125 0 -1
-275.5548400878906 -8 658.9474487304688 0 -1
-200.85984802246094 -8 487.1300048828125 0 -1
-204.4359893798828 -8 299.538330078125 0 -1
-180.1519012451172 -8 306.5142822265625 0 -1
-267.20672607421875 -8 550.4100952148438 0 -1
-234.4707794189453 -8 540.6343383789062 0 -1
-238.15478515625 -8 664.94921875 0 -1
-179.62208557128906 -8 467.0960693359375 0 -1
-212.5186309814453 -8 655.5271606445312 0 -1
-246.9470672607422 -8 542.4907836914062 0 -1
-174.6270294189453 -8 575.8836059570312 0 -1
-147.88560485839844 -8 575.633056640625 0 -1
-154.77703857421875 -8 524.8321533203125 0 -1
-202.1062774658203 -8 474.4784851074219 0 -1
-226.49392700195312 -8 443.17852783203125 0 -1
-254.452880859375 -8 667.5186767578125 0 -1
-277.6248779296875 -8 525.5855712890625 0 -1
-309.75482177734375 -8 587.52001953125 0 -1
-333.0414733886719 -8 632.6278686523438 0 -1
-296.12841796875 -8 586.5911254882812 0 -1
-255.15049743652344 -8 419.0765380859375 0 -1
-255.60348510742188 -8 453.7332458496094 0 -1
-308.98199462890625 -8 618.8191528320312 0 -1
-313.1965026855469 -8 642.1287841796875 0 -1
-342.4649658203125 -8 669.4673461914062 0 -1
-254.0168914794922 -8 432.90032958984375 0 -1
-279.4993591308594 -8 511.2466735839844 0 -1
-252.17433166503906 -8 443.30517578125 0 -1
-265.4992370605469 -8 438.5534973144531 0 -1
-321.3130798339844 -8 648.781982421875 0 -1
-243.9899444580078 -8 419.7819519042969 0 -1
-243.81683349609375 -8 386.23760986328125 0 -1
-177.95962524414062 -8 201.72476196289062 0 -1
-283.3413391113281 -8 494.68817138671875 0 -1
-314.0936584472656 -8 598.9051513671875 0 -1
-324.3124084472656 -8 624.7222290039062 0 -1
-319.3471984863281 -8 613.5877685546875 0 -1
-333.3105163574219 -8 643.1640625 0 -1
-239.0143280029297 -8 399.71923828125 0 -1
-246.10365295410156 -8 409.0372314453125 0 -1
-273.626708984375 -8 501.8868103027344 0 -1
-209.7664794921875 -8 286.47650146484375 0 -1
-267.9271545410156 -8 476.3558654785156 0 -1
-298.0216064453125 -8 550.5057373046875 0 -1
-286.34039306640625 -8 530.6837158203125 0 -1
-297.376708984375 -8 532.6640625 0 -1
-220.02005004882812 -8 344.3183288574219 0 -1
-338.59954833984375 -8 657.77880859375 0 -1
-280.4164123535156 -8 542.8117065429688 0 -1
-268.8635559082031 -8 463.6587219238281 0 -1
-198.28469848632812 -8 256.5014343261719 0 -1
-323.3226318359375 -8 667.5157470703125 0 -1
-236.67979431152344 -8 364.216552734375 0 -1
-232.73095703125 -8 385.8690185546875 0 -1
-185.8379669189453 -8 221.6172332763672 0 -1
-301.4373474121094 -8 597.5468139648438 0 -1
-224.5865936279297 -8 328.3940734863281 0 -1
-379.1844177246094 -8 614.4617919921875 0 -1
-321.0828552246094 -7.385753631591797 681.5 0 -1
-559.56640625 -8 101.50275421142578 0 -1
-487.4919128417969 -8 99.6448745727539 0 -1
-381.33343505859375 -8 94.52881622314453 0 -1
-570.5162963867188 -8 99.81778717041016 0 -1
-602.067626953125 -8 78.3359375 0 -1
18.6330623626709 -7.991734981536865 64.5 0 -1
406.90118408203125 -6.70480489730835 64.5 0 -1
-523.8615112304688 -7.610315322875977 64.5 0 -1
302.7708740234375 -2.9098458290100098 64.5 0 -1
50.59141540527344 -3.9428322315216064 64.5 0 -1
76.64277648925781 -7.691486835479736 64.5 0 -1
251.59613037109375 -7.841446876525879 64.5 0 -1
439.5289001464844 -5.959306240081787 64.5 0 -1
-393.320068359375 -2.5117831230163574 64.5 0 -1
-449.7975769042969 -5.844482421875 64.5 0 -1
-23.74849510192871 -4.079623222351074 64.5 0 -1
322.67120361328125 -0.6640604734420776 64.5 0 -1
-552.8375244140625 -7.302953720092773 64.5 0 -1
-382.7003173828125 -0.17378567159175873 64.5 0 -1
-598.1303100585938 -6.887964248657227 95.52493286132812 0 -1
-412.14453125 1.1690435409545898 785.03515625 0 -1
-389.5394287109375 1.4508575201034546 872.6270141601562 0 -1
-516.6919555664062 -3.3213813304901123 416.4500427246094 0 -1
-464.1183776855469 -3.2748348712921143 616.23876953125 0 -1
-581.504150390625 -3.2807393074035645 170.53883361816406 0 -1
-471.9903259277344 -3.521292209625244 585.3507080078125 0 -1
