VERSION .7
FIELDS x y z label object
SIZE 4 4 4 4 4
TYPE F F F I I
COUNT 1 1 1 1 1
WIDTH 838
HEIGHT 1
POINTS 838
VIEWPOINT 0 0 0 1 0 0 0
DATA ascii
1.5 0.8886777758598328 -0.18429605662822723 0 -1
1.5 0.8797125220298767 -0.15919175744056702 0 -1
1.5 0.8882626295089722 -0.2250053733587265 0 -1
1.5 0.8359051942825317 -0.17921915650367737 0 -1
1.5 0.9403648376464844 -0.22328175604343414 1 -1
1.5 0.8376972675323486 -0.11018738150596619 0 -1
1.5 0.8368811011314392 -0.08729030936956406 0 -1
1.5 0.887043297290802 -0.11665230244398117 0 -1
1.5 0.8635112643241882 -0.08860751986503601 0 -1
1.5 0.8421759605407715 -0.15426954627037048 0 -1
1.5 0.9223684668540955 -0.19918742775917053 1 -1
1.5 0.9390116333961487 -0.17633377015590668 1 -1
1.5 0.8649312257766724 -0.22039617598056793 0 -1
1.5 0.856442391872406 -0.13357485830783844 0 -1
1.5 0.8630278706550598 -0.19446392357349396 0 -1
1.5 0.9957832098007202 -0.26145169138908386 0 -1
1.4800000190734863 0.9935961365699768 -0.2732284367084503 0 -1
1.4800000190734863 0.9948202967643738 -0.3837050497531891 0 -1
1.5 0.9956750273704529 -0.32140710949897766 0 -1
1.4800000190734863 1.0120067596435547 -0.3216820955276489 0 -1
1.4800000190734863 1.0154430866241455 -0.3927764296531677 0 -1
1.5 1.0138133764266968 -0.2970423698425293 0 -1
1.5 1.0164837837219238 -0.2767454981803894 0 -1
1.48280930519104 1.0205652713775635 -0.2328941375017166 0 -1
1.5 1.0096997022628784 -0.3619454503059387 0 -1
1.4996353387832642 0.9939962029457092 -0.40095627307891846 0 -1
1.4800000190734863 0.8486393094062805 -0.16676782071590424 0 -1
1.4800000190734863 0.9313910603523254 -0.2094418704509735 1 -1
1.4800000190734863 0.8605504631996155 -0.14555250108242035 0 -1
1.4800000190734863 0.8610396385192871 -0.1078273132443428 0 -1
1.4800000190734863 0.9255983829498291 -0.17191696166992188 1 -1
1.4800000190734863 0.8683472275733948 -0.17150282859802246 0 -1
1.4800000190734863 0.8546566367149353 -0.07595642656087875 0 -1
1.4800000190734863 0.8905494809150696 -0.1355053186416626 0 -1
1.4800000190734863 0.9093637466430664 -0.2160695344209671 0 -1
1.4800000190734863 0.9040306806564331 -0.17549028992652893 0 -1
1.4800000190734863 0.8537210822105408 -0.20198415219783783 0 -1
1.4800000190734863 0.8387271165847778 -0.13685865700244904 0 -1
1.4800000190734863 0.8802570700645447 -0.2086557000875473 0 -1
1.4800000190734863 0.9369056224822998 -0.26699915528297424 1 -1
1.4800000190734863 0.9855226278305054 -0.363389790058136 0 -1
1.4800000190734863 0.9759359955787659 -0.3095286786556244 1 -1
1.4800000190734863 0.8534958362579346 -0.23508290946483612 0 -1
1.4800000190734863 0.972335696220398 -0.2849489152431488 1 -1
1.4800000190734863 0.9207600355148315 -0.3126921057701111 1 -1
1.4800000190734863 0.8708768486976624 -0.2624923586845398 0 -1
1.4800000190734863 0.9830582737922668 -0.24905753135681152 0 -1
1.4800000190734863 0.9612601399421692 -0.3347102105617523 1 -1
1.4800000190734863 0.8962779641151428 -0.29214394092559814 0 -1
1.4800000190734863 0.8749927878379822 -0.2381986826658249 0 -1
1.4800000190734863 0.9244635701179504 -0.28827348351478577 1 -1
1.4800000190734863 0.9115196466445923 -0.24468237161636353 0 -1
1.5 0.8307936191558838 -0.2023869752883911 0 -1
1.4800000190734863 0.8281346559524536 -0.0710509642958641 0 -1
1.481307864189148 0.8234954476356506 -0.21701624989509583 0 -1
1.5 0.8153133988380432 -0.07743403315544128 0 -1
1.5 0.8136400580406189 -0.15515969693660736 0 -1
1.5 0.8169476389884949 -0.11193455010652542 0 -1
1.5 0.8075872659683228 -0.21436773240566254 0 -1
1.4800000190734863 0.8075006604194641 -0.08436080813407898 0 -1
1.4800000190734863 0.80618816614151 -0.11606233566999435 0 -1
1.4800000190734863 0.8040488958358765 -0.15894009172916412 0 -1
1.4800000190734863 0.8044867515563965 -0.2359454333782196 0 -1
1.5 0.7895570993423462 0.4930894374847412 0 -1
1.5 0.7989357709884644 0.03444778546690941 0 -1
1.4800000190734863 0.811866044998169 -0.3926906883716583 0 -1
1.4800000190734863 0.8152244687080383 -0.25678181648254395 0 -1
1.4800000190734863 0.8203362822532654 -0.2823067605495453 0 -1
1.4800000190734863 0.8211541771888733 -0.3393357992172241 0 -1
1.5 0.8277281522750854 -0.2612323760986328 0 -1
1.5 0.8236429691314697 -0.29513201117515564 0 -1
1.5 0.8322150707244873 -0.3793078660964966 0 -1
1.4800000190734863 0.8240885138511658 -0.30719080567359924 0 -1
1.5 0.846534788608551 -0.35415518283843994 0 -1
1.5 0.8782726526260376 -0.3480032682418823 0 -1
1.5 0.9044315218925476 -0.3735734522342682 0 -1
1.5 0.8375635147094727 -0.40305787324905396 0 -1
1.5 0.8450210690498352 -0.29230397939682007 0 -1
1.5 0.8537905216217041 -0.3168002963066101 0 -1
1.5 0.91569584608078 -0.3569753170013428 1 -1
1.5 0.9181789755821228 -0.3966866433620453 1 -1
1.5 0.8860229849815369 -0.3918628692626953 0 -1
1.5 0.8985844850540161 -0.3328254818916321 0 -1
1.5 0.8831339478492737 -0.3107718825340271 0 -1
1.5 0.8366345167160034 -0.3340471088886261 0 -1
1.5 0.9412029385566711 -0.3569469749927521 1 -1
1.5 0.9357669949531555 -0.38100960850715637 1 -1
1.5 0.8601430654525757 -0.390825092792511 0 -1
1.5 0.9530141949653625 -0.39736124873161316 1 -1
1.5 0.9861850142478943 -0.7102664113044739 0 -1
1.5 0.9052034616470337 -0.6668316721916199 0 -1
1.5 0.969730794429779 -0.892303466796875 1 -1
1.5 0.9171916842460632 -0.419146865606308 1 -1
1.5 0.94234699010849 -0.4809621572494507 1 -1
1.5 0.9864717721939087 -0.57274329662323 0 -1
1.5 0.9786939024925232 -0.9305340051651001 1 -1
1.5 0.9366374611854553 -0.8121348023414612 1 -1
1.5 0.986345112323761 -0.7326143383979797 0 -1
1.5 0.9271700382232666 -0.6827508211135864 1 -1
1.5 0.9855396747589111 -1.0868648290634155 0 -1
1.5 0.9620655179023743 -0.5145722031593323 1 -1
1.5 0.9049816131591797 -0.4800785481929779 0 -1
1.5 0.903921902179718 -0.7181320190429688 0 -1
1.5 0.9361617565155029 -0.8372659087181091 1 -1
1.5 0.976915717124939 -0.5452409982681274 1 -1
1.5 0.9562942385673523 -0.6361327171325684 1 -1
1.5 0.9747574925422668 -0.9836516380310059 1 -1
1.5 0.866325855255127 -0.5322636961936951 0 -1
1.5 0.921652615070343 -0.59297114610672 1 -1
1.5 0.929887592792511 -0.5443122982978821 1 -1
1.5 0.9611892104148865 -0.7909021377563477 1 -1
1.5 0.9605940580368042 -0.5701876282691956 1 -1
1.5 0.9338763356208801 -0.7896727919578552 1 -1
1.5 0.8563517332077026 -0.44218939542770386 0 -1
1.5 0.9289754629135132 -0.7252530455589294 1 -1
1.5 0.9826955199241638 -0.6377190351486206 0 -1
1.5 0.8682254552841187 -0.47112083435058594 0 -1
1.5 0.9837870001792908 -0.5942919850349426 0 -1
1.5 0.9402037262916565 -0.6993690729141235 1 -1
1.5 0.9029035568237305 -0.6358165740966797 0 -1
1.5 0.946531355381012 -0.8817557692527771 1 -1
1.5 0.9599648118019104 -0.9572853446006775 1 -1
1.5 0.9135069251060486 -0.740795373916626 0 -1
1.5 0.9588239789009094 -0.7134764194488525 1 -1
1.5 0.9394185543060303 -0.5760020613670349 1 -1
1.5 0.9424798488616943 -0.5212953090667725 1 -1
1.5 0.9613744616508484 -0.9146206974983215 1 -1
1.5 0.9103943109512329 -0.5328136682510376 0 -1
1.5 0.9810282588005066 -0.672856867313385 1 -1
1.5 0.9849339127540588 -0.8754289150238037 0 -1
1.5 0.9577839970588684 -0.8644316792488098 1 -1
1.5 0.9205052852630615 -0.5107954144477844 1 -1
1.5 0.9670752286911011 -0.4829085171222687 1 -1
1.5 0.9121440649032593 -0.4454324245452881 0 -1
1.5 0.9559318423271179 -0.6765198111534119 1 -1
1.5 0.9536683559417725 -0.7391528487205505 1 -1
1.5 0.9338726997375488 -0.7508295774459839 1 -1
1.5 0.8762024641036987 -0.4951971769332886 0 -1
1.5 0.8915478587150574 -0.4569094181060791 0 -1
1.5 0.963739812374115 -0.4512721598148346 1 -1
1.5 0.9786054491996765 -1.0315989255905151 1 -1
1.5 0.9216243028640747 -0.617493748664856 1 -1
1.5 0.9591657519340515 -0.8198637366294861 1 -1
1.5 0.9494982957839966 -0.43140196800231934 1 -1
1.5 0.9760655760765076 -0.41837382316589355 1 -1
1.5 0.8938626646995544 -0.41487446427345276 0 -1
1.5 0.8850396871566772 -0.558012843132019 0 -1
1.5 0.9184919595718384 -0.5644091963768005 1 -1
1.5 0.8851268887519836 -0.5209263563156128 0 -1
1.5 0.8971014618873596 -0.5792601704597473 0 -1
1.5 0.9022800326347351 -0.694696843624115 0 -1
1.5 0.9009914398193359 -0.6036909818649292 0 -1
1.5 0.9266633987426758 -0.46533218026161194 1 -1
1.5 0.9817503094673157 -0.8481252789497375 1 -1
1.5 0.9704998135566711 -1.0569031238555908 1 -1
1.5 0.9838681817054749 -0.9571589231491089 0 -1
1.5 0.9369063377380371 -0.6573805809020996 1 -1
1.5 0.956193208694458 -0.6102723479270935 1 -1
1.5 0.9845080971717834 -0.46052899956703186 0 -1
1.5 0.9653297066688538 -0.7589195966720581 1 -1
1.5 0.9901255965232849 -0.8017562627792358 0 -1
1.5 0.9917038083076477 -0.5131283402442932 0 -1
1.5 0.9936684370040894 -0.7718839645385742 0 -1
1.4800000190734863 0.9896573424339294 -0.6650319695472717 0 -1
1.4800000190734863 0.9925090074539185 -0.6927905082702637 0 -1
1.4800000190734863 0.9960839152336121 -0.5891268253326416 0 -1
1.4800000190734863 0.9963380098342896 -1.049303650856018 0 -1
1.4800000190734863 0.9955219030380249 -0.8286277055740356 0 -1
1.4800000190734863 0.995438277721405 -0.8575477600097656 0 -1
1.4800000190734863 0.9979616403579712 -1.114617943763733 0 -1
1.4800000190734863 1.0010347366333008 -0.616828441619873 0 -1
1.4800000190734863 1.004473090171814 -0.9522450566291809 0 -1
1.4800000190734863 1.0043482780456543 -1.086555004119873 0 -1
1.4800000190734863 1.002511978149414 -0.44400346279144287 0 -1
1.4800000190734863 1.0012226104736328 -0.46502885222435 0 -1
1.5 0.9984369874000549 -0.7504080533981323 0 -1
1.5 0.995445728302002 -1.0578464269638062 0 -1
1.4800000190734863 1.0072102546691895 -0.7398104071617126 0 -1
1.4800000190734863 1.0048127174377441 -0.7930653691291809 0 -1
1.4800000190734863 1.0094619989395142 -0.8848739266395569 0 -1
1.4800000190734863 1.012154221534729 -0.568159818649292 0 -1
1.4800000190734863 1.0123320817947388 -0.7042945623397827 0 -1
1.4800000190734863 1.011450171470642 -0.6607053279876709 0 -1
1.4800000190734863 1.0146183967590332 -0.7630987763404846 0 -1
1.4800000190734863 1.0142320394515991 -0.6346963047981262 0 -1
1.4800000190734863 1.0184539556503296 -1.0246063470840454 0 -1
1.4800000190734863 1.0186104774475098 -1.0699269771575928 0 -1
1.4800000190734863 1.018749713897705 -0.8284850716590881 0 -1
1.4800000190734863 1.0201343297958374 -0.9336469769477844 0 -1
1.5 1.0207557678222656 -0.5509627461433411 0 -1
1.5 1.014762282371521 -0.9174345135688782 0 -1
1.5 1.0178704261779785 -0.9769818186759949 0 -1
1.5 1.0441968441009521 -0.5862041115760803 0 -1
1.5 1.0255032777786255 -0.7033167481422424 0 -1
1.5 1.0322903394699097 -0.7808117270469666 0 -1
1.5 1.0257809162139893 -0.6109203100204468 0 -1
1.5 1.029003381729126 -0.7303618788719177 0 -1
1.5 1.0253148078918457 -0.8737037777900696 0 -1
1.5 1.0307093858718872 -0.5085088014602661 0 -1
1.5 1.04933762550354 -0.5591976642608643 0 -1
1.5 1.0322266817092896 -0.8314121961593628 0 -1
1.5 1.0281695127487183 -0.7527574300765991 0 -1
1.5 1.0308688879013062 -0.6382136344909668 0 -1
1.5 1.024956226348877 -0.9438241124153137 0 -1
1.4800000190734863 1.0204520225524902 -0.9883038997650146 0 -1
1.4800000190734863 1.0244543552398682 -0.8543412089347839 0 -1
1.4800000190734863 1.0229061841964722 -1.1225003004074097 0 -1
1.4800000190734863 1.0243295431137085 -0.9616105556488037 0 -1
1.4800000190734863 1.0493102073669434 -1.0153772830963135 0 -1
1.4800000190734863 1.029594898223877 -0.8030895590782166 0 -1
1.4800000190734863 1.0246673822402954 -0.7215388417243958 0 -1
1.4800000190734863 1.027419924736023 -0.9001659154891968 0 -1
1.4800000190734863 1.0454893112182617 -0.9475982785224915 0 -1
1.4800000190734863 1.0252765417099 -1.101083517074585 0 -1
1.5 1.0098700523376465 -1.2193509340286255 0 -1
1.5 1.0011957883834839 -1.2949367761611938 0 -1
1.4800000190734863 1.0437469482421875 -0.5441948771476746 0 -1
1.4800000190734863 1.0425471067428589 -0.6484497785568237 0 -1
1.4800000190734863 1.0465906858444214 -0.831976592540741 0 -1
1.4800000190734863 1.0242797136306763 -0.4772995114326477 0 -1
1.4800000190734863 1.0474942922592163 -0.875803530216217 0 -1
1.4800000190734863 1.0342705249786377 -0.6692805886268616 0 -1
1.4800000190734863 1.0318090915679932 -0.5963185429573059 0 -1
1.4800000190734863 1.0365558862686157 -0.6980382204055786 0 -1
1.4800000190734863 1.0230135917663574 -0.4382242262363434 0 -1
1.4800000190734863 1.0346873998641968 -0.5674948692321777 0 -1
1.4990795850753784 1.059385895729065 -0.5370000004768372 0 -1
1.4800000190734863 1.025364875793457 -0.4152456521987915 0 -1
1.4800000190734863 1.0309088230133057 -0.3613967001438141 0 -1
1.4800000190734863 1.0352638959884644 -0.10224325954914093 0 -1
1.4800000190734863 1.0423405170440674 -0.3837902843952179 0 -1
1.4800000190734863 1.045549988746643 -0.17217613756656647 0 -1
1.4800000190734863 1.0498727560043335 -0.002140780445188284 0 -1
1.4800000190734863 1.0261359214782715 -0.25632303953170776 0 -1
1.4800000190734863 1.0474421977996826 -0.24802908301353455 0 -1
1.4800000190734863 1.0430169105529785 -0.04073614999651909 0 -1
1.4800000190734863 1.0468233823776245 -0.4192585051059723 0 -1
1.4800000190734863 1.0284769535064697 -0.29250073432922363 0 -1
1.4800000190734863 1.031566858291626 -0.1937614381313324 0 -1
1.4800000190734863 1.0634746551513672 -0.452322393655777 0 -1
1.4800000190734863 1.0539803504943848 -0.4748275578022003 0 -1
1.4800000190734863 1.0538157224655151 -0.09114202857017517 0 -1
1.4800000190734863 1.0582367181777954 -0.5001040697097778 0 -1
1.4800000190734863 1.052893042564392 -0.2735268175601959 0 -1
1.4800000190734863 1.0626347064971924 -0.3740040361881256 0 -1
1.5 1.0684995651245117 -0.4445396959781647 0 -1
1.5 1.0677353143692017 -0.27352842688560486 0 -1
1.5 1.0626498460769653 -0.41033726930618286 0 -1
1.5 1.0655337572097778 -0.2507832944393158 0 -1
1.5 1.0564600229263306 -0.36729443073272705 0 -1
1.5 1.069533348083496 -0.2046513855457306 0 -1
1.5 1.0648751258850098 -0.47000885009765625 0 -1
1.4911253452301025 1.0698000192642212 -0.3452012240886688 0 -1
1.4814845323562622 1.0698000192642212 -0.18364889919757843 0 -1
1.4805816411972046 1.0698000192642212 -0.4001684784889221 0 -1
1.4847471714019775 1.0698000192642212 -0.296697735786438 0 -1
1.4864925146102905 1.0698000192642212 -0.5207103490829468 0 -1
1.4829964637756348 1.0698000192642212 -0.23965194821357727 0 -1
1.4805036783218384 1.0698000192642212 -0.04725457727909088 0 -1
1.48209547996521 1.0698000192642212 -0.42706984281539917 0 -1
1.4997968673706055 1.0698000192642212 -0.5030549764633179 0 -1
1.4837602376937866 1.0698000192642212 0.06539002060890198 0 -1
1.4991871118545532 1.0698000192642212 -0.3231584131717682 0 -1
1.4944374561309814 1.0698000192642212 -0.14000284671783447 0 -1
1.496673583984375 1.0698000192642212 -0.07847879081964493 0 -1
1.4824776649475098 1.0698000192642212 0.023107275366783142 0 -1
1.4947941303253174 1.0698000192642212 -0.10567259788513184 0 -1
1.4800000190734863 1.0657424926757812 -0.1569531112909317 0 -1
1.4800000190734863 1.0602842569351196 -0.12408605217933655 0 -1
1.4800000190734863 1.0568482875823975 -0.06941211968660355 0 -1
1.4800000190734863 1.059876799583435 -0.20966891944408417 0 -1
1.4800000190734863 1.0688180923461914 -0.011978923343122005 0 -1
1.4804332256317139 1.0507999658584595 0.18020232021808624 0 -1
1.4803895950317383 1.0507999658584595 0.5268734097480774 0 -1
1.4807453155517578 1.0507999658584595 0.22654883563518524 0 -1
1.4822056293487549 1.0507999658584595 0.45429158210754395 0 -1
1.4997599124908447 1.0570241212844849 0.0729999989271164 0 -1
1.5 1.0595115423202515 0.04879860579967499 0 -1
1.5 1.0658152103424072 -0.007157687563449144 0 -1
1.5 1.0522912740707397 -0.2956386208534241 0 -1
1.5 1.0511207580566406 0.0201314277946949 0 -1
1.5 1.0570964813232422 -0.22204144299030304 0 -1
1.5 1.045310616493225 -0.19879646599292755 0 -1
1.5 1.0488141775131226 -0.11181359738111496 0 -1
1.5 1.0458860397338867 -0.33594974875450134 0 -1
1.5 1.0483314990997314 -0.02809629775583744 0 -1
1.5 1.0446616411209106 -0.4449044466018677 0 -1
1.5 1.0450235605239868 -0.06356736272573471 0 -1
1.5 1.0394763946533203 -0.0856713131070137 0 -1
1.5 1.0332577228546143 -0.1619405597448349 0 -1
1.5 1.0348008871078491 -0.2399926334619522 0 -1
1.5 1.0313900709152222 -0.13856346905231476 0 -1
1.5 1.0402065515518188 -0.3124626576900482 0 -1
1.5 1.0403159856796265 -0.26757654547691345 0 -1
1.5 1.0345039367675781 -0.409877210855484 0 -1
1.5 1.0375232696533203 -0.47631439566612244 0 -1
1.5 1.0251344442367554 -0.3896380662918091 0 -1
1.5 1.0152547359466553 -0.4269867241382599 0 -1
1.5 1.0108790397644043 -0.7918040156364441 0 -1
1.5 1.0082108974456787 -0.8333202600479126 0 -1
1.5 1.0117058753967285 -1.0806281566619873 0 -1
1.5 1.0073381662368774 -1.1276651620864868 0 -1
1.5 1.0123331546783447 -0.5319902300834656 0 -1
1.5 1.007106065750122 -0.6817066073417664 0 -1
1.5 1.0091605186462402 -0.5007887482643127 0 -1
1.5 1.0085453987121582 -0.5851619839668274 0 -1
1.5 1.0077277421951294 -0.6523178815841675 0 -1
1.5 1.0108156204223633 -0.47317010164260864 0 -1
1.5 1.0040351152420044 -1.0023293495178223 0 -1
1.5 1.0020240545272827 -0.9359274506568909 0 -1
1.5 1.0040228366851807 -0.6068090796470642 0 -1
1.5 0.9995239973068237 -1.0364034175872803 0 -1
1.5 1.0039362907409668 -0.8629263639450073 0 -1
1.4800000190734863 0.9062360525131226 -0.5519811511039734 0 -1
1.4800000190734863 0.9035864472389221 -0.439574658870697 0 -1
1.4800000190734863 0.9676510691642761 -0.9943763017654419 1 -1
1.4800000190734863 0.8660269975662231 -0.5493620038032532 0 -1
1.4800000190734863 0.8675388693809509 -0.4337162375450134 0 -1
1.4800000190734863 0.9545812606811523 -0.4943099021911621 1 -1
1.4800000190734863 0.9875862002372742 -0.8945146799087524 0 -1
1.4800000190734863 0.9759001731872559 -0.48096513748168945 1 -1
1.4800000190734863 0.9336549043655396 -0.7716273665428162 1 -1
1.4800000190734863 0.9780470728874207 -0.7223505973815918 1 -1
1.4800000190734863 0.8530576825141907 -0.4758177399635315 0 -1
1.4800000190734863 0.8687092661857605 -0.5059689283370972 0 -1
1.4800000190734863 0.9407839775085449 -0.6215217709541321 1 -1
1.4800000190734863 0.9783251285552979 -0.6453064680099487 1 -1
1.4800000190734863 0.972632884979248 -0.7977837920188904 1 -1
1.4800000190734863 0.9423595666885376 -0.8572885990142822 1 -1
1.4800000190734863 0.9099053144454956 -0.6198186278343201 0 -1
1.4800000190734863 0.9309535622596741 -0.5975841879844666 1 -1
1.4800000190734863 0.9884899854660034 -0.9931809306144714 0 -1
1.4800000190734863 0.9861567616462708 -0.7581745982170105 0 -1
1.4800000190734863 0.9735203981399536 -0.9489476084709167 1 -1
1.4800000190734863 0.9326220750808716 -0.433236688375473 1 -1
1.4800000190734863 0.9384477734565735 -0.5659918785095215 1 -1
1.4800000190734863 0.9274604916572571 -0.6395671367645264 1 -1
1.4800000190734863 0.9121145009994507 -0.48914942145347595 0 -1
1.4800000190734863 0.9229593873023987 -0.6667823791503906 1 -1
1.4800000190734863 0.923416256904602 -0.5318760871887207 1 -1
1.4800000190734863 0.8745822310447693 -0.4574701189994812 0 -1
1.4800000190734863 0.8855009078979492 -0.5327813029289246 0 -1
1.4800000190734863 0.9709110260009766 -0.8363252282142639 1 -1
1.4800000190734863 0.9558525085449219 -0.5459671020507812 1 -1
1.4800000190734863 0.9464241862297058 -0.7893937826156616 1 -1
1.4800000190734863 0.9150545597076416 -0.6984096765518188 1 -1
1.4800000190734863 0.9501441717147827 -0.9183697700500488 1 -1
1.4800000190734863 0.965391993522644 -0.5845094323158264 1 -1
1.4800000190734863 0.9698958396911621 -0.45656079053878784 1 -1
1.4800000190734863 0.9826704263687134 -0.968506932258606 0 -1
1.4800000190734863 0.8849474191665649 -0.48398587107658386 0 -1
1.4800000190734863 0.9176384806632996 -0.5752849578857422 1 -1
1.4800000190734863 0.9838951826095581 -0.5398287177085876 0 -1
1.4800000190734863 0.980115532875061 -1.0706712007522583 1 -1
1.4800000190734863 0.9712082743644714 -0.911914587020874 1 -1
1.4800000190734863 0.909198522567749 -0.4660605192184448 0 -1
1.4800000190734863 0.9861290454864502 -0.9278063774108887 0 -1
1.4800000190734863 0.9178228378295898 -0.7512598633766174 1 -1
1.4800000190734863 0.9817954897880554 -0.4286162853240967 1 -1
1.4800000190734863 0.9650429487228394 -0.672848641872406 1 -1
1.4800000190734863 0.9765288233757019 -0.5098735094070435 1 -1
1.4800000190734863 0.9689908027648926 -1.0193661451339722 1 -1
1.4800000190734863 0.8954083323478699 -0.6484677195549011 0 -1
1.4800000190734863 0.905302107334137 -0.3962271809577942 0 -1
1.4800000190734863 0.8909143209457397 -0.34960392117500305 0 -1
1.4800000190734863 0.8913688659667969 -0.37843796610832214 0 -1
1.4800000190734863 0.9367451667785645 -0.40651246905326843 1 -1
1.4800000190734863 0.8414218425750732 -0.2875004708766937 0 -1
1.4800000190734863 0.9046520590782166 -0.32813411951065063 0 -1
1.4800000190734863 0.9226044416427612 -0.37831735610961914 1 -1
1.4800000190734863 0.8718606233596802 -0.2962421178817749 0 -1
1.4800000190734863 0.9784466028213501 -0.40540310740470886 1 -1
1.4800000190734863 0.8416376113891602 -0.2595992386341095 0 -1
1.4800000190734863 0.8532587885856628 -0.3132266402244568 0 -1
1.4800000190734863 0.8773506879806519 -0.3247787058353424 0 -1
1.4800000190734863 0.9611307978630066 -0.386069118976593 1 -1
1.4800000190734863 0.9195430874824524 -0.3451911509037018 1 -1
1.4800000190734863 0.8648207783699036 -0.36873146891593933 0 -1
1.4800000190734863 0.8360579013824463 -0.38596194982528687 0 -1
1.4800000190734863 0.8633741736412048 -0.4094538390636444 0 -1
1.4800000190734863 0.8562958836555481 -0.3394947946071625 0 -1
1.4800000190734863 0.8352153301239014 -0.36370277404785156 0 -1
1.5 0.8123237490653992 -0.32064923644065857 0 -1
1.5 0.8066761493682861 -0.245968759059906 0 -1
1.4808008670806885 1.0675287246704102 0.5630000233650208 0 -1
1.4800000190734863 1.0616297721862793 0.7445552349090576 0 -1
1.4800000190734863 1.0683081150054932 0.983431875705719 0 -1
1.4800000190734863 1.0600804090499878 0.6254666447639465 0 -1
1.4800000190734863 1.0634464025497437 0.7798948884010315 0 -1
1.4800000190734863 1.0675307512283325 0.6617007255554199 0 -1
1.4800000190734863 1.0555589199066162 0.7022455930709839 0 -1
1.4933446645736694 1.0698000192642212 0.5953447222709656 0 -1
1.48252272605896 1.0698000192642212 0.7196776866912842 0 -1
1.4923449754714966 1.0698000192642212 0.6823967695236206 0 -1
1.4926763772964478 1.0698000192642212 0.7584171295166016 0 -1
1.480957269668579 1.0698000192642212 0.8165947198867798 0 -1
1.480010747909546 1.0698000192642212 0.8847700953483582 0 -1
1.4816275835037231 1.0698000192642212 0.9269675016403198 0 -1
1.4818729162216187 1.0698000192642212 1.0250334739685059 0 -1
1.4800000190734863 0.8289748430252075 -0.09941248595714569 0 -1
1.4800000190734863 0.8238440752029419 -0.18237562477588654 0 -1
1.5 0.7984119057655334 0.6919375061988831 0 -1
1.5 0.7956798076629639 0.45911258459091187 0 -1
1.5 0.79609614610672 0.6075886487960815 0 -1
1.5 0.8005129098892212 0.5138053894042969 0 -1
1.5 0.7920665740966797 0.741186261177063 0 -1
1.5 0.776688814163208 1.0747898817062378 0 -1
1.5 0.7884719371795654 0.6570947766304016 0 -1
1.5 0.7836609482765198 0.8073559999465942 0 -1
1.5 0.7902941703796387 0.712365448474884 0 -1
1.5 0.7987386584281921 0.16443270444869995 0 -1
1.5 0.7927407622337341 0.8366132378578186 0 -1
1.5 0.8044238090515137 0.18794196844100952 0 -1
1.5 0.8059213757514954 0.21553049981594086 0 -1
1.5 0.8101602792739868 0.6669538617134094 0 -1
1.5 0.8072673082351685 0.40773171186447144 0 -1
1.5 0.8077195286750793 0.08422277867794037 0 -1
1.5 0.8111774325370789 0.3430793583393097 0 -1
1.5 0.8075612187385559 0.0552699975669384 0 -1
1.5 0.8090624809265137 0.013911955989897251 0 -1
1.5 0.8146061301231384 0.28523215651512146 0 -1
1.5 0.8119835257530212 0.3671395480632782 0 -1
1.5 0.8168609738349915 0.5471546053886414 0 -1
1.5 0.8171084523200989 0.31126895546913147 0 -1
1.5 0.8182519674301147 -0.022078609094023705 0 -1
1.5 0.8249788284301758 0.6179513335227966 0 -1
1.5 0.8254551887512207 0.6406188607215881 0 -1
1.5 0.8230009078979492 0.5730953216552734 0 -1
1.5 0.8241008520126343 0.4515858590602875 0 -1
1.5 0.8200637698173523 0.4986923336982727 0 -1
1.4862043857574463 0.8242045044898987 0.673156201839447 0 -1
1.4800000190734863 0.8194278478622437 0.01526431180536747 0 -1
1.4800000190734863 0.8189169764518738 0.07302447408437729 0 -1
1.4800000190734863 0.819463312625885 0.3271554112434387 0 -1
1.4800000190734863 0.8156225681304932 0.38295724987983704 0 -1
1.4800000190734863 0.8243944048881531 0.037734560668468475 0 -1
1.4800000190734863 0.8240453600883484 0.15775546431541443 0 -1
1.4800000190734863 0.8260132074356079 0.5405365824699402 0 -1
1.4800000190734863 0.8277599215507507 0.4055560231208801 0 -1
1.4800000190734863 0.8268786072731018 0.1145431250333786 0 -1
1.4800000190734863 0.8281396627426147 0.5112375020980835 0 -1
1.4800000190734863 0.8291219472885132 0.3030944764614105 0 -1
1.4800000190734863 0.8288621306419373 0.18648575246334076 0 -1
1.4800000190734863 0.8298203945159912 0.2277468889951706 0 -1
1.4800000190734863 0.8316303491592407 0.459697425365448 0 -1
1.4800000190734863 0.8293964862823486 0.48708832263946533 0 -1
1.4800000190734863 0.8325851559638977 0.372409462928772 0 -1
1.4800000190734863 0.8325537443161011 0.6532087326049805 0 -1
1.5 0.8234578371047974 0.24856552481651306 0 -1
1.5 0.8272668719291687 0.4298282563686371 0 -1
1.5 0.8219704627990723 0.14094577729701996 0 -1
1.5 0.8273316025733948 0.19570651650428772 0 -1
1.5 0.8279814720153809 -0.0013070134446024895 0 -1
1.5 0.8310794830322266 0.5957838892936707 0 -1
1.5 0.8309066891670227 0.02633282169699669 0 -1
1.5 0.8301180005073547 0.09358642995357513 0 -1
1.5 0.8328837156295776 0.0623156875371933 0 -1
1.5 0.8343659043312073 0.40629956126213074 0 -1
1.4849920272827148 0.8321589231491089 -0.0424850694835186 0 -1
1.5 0.882429838180542 0.9016814827919006 0 -1
1.5 0.8684651851654053 0.6201519966125488 0 -1
1.5 0.8413029909133911 0.15186651051044464 0 -1
1.5 0.8856804966926575 0.6551414728164673 0 -1
1.5 0.8536109924316406 0.235985666513443 0 -1
1.5 0.8415851593017578 0.38391759991645813 0 -1
1.5 0.835866391658783 0.33404451608657837 0 -1
1.5 0.8509010672569275 0.2686314582824707 0 -1
1.5 0.8622347116470337 0.5890134572982788 0 -1
1.5 0.876820981502533 0.5507728457450867 0 -1
1.5 0.8427167534828186 0.48605266213417053 0 -1
1.5 0.8969966173171997 0.9960423111915588 0 -1
1.5 0.8680199384689331 0.49399533867836 0 -1
1.5 0.8864203095436096 0.7478139400482178 0 -1
1.5 0.8574792742729187 0.7998123168945312 0 -1
1.5 0.8445138931274414 0.704940915107727 0 -1
1.5 0.8673501014709473 0.7280555963516235 0 -1
1.5 0.867641031742096 0.3888735771179199 0 -1
1.5 0.8904535174369812 0.9587022066116333 0 -1
1.5 0.8812671303749084 0.8529191017150879 0 -1
1.5 0.8509303331375122 0.3599129915237427 0 -1
1.5 0.851647675037384 0.447468101978302 0 -1
1.5 0.8608514070510864 0.7514789700508118 0 -1
1.5 0.8675087690353394 0.5287365317344666 0 -1
1.5 0.896584689617157 0.9175865054130554 0 -1
1.5 0.8457569479942322 0.6256006956100464 0 -1
1.5 0.889961302280426 0.7050726413726807 0 -1
1.5 0.8460875749588013 0.6538534760475159 0 -1
1.5 0.8368844389915466 0.12073548883199692 0 -1
1.5 0.9100853204727173 1.0831323862075806 0 -1
1.5 0.8463396430015564 0.5076875686645508 0 -1
1.5 0.8554748892784119 0.6780878901481628 0 -1
1.5 0.8600372672080994 0.3363299071788788 0 -1
1.5 0.8484013080596924 0.20342566072940826 0 -1
1.5 0.8434360027313232 0.5644780397415161 0 -1
1.5 0.880937397480011 0.6774927377700806 0 -1
1.5 0.896702766418457 0.7911795377731323 0 -1
1.5 0.8411445617675781 0.5393347144126892 0 -1
1.5 0.920058012008667 1.1104949712753296 1 -1
1.5 0.8672589659690857 1.0191344022750854 0 -1
1.5 0.897333025932312 1.0620365142822266 0 -1
1.5 0.8617924451828003 0.9338559508323669 0 -1
1.5 0.903615415096283 1.2037384510040283 0 -1
1.5 0.8984972834587097 1.0401421785354614 0 -1
1.5 0.8745107054710388 1.1492010354995728 0 -1
1.5 0.9073075652122498 1.2320504188537598 0 -1
1.5 0.9206463694572449 1.1898012161254883 1 -1
1.5 0.9162347912788391 1.1418876647949219 1 -1
1.5 0.8576390743255615 0.8863666653633118 0 -1
1.5 0.8498367071151733 0.7749831080436707 0 -1
1.5 0.8666940331459045 0.9579612612724304 0 -1
1.5 0.8619788885116577 0.8390713334083557 0 -1
1.5 0.8628052473068237 1.0577675104141235 0 -1
1.5 0.8976694941520691 1.1825186014175415 0 -1
1.5 0.8773775696754456 1.2120403051376343 0 -1
1.5 0.89783775806427 1.1045218706130981 0 -1
1.5 0.8956946730613708 1.0181299448013306 0 -1
1.5 0.8920431137084961 1.253332257270813 0 -1
1.5 0.9195396304130554 1.162979006767273 1 -1
1.5 0.8799007534980774 0.9796050190925598 0 -1
1.5 0.8628014922142029 1.1140384674072266 0 -1
1.5 0.8523866534233093 1.0386936664581299 0 -1
1.5 0.8467424511909485 0.979167640209198 0 -1
1.5 0.8338432312011719 0.8195598125457764 0 -1
1.5 0.8320770263671875 0.8555042743682861 0 -1
1.4800000190734863 0.8340579867362976 0.8072057962417603 0 -1
1.5 0.8272385001182556 0.7797606587409973 0 -1
1.4800000190734863 0.8266563415527344 0.8424451947212219 0 -1
1.4800000190734863 0.8300352096557617 0.7451021671295166 0 -1
1.5 0.8143760561943054 0.7293640971183777 0 -1
1.5 0.8192344307899475 0.7569500207901001 0 -1
1.492772102355957 0.8196685314178467 0.7039638161659241 0 -1
1.5 0.811238706111908 0.8205066919326782 0 -1
1.5 0.8093279600143433 0.798725962638855 0 -1
1.4989322423934937 0.8096708655357361 0.8562291264533997 0 -1
1.4800000190734863 0.8057923913002014 0.8122100830078125 0 -1
1.4800000190734863 0.805499255657196 0.43990352749824524 0 -1
1.5 0.7898169755935669 0.9674608111381531 0 -1
1.5 0.7907873392105103 1.0109155178070068 0 -1
1.5 0.7955682873725891 0.922170102596283 0 -1
1.5 0.7989453077316284 0.778354287147522 0 -1
1.5 0.8108487129211426 0.9046376943588257 0 -1
1.4800000190734863 0.8045125603675842 1.0160348415374756 0 -1
1.4800000190734863 0.8097809553146362 0.8958593010902405 0 -1
1.4800000190734863 0.8099913001060486 0.9617630243301392 0 -1
1.4800000190734863 0.8210170269012451 0.9348118305206299 0 -1
1.5 0.8251879811286926 0.9705683588981628 0 -1
1.5 0.8194584846496582 0.9958559274673462 0 -1
1.4885345697402954 0.8318974375724792 0.8777719736099243 0 -1
1.4800000190734863 0.8239100575447083 1.0091801881790161 0 -1
1.4992258548736572 0.827914297580719 1.0342143774032593 0 -1
1.4800000190734863 0.810234546661377 0.7702913284301758 0 -1
1.4800000190734863 0.8191255927085876 0.7909041047096252 0 -1
1.4800000190734863 0.8088821768760681 0.13447317481040955 0 -1
1.4800000190734863 0.8091226816177368 -0.03248496353626251 0 -1
1.4800000190734863 0.8090333938598633 0.2505154013633728 0 -1
1.4800000190734863 0.8060468435287476 0.5536844730377197 0 -1
1.4800000190734863 0.8083320260047913 0.6459017992019653 0 -1
1.4800000190734863 0.8113713264465332 0.09908245503902435 0 -1
1.4800000190734863 0.8084862232208252 0.5889531970024109 0 -1
1.4800000190734863 0.8144316077232361 0.21191151440143585 0 -1
1.4800000190734863 0.8148913979530334 0.3498413860797882 0 -1
1.1612375974655151 0.9557999968528748 0.9662603735923767 1 -1
1.1252191066741943 0.9655808806419373 0.9535112977027893 1 -1
1.1322580575942993 1.0103437900543213 0.9480000138282776 0 -1
1.150710940361023 1.0242419242858887 0.9480000138282776 0 -1
1.2110273838043213 1.0538091659545898 0.9480000138282776 0 -1
1.1671137809753418 1.038441777229309 0.9480000138282776 0 -1
1.1420423984527588 1.0477253198623657 0.9480000138282776 0 -1
1.1952823400497437 1.0062843561172485 0.9480000138282776 0 -1
1.1420695781707764 0.9824703931808472 0.9480000138282776 1 -1
1.1640574932098389 0.9770236015319824 0.9480000138282776 1 -1
1.1670588254928589 1.0017497539520264 0.9480000138282776 0 -1
1.186956524848938 0.9895756840705872 0.9679999947547913 0 -1
1.2076908349990845 1.034645676612854 0.9679999947547913 0 -1
1.1484065055847168 0.9754056930541992 0.9679999947547913 1 -1
1.1822832822799683 1.0145920515060425 0.9679999947547913 0 -1
1.454003095626831 0.9662655591964722 0.9679999947547913 1 -1
1.329266905784607 0.9877875447273254 0.9679999947547913 0 -1
1.3111978769302368 1.006729006767273 0.9679999947547913 0 -1
1.2652231454849243 0.9928010106086731 0.9679999947547913 0 -1
1.3086724281311035 0.9834378361701965 0.9679999947547913 1 -1
1.242264747619629 1.0171186923980713 0.9679999947547913 0 -1
1.3511918783187866 1.007492184638977 0.9679999947547913 0 -1
1.193986177444458 0.9666962623596191 0.9679999947547913 1 -1
1.2207247018814087 0.9621606469154358 0.9679999947547913 1 -1
1.2242884635925293 0.988446831703186 0.9679999947547913 0 -1
1.3543487787246704 0.984433650970459 0.9679999947547913 0 -1
1.2524425983428955 0.9674340486526489 0.9679999947547913 1 -1
1.288902997970581 1.002266764640808 0.9679999947547913 0 -1
1.2114299535751343 1.0084670782089233 0.9679999947547913 0 -1
1.42050302028656 0.9766759872436523 0.9679999947547913 1 -1
1.3893412351608276 0.9933264255523682 0.9679999947547913 0 -1
1.2853683233261108 0.969647228717804 0.9679999947547913 1 -1
1.3553756475448608 0.9576093554496765 0.9679999947547913 1 -1
1.392303466796875 0.9693354368209839 0.9679999947547913 1 -1
1.3044757843017578 1.029958963394165 0.9679999947547913 0 -1
1.2781625986099243 1.0354793071746826 0.9679999947547913 0 -1
1.1888738870620728 0.9557999968528748 0.9483070969581604 1 -1
1.1500489711761475 1.044935941696167 0.9679999947547913 0 -1
1.1614362001419067 1.0197564363479614 0.9679999947547913 0 -1
1.1337783336639404 1.0270144939422607 0.9679999947547913 0 -1
1.121578574180603 0.9924490451812744 0.9679999947547913 0 -1
1.1976170539855957 1.0595005750656128 0.9679999947547913 0 -1
1.146934986114502 0.9998331069946289 0.9679999947547913 0 -1
1.181236982345581 1.0568809509277344 0.9530651569366455 0 -1
1.2957170009613037 1.0598613023757935 0.9679999947547913 0 -1
1.37267005443573 1.0148422718048096 0.9679999947547913 0 -1
1.3493586778640747 1.0300352573394775 0.9679999947547913 0 -1
1.4351223707199097 1.0008018016815186 0.9679999947547913 0 -1
1.3511470556259155 1.0538800954818726 0.9679999947547913 0 -1
1.3253594636917114 1.0327216386795044 0.9679999947547913 0 -1
1.4454870223999023 1.0428911447525024 0.9679999947547913 0 -1
1.4010930061340332 1.0459758043289185 0.9679999947547913 0 -1
1.378204345703125 1.0612863302230835 0.9679999947547913 0 -1
1.4632339477539062 0.9934185147285461 0.9679999947547913 0 -1
1.412593960762024 1.0005600452423096 0.9679999947547913 0 -1
1.4212093353271484 1.025094747543335 0.9679999947547913 0 -1
1.4512689113616943 1.0195051431655884 0.9679999947547913 0 -1
1.4649465084075928 1.0648000240325928 0.9489900469779968 0 -1
1.4424748420715332 1.0648000240325928 0.9569785594940186 0 -1
1.251966118812561 1.0648000240325928 0.9668121337890625 0 -1
1.2258734703063965 1.0648000240325928 0.967984139919281 0 -1
1.414854884147644 1.0648000240325928 0.9604246616363525 0 -1
1.2293506860733032 1.0385704040527344 0.9480000138282776 0 -1
1.3182692527770996 1.0225368738174438 0.9480000138282776 0 -1
1.2360053062438965 0.9986701011657715 0.9480000138282776 0 -1
1.2827636003494263 0.9894211292266846 0.9480000138282776 0 -1
1.3362786769866943 0.9951645135879517 0.9480000138282776 0 -1
1.2983956336975098 0.9723715782165527 0.9480000138282776 1 -1
1.3474388122558594 0.9641748070716858 0.9480000138282776 1 -1
1.291501760482788 1.0265294313430786 0.9480000138282776 0 -1
1.2599984407424927 1.0373543500900269 0.9480000138282776 0 -1
1.321886420249939 0.9648953676223755 0.9480000138282776 1 -1
1.2483186721801758 1.0184141397476196 0.9480000138282776 0 -1
1.249323844909668 0.976976752281189 0.9480000138282776 1 -1
1.3788141012191772 0.9699420928955078 0.9480000138282776 1 -1
1.203986406326294 0.9847546219825745 0.9480000138282776 1 -1
1.212482213973999 1.024258017539978 0.9480000138282776 0 -1
1.362112045288086 0.9867520928382874 0.9480000138282776 0 -1
1.3991271257400513 0.9866264462471008 0.9480000138282776 0 -1
1.3016748428344727 1.0063296556472778 0.9480000138282776 0 -1
1.413974642753601 0.9687643647193909 0.9480000138282776 1 -1
1.3833794593811035 1.0060523748397827 0.9480000138282776 0 -1
1.42996084690094 1.011687159538269 0.9480000138282776 0 -1
1.3642672300338745 1.033473014831543 0.9480000138282776 0 -1
1.360434651374817 1.059538722038269 0.9480000138282776 0 -1
1.327658772468567 1.0620144605636597 0.9480000138282776 0 -1
1.4301695823669434 0.9853339195251465 0.9480000138282776 0 -1
1.417412281036377 1.0292372703552246 0.9480000138282776 0 -1
1.4588481187820435 0.9770940542221069 0.9480000138282776 1 -1
1.3937137126922607 1.0566109418869019 0.9480000138282776 0 -1
1.3892114162445068 1.0351214408874512 0.9480000138282776 0 -1
1.460340976715088 1.0235539674758911 0.9480000138282776 0 -1
1.289297103881836 1.0594606399536133 0.9480000138282776 0 -1
1.244448184967041 1.0565444231033325 0.9480000138282776 0 -1
1.4683215618133545 1.0017637014389038 0.9480000138282776 0 -1
-1.6029999256134033 0.8873331546783447 4.271910667419434 0 -1
-1.6029999256134033 0.8597540855407715 4.323812961578369 0 -1
-1.6029999256134033 0.9111835360527039 4.277721405029297 1 -1
-1.6029999256134033 0.8879106640815735 4.296548843383789 0 -1
-1.6029999256134033 0.932152509689331 4.275373458862305 1 -1
-1.6029999256134033 0.9601298570632935 4.334566593170166 1 -1
-1.6029999256134033 1.0170202255249023 4.324587345123291 1 -1
-1.6029999256134033 0.8801620006561279 4.243382930755615 0 -1
-1.6029999256134033 0.854203462600708 4.2853803634643555 0 -1
-1.6029999256134033 0.9870380163192749 4.322709560394287 1 -1
-1.6029999256134033 0.8522896766662598 4.228640556335449 0 -1
-1.6029999256134033 0.8573440313339233 4.2537055015563965 0 -1
-1.6029999256134033 0.9744092226028442 4.2900238037109375 1 -1
-1.6029999256134033 0.9158818125724792 4.314140796661377 1 -1
-1.6029999256134033 0.9541168212890625 4.273890972137451 1 -1
-1.6029999256134033 0.9069742560386658 4.241745471954346 1 -1
-1.6057525873184204 0.8759760856628418 4.34499979019165 0 -1
-1.6087570190429688 0.9025862216949463 4.34499979019165 1 -1
-1.6144053936004639 0.8507999777793884 4.199110507965088 0 -1
-1.1922537088394165 0.8512606024742126 4.430262088775635 0 -1
-1.4576863050460815 0.8526096940040588 4.375164985656738 0 -1
-1.145214557647705 0.8725352883338928 4.44003963470459 0 -1
-1.4902101755142212 0.8509547114372253 4.368412494659424 0 -1
-1.2464464902877808 0.8751832842826843 4.419027805328369 0 -1
-1.3409079313278198 0.855365514755249 4.399406909942627 0 -1
-0.9845384359359741 0.8563968539237976 4.473381996154785 0 -1
-1.0621273517608643 0.8710633516311646 4.457285404205322 0 -1
-1.239340901374817 0.8524532914161682 4.420488357543945 0 -1
-1.0727124214172363 0.8516747355461121 4.455076217651367 0 -1
-1.2845402956008911 0.8568274974822998 4.411108493804932 0 -1
-1.3779643774032593 0.8534210324287415 4.391713619232178 0 -1
-0.9217237234115601 0.8665913343429565 4.486427307128906 0 -1
-1.1060655117034912 0.8605687618255615 4.448158264160156 0 -1
-0.3059643507003784 0.8574475646018982 4.614239692687988 0 -1
-0.48200491070747375 0.8522692322731018 4.577694416046143 0 -1
-0.21530991792678833 0.8516054153442383 4.633054256439209 0 -1
-1.402103304862976 0.8560450077056885 4.386704921722412 0 -1
-0.6306494474411011 0.8612203598022461 4.546844959259033 0 -1
-0.8222748637199402 0.8616645336151123 4.507067680358887 0 -1
-1.1722218990325928 0.8586817383766174 4.434424877166748 0 -1
-0.6069856286048889 0.851529061794281 4.551750659942627 0 -1
-0.5366692543029785 0.8536597490310669 4.566348075866699 0 -1
-0.9510189294815063 0.8575690388679504 4.480340957641602 0 -1
-0.4563809931278229 0.8549548983573914 4.583014965057373 0 -1
-1.0099132061004639 0.8509659767150879 4.468111515045166 0 -1
-0.2571427524089813 0.8510237336158752 4.624370098114014 0 -1
-0.8713039755821228 0.8512408137321472 4.496883869171143 0 -1
-1.5041567087173462 0.8728281855583191 4.3654866218566895 0 -1
-1.4802348613739014 0.8750703930854797 4.370450973510742 0 -1
-1.5409903526306152 0.8724181056022644 4.357837200164795 0 -1
-1.3889257907867432 0.8761202096939087 4.389415264129639 0 -1
-1.349326729774475 0.8769617080688477 4.397642135620117 0 -1
-1.5606725215911865 0.8539309501647949 4.353786945343018 0 -1
-1.5850985050201416 0.9662010669708252 4.348727226257324 1 -1
-1.5910240411758423 1.0172256231307983 4.3474931716918945 1 -1
-1.5978989601135254 0.9949091076850891 4.346061706542969 1 -1
-1.5894949436187744 0.9118989109992981 4.347811698913574 1 -1
-1.5763717889785767 0.8895883560180664 4.350541591644287 0 -1
-1.5870413780212402 0.8652927279472351 4.348322868347168 0 -1
-1.315201759338379 0.8507999777793884 4.413673400878906 0 -1
-0.3453272581100464 0.8507999777793884 4.60659122467041 0 -1
-1.4775142669677734 0.8507999777793884 4.388580322265625 0 -1
-0.7577912211418152 0.8507999777793884 4.522459506988525 0 -1
-1.14613676071167 0.8507999777793884 4.4405670166015625 0 -1
-0.15808895230293274 0.8507999777793884 4.645926475524902 0 -1
-0.9317863583564758 0.8507999777793884 4.495826721191406 0 -1
-0.7195124626159668 0.8507999777793884 4.535450458526611 0 -1
-1.5204628705978394 0.8507999777793884 4.36811637878418 0 -1
-0.8024069666862488 0.8507999777793884 4.511335372924805 0 -1
-1.5759191513061523 0.9667919278144836 4.370993137359619 1 -1
-1.5768073797225952 0.9011194109916687 4.370810508728027 0 -1
-1.5701597929000854 0.9448667764663696 4.372286796569824 1 -1
-1.5646939277648926 0.9908839464187622 4.3529558181762695 1 -1
-1.5678750276565552 0.9228100776672363 4.35231351852417 1 -1
-1.4996230602264404 0.9660179615020752 4.366419792175293 1 -1
-1.5528863668441772 0.9684494137763977 4.355356693267822 1 -1
-1.5157605409622192 0.9877256751060486 4.363067626953125 1 -1
-1.4360394477844238 0.9905451536178589 4.379626274108887 1 -1
-1.474517822265625 0.9787684679031372 4.371634006500244 1 -1
-1.5288156270980835 0.93451988697052 4.360356330871582 1 -1
-1.464414358139038 0.9302711486816406 4.373732566833496 1 -1
-1.4442657232284546 0.913433313369751 4.377917289733887 1 -1
-1.4065877199172974 0.9187718629837036 4.385743141174316 1 -1
-1.5478413105010986 0.9097869396209717 4.356404781341553 1 -1
-1.5035783052444458 0.9200451374053955 4.365598201751709 1 -1
-1.4117399454116821 0.9768840670585632 4.384673118591309 1 -1
-1.4283092021942139 0.9347695112228394 4.381231784820557 1 -1
-1.482866644859314 0.9019452333450317 4.369901180267334 0 -1
-1.5504711866378784 0.8942487239837646 4.376333236694336 0 -1
-1.4695782661437988 0.8972930312156677 4.39310884475708 0 -1
-1.44386887550354 0.9038035273551941 4.398443222045898 1 -1
-1.5187233686447144 0.9682204127311707 4.382904052734375 1 -1
-1.5124542713165283 0.9299607276916504 4.3842058181762695 1 -1
-1.527319312095642 0.946154773235321 4.3811187744140625 1 -1
-1.422412395477295 0.9184184074401855 4.402907848358154 1 -1
-1.5138393640518188 0.9064094424247742 4.383918285369873 1 -1
-1.4857443571090698 0.9185992479324341 4.389753818511963 1 -1
-1.5499742031097412 0.9588077068328857 4.376412868499756 1 -1
-1.4630117416381836 0.9258262515068054 4.39447546005249 1 -1
-1.55173921585083 0.9309969544410706 4.376046657562256 1 -1
-1.4049617052078247 0.9051908254623413 4.406532287597656 1 -1
-1.4670244455337524 0.9794156551361084 4.393641948699951 1 -1
-1.4856374263763428 0.9903401136398315 4.38977575302124 1 -1
-1.4943177700042725 0.9695010781288147 4.387972831726074 1 -1
-1.4484069347381592 0.9527330994606018 4.39750862121582 1 -1
-1.5561209917068481 0.9933096766471863 4.375136375427246 1 -1
-1.4034677743911743 0.9335099458694458 4.4068427085876465 1 -1
-1.4341789484024048 0.9754734635353088 4.400464057922363 1 -1
-1.4705520868301392 0.9573693871498108 4.392909049987793 1 -1
-1.4281784296035767 0.9463023543357849 4.401710510253906 1 -1
-1.4189608097076416 0.9983557462692261 4.403613090515137 1 -1
-1.5160177946090698 1.0017707347869873 4.383466720581055 1 -1
-1.5405999422073364 1.0022104978561401 4.357924938201904 1 -1
-1.4752970933914185 1.0014978647232056 4.371480464935303 1 -1
-1.505124807357788 1.0088084936141968 4.365322589874268 1 -1
-1.4480630159378052 1.0107191801071167 4.397550582885742 1 -1
-1.4731937646865845 1.0113328695297241 4.3923444747924805 1 -1
-1.5434203147888184 1.014971375465393 4.3777899742126465 1 -1
-1.4036927223205566 1.0165750980377197 4.403523921966553 1 -1
-1.532234787940979 1.029415488243103 4.359655857086182 0 -1
-1.5040231943130493 1.030180811882019 4.3655171394348145 0 -1
-1.4777370691299438 1.0254974365234375 4.370967864990234 0 -1
-1.5565752983093262 1.0330395698547363 4.354607582092285 0 -1
-1.4963902235031128 1.0243011713027954 4.387542724609375 0 -1
-1.521078109741211 1.024550199508667 4.382415294647217 0 -1
-1.5905920267105103 1.0350109338760376 4.367991924285889 0 -1
-1.5779674053192139 1.0133824348449707 4.3706278800964355 1 -1
-1.602352261543274 0.9782464504241943 4.365556240081787 1 -1
-1.6057875156402588 0.8877465128898621 4.36484956741333 0 -1
-1.5964914560317993 0.9222325086593628 4.366761684417725 1 -1
-1.597564697265625 0.9473575949668884 4.366540908813477 1 -1
-1.6064715385437012 1.008405327796936 4.362010478973389 1 -1
-0.9087929725646973 0.8507999777793884 4.506579399108887 0 -1
-0.07634982466697693 0.8507999777793884 4.6801347732543945 0 -1
-0.5148151516914368 0.8507999777793884 4.580186367034912 0 -1
-0.7937530875205994 0.8507999777793884 4.531642436981201 0 -1
-1.0368009805679321 0.8507999777793884 4.476293563842773 0 -1
-0.5610446929931641 0.8507999777793884 4.5749192237854 0 -1
0.010038770735263824 0.8507999777793884 4.681500434875488 0 -1
-0.1281288117170334 0.8507999777793884 4.655644416809082 0 -1
-0.1471434086561203 0.8507999777793884 4.6669440269470215 0 -1
-0.09891501814126968 0.8507999777793884 4.6697773933410645 0 -1
-1.2186102867126465 0.8507999777793884 4.441493034362793 0 -1
-0.6934366226196289 0.8507999777793884 4.544469356536865 0 -1
-0.01221352070569992 0.8507999777793884 4.680416107177734 0 -1
-0.29084596037864685 0.8507999777793884 4.633059024810791 0 -1
-1.4366731643676758 0.8507999777793884 4.39851713180542 0 -1
-0.2014346718788147 0.8507999777793884 4.652182102203369 0 -1
-0.9867866635322571 0.8709458112716675 4.493356227874756 0 -1
-1.3959922790527344 0.8637816309928894 4.40841817855835 0 -1
-1.0988993644714355 0.8524318933486938 4.470050811767578 0 -1
-1.0614228248596191 0.8583050966262817 4.477840423583984 0 -1
-0.8545960783958435 0.8611389398574829 4.5207695960998535 0 -1
-0.5800197124481201 0.8632750511169434 4.577757358551025 0 -1
-0.4203145205974579 0.8533669710159302 4.610880374908447 0 -1
-0.8358864188194275 0.8511866331100464 4.524631500244141 0 -1
-0.6407114267349243 0.8527601361274719 4.5651397705078125 0 -1
-0.7731255292892456 0.8537250757217407 4.537662029266357 0 -1
-1.5431108474731445 0.8540596961975098 4.377865791320801 0 -1
-1.1628954410552979 0.854823887348175 4.4567742347717285 0 -1
-1.2823904752731323 0.8526428937911987 4.431971073150635 0 -1
-0.45156532526016235 0.8541975617408752 4.604396820068359 0 -1
-0.48042869567871094 0.8537539839744568 4.598405838012695 0 -1
-1.2032573223114014 0.8656484484672546 4.448420524597168 0 -1
-1.3642199039459229 0.8522124290466309 4.414987564086914 0 -1
-1.0130759477615356 0.8623590469360352 4.487882137298584 0 -1
-1.2614679336547852 0.8566386699676514 4.436321258544922 0 -1
-1.2330596446990967 0.8670481443405151 4.4422383308410645 0 -1
-1.1214210987091064 0.8700668811798096 4.4654130935668945 0 -1
-0.6779299974441528 0.8611693382263184 4.557433605194092 0 -1
-0.8785983920097351 0.8624188899993896 4.515790939331055 0 -1
-0.37962114810943604 0.8528226017951965 4.619324684143066 0 -1
-1.3385872840881348 0.8684702515602112 4.4203410148620605 0 -1
-0.32860666513442993 0.8526744246482849 4.629911422729492 0 -1
-0.7366958260536194 0.8601296544075012 4.545235633850098 0 -1
-1.0915240049362183 0.8716755509376526 4.471621036529541 0 -1
-0.8157848119735718 0.8664435148239136 4.528834819793701 0 -1
-1.5046018362045288 0.8599467277526855 4.385860919952393 0 -1
-1.5879733562469482 0.8528555035591125 4.368549823760986 0 -1
-1.467697024345398 0.8708139657974243 4.393509864807129 0 -1
-1.567062258720398 0.8634199500083923 4.372880458831787 0 -1
-1.5243453979492188 0.8798925876617432 4.381737232208252 0 -1
