VERSION .7
FIELDS x y z label object
SIZE 4 4 4 4 4
TYPE F F F I I
COUNT 1 1 1 1 1
WIDTH 794
HEIGHT 1
POINTS 794
VIEWPOINT 0 0 0 1 0 0 0
DATA ascii
47.85253143310547 47.57484436035156 157.53692626953125 0 -1
57.9631233215332 48.16262435913086 157.6405792236328 0 -1
34.08427429199219 53.92232131958008 158.65615844726562 0 -1
30.164371490478516 47.13814163208008 157.45993041992188 0 -1
-45.62535858154297 39.63789749145508 156.13743591308594 0 -1
-79.52064514160156 50.950164794921875 158.13209533691406 0 -1
65.8338623046875 53.762142181396484 158.62791442871094 0 -1
-45.25188064575195 45.20188522338867 157.11851501464844 0 -1
-49.45209503173828 53.560997009277344 158.5924530029297 0 -1
-73.83699798583984 53.99796676635742 158.66949462890625 0 -1
-89.50927734375 52.63615417480469 158.4293670654297 0 -1
-11.711048126220703 43.39387512207031 156.79971313476562 0 -1
-4.5573954582214355 41.47978210449219 156.4622039794922 0 -1
31.14003562927246 52.326560974121094 158.37478637695312 0 -1
-40.28940963745117 39.75580978393555 156.15823364257812 0 -1
-82.40501403808594 53.42536163330078 158.5685272216797 0 -1
-22.590431213378906 36.398338317871094 155.5662078857422 0 -1
-69.69400024414062 46.94011306762695 157.4250030517578 0 -1
-83.48719787597656 54.179481506347656 158.70150756835938 0 -1
80.27874755859375 52.771453857421875 158.45323181152344 0 -1
23.166366577148438 53.91046905517578 158.65406799316406 0 -1
41.47715759277344 43.572383880615234 156.83119201660156 0 -1
80.64646911621094 50.67657470703125 158.08384704589844 0 -1
-36.7851676940918 51.057613372802734 158.15103149414062 0 -1
112.74381256103516 50.37855529785156 158.0312957763672 0 -1
-32.92615509033203 46.17506790161133 157.2901153564453 0 -1
-71.37981414794922 46.662269592285156 157.3760223388672 0 -1
25.649259567260742 48.39396667480469 157.68136596679688 0 -1
2.2367398738861084 51.75040054321289 158.273193359375 0 -1
55.63043212890625 43.12376403808594 156.75209045410156 0 -1
-77.65547180175781 50.51325988769531 158.0550537109375 0 -1
-27.16119384765625 40.10492706298828 156.21978759765625 0 -1
14.785086631774902 46.79264831542969 157.3990020751953 0 -1
-91.37944793701172 53.197601318359375 158.5283660888672 0 -1
-48.349822998046875 47.70965576171875 157.56069946289062 0 -1
-10.704087257385254 45.51015853881836 157.17286682128906 0 -1
-30.54334831237793 39.46684646606445 156.10726928710938 0 -1
95.65750885009766 50.82709503173828 158.11038208007812 0 -1
5.813849925994873 49.540184020996094 157.8834686279297 0 -1
-25.984272003173828 49.83357238769531 157.93521118164062 0 -1
116.20903015136719 53.75417709350586 158.6265106201172 0 -1
62.97593307495117 47.88100814819336 157.59091186523438 0 -1
-8.300758361816406 53.142974853515625 158.51873779296875 0 -1
14.712088584899902 44.161773681640625 156.93511962890625 0 -1
-34.34360122680664 46.09512710571289 157.27601623535156 0 -1
45.537200927734375 47.334754943847656 157.49459838867188 0 -1
33.17567443847656 53.00582504272461 158.4945526123047 0 -1
-18.35671043395996 44.820457458496094 157.05125427246094 0 -1
-6.82800817489624 48.145042419433594 157.63746643066406 0 -1
-10.04262638092041 46.99892044067383 157.4353790283203 0 -1
-30.102453231811523 45.605648040771484 157.18971252441406 0 -1
32.43965530395508 49.711795806884766 157.91372680664062 0 -1
-39.83139419555664 42.002601623535156 156.5543975830078 0 -1
39.897274017333984 48.63446044921875 157.72377014160156 0 -1
47.01552200317383 48.106048583984375 157.63059997558594 0 -1
-3.672365427017212 47.62190628051758 157.54522705078125 0 -1
70.15837097167969 49.040401458740234 157.79534912109375 0 -1
-5.21417236328125 45.648502349853516 157.197265625 0 -1
71.93122100830078 45.57261657714844 157.1838836669922 0 -1
-11.628366470336914 42.27396011352539 156.6022491455078 0 -1
-5.779219150543213 54.27174758911133 158.7177734375 0 -1
89.24130249023438 48.755775451660156 157.7451629638672 0 -1
-26.589702606201172 36.72481918334961 155.623779296875 0 -1
29.622844696044922 46.27500534057617 157.3077392578125 0 -1
134.93948364257812 52.317996978759766 158.37327575683594 0 -1
22.926742553710938 50.798255920410156 158.1053009033203 0 -1
14.321767807006836 43.12083435058594 156.75157165527344 0 -1
147.7069854736328 53.41268539428711 158.56629943847656 0 -1
40.54255294799805 44.314666748046875 156.96206665039062 0 -1
137.61553955078125 51.35051727294922 158.2026824951172 0 -1
31.67391014099121 48.40087890625 157.68258666992188 0 -1
18.905179977416992 47.23612594604492 157.47720336914062 0 -1
-34.362754821777344 41.765533447265625 156.51258850097656 0 -1
53.14101028442383 52.082603454589844 158.33177185058594 0 -1
-4.449949741363525 38.32550811767578 155.90602111816406 0 -1
79.09147644042969 47.91292190551758 157.59654235839844 0 -1
-22.222349166870117 41.02805709838867 156.38255310058594 0 -1
81.09642028808594 48.675140380859375 157.73094177246094 0 -1
137.74374389648438 53.52449035644531 158.5860137939453 0 -1
-43.49228286743164 51.90348815917969 158.30018615722656 0 -1
-3.772801160812378 42.408382415771484 156.62594604492188 0 -1
34.942161560058594 48.51139831542969 157.7020721435547 0 -1
38.77180862426758 48.15175247192383 157.63865661621094 0 -1
22.738557815551758 49.53770065307617 157.88304138183594 0 -1
56.92392349243164 50.32156753540039 158.02125549316406 0 -1
89.81027221679688 50.983436584472656 158.13795471191406 0 -1
98.73295593261719 51.170692443847656 158.1709747314453 0 -1
-57.54499053955078 53.53138732910156 158.5872344970703 0 -1
-34.00311279296875 49.42237091064453 157.86270141601562 0 -1
-53.86411666870117 51.91223907470703 158.30172729492188 0 -1
-60.86180877685547 47.78880310058594 157.5746612548828 0 -1
-59.9463005065918 50.32698059082031 158.02220153808594 0 -1
-17.70513343811035 41.6015625 156.4836883544922 0 -1
94.123779296875 52.2765998840332 158.36598205566406 0 -1
16.660707473754883 39.70428466796875 156.14913940429688 0 -1
112.81206512451172 51.7862434387207 158.27951049804688 0 -1
-18.589893341064453 37.74658203125 155.80393981933594 0 -1
44.903385162353516 53.47407531738281 158.57711791992188 0 -1
35.35041046142578 54.31691360473633 158.72573852539062 0 -1
-38.87094497680664 43.64918899536133 156.8447265625 0 -1
-60.64335632324219 53.689449310302734 158.61509704589844 0 -1
-31.341997146606445 52.957889556884766 158.48609924316406 0 -1
13.167159080505371 45.82951354980469 157.22918701171875 0 -1
138.60653686523438 52.102115631103516 158.335205078125 0 -1
156.08602905273438 53.022220611572266 158.49745178222656 0 -1
-75.22956848144531 53.138919830322266 158.5180206298828 0 -1
-72.03597259521484 47.540130615234375 157.5308074951172 0 -1
40.407161712646484 53.6859016418457 158.61447143554688 0 -1
-21.406335830688477 52.13425064086914 158.34088134765625 0 -1
28.094253540039062 53.586910247802734 158.59701538085938 0 -1
22.55421257019043 44.449161529541016 156.9857940673828 0 -1
-89.73865509033203 51.610748291015625 158.24856567382812 0 -1
62.08234405517578 43.64126205444336 156.8433380126953 0 -1
64.23177337646484 47.1629638671875 157.4643096923828 0 -1
115.37342071533203 49.943721771240234 157.95462036132812 0 -1
-55.74073791503906 50.47772216796875 158.0487823486328 0 -1
-33.953582763671875 44.578102111816406 157.00852966308594 0 -1
93.6221923828125 47.081851959228516 157.4499969482422 0 -1
43.42646789550781 44.66429901123047 157.0237274169922 0 -1
2.0567147731781006 39.26994323730469 156.0725555419922 0 -1
97.43084716796875 51.75997543334961 158.27488708496094 0 -1
-22.60480308532715 53.119998931884766 158.5146942138672 0 -1
-45.52974319458008 48.237220764160156 157.6537322998047 0 -1
58.26520538330078 49.456138610839844 157.86865234375 0 -1
-65.1827621459961 45.37186050415039 157.1484832763672 0 -1
50.577754974365234 54.036624908447266 158.6763153076172 0 -1
50.18400192260742 42.66518783569336 156.67123413085938 0 -1
77.31555938720703 45.95631790161133 157.2515411376953 0 -1
14.849028587341309 51.044368743896484 158.14869689941406 0 -1
-1.4998972415924072 52.94646072387695 158.4840850830078 0 -1
-61.98447799682617 48.25323486328125 157.65655517578125 0 -1
5.737340927124023 38.42898941040039 155.9242706298828 0 -1
20.16402244567871 43.791873931884766 156.86988830566406 0 -1
45.98910140991211 48.532135009765625 157.70571899414062 0 -1
41.03158187866211 50.593284606933594 158.0691680908203 0 -1
95.11172485351562 47.688053131103516 157.556884765625 0 -1
-64.52140045166016 46.349754333496094 157.32090759277344 0 -1
-44.31537628173828 43.00246047973633 156.73069763183594 0 -1
27.25075912475586 44.03030776977539 156.91192626953125 0 -1
19.46293830871582 42.61912536621094 156.66310119628906 0 -1
-67.73365020751953 51.55242919921875 158.23828125 0 -1
-15.92234992980957 53.358360290527344 158.5567169189453 0 -1
8.90943431854248 49.69721221923828 157.91116333007812 0 -1
87.99629211425781 50.097511291503906 157.98175048828125 0 -1
42.340606689453125 49.18183898925781 157.82028198242188 0 -1
-65.86048889160156 48.51116943359375 157.7020263671875 0 -1
16.144620895385742 43.743255615234375 156.86131286621094 0 -1
12.790739059448242 53.640777587890625 158.6065216064453 0 -1
15.582813262939453 41.31916809082031 156.4338836669922 0 -1
74.92081451416016 50.00003433227539 157.9645538330078 0 -1
2.638909101486206 48.7944450378418 157.75198364257812 0 -1
-3.618067979812622 40.63899612426758 156.31394958496094 0 -1
-32.09587097167969 45.72617721557617 157.21096801757812 0 -1
96.91555786132812 52.85030746459961 158.46713256835938 0 -1
-13.73029899597168 48.65911865234375 157.72811889648438 0 -1
6.544130325317383 39.61180877685547 156.13282775878906 0 -1
28.841846466064453 49.79004669189453 157.9275360107422 0 -1
81.70182037353516 46.92425537109375 157.42221069335938 0 -1
33.83122634887695 44.45917892456055 156.987548828125 0 -1
-6.570318698883057 44.9627685546875 157.07635498046875 0 -1
-11.266023635864258 44.63820266723633 157.0191192626953 0 -1
-2.691265344619751 52.24513626098633 158.3604278564453 0 -1
-58.46857452392578 51.7816162109375 158.27870178222656 0 -1
-21.873811721801758 37.386356353759766 155.7404327392578 0 -1
-1.3604947328567505 41.4544792175293 156.45774841308594 0 -1
-29.208784103393555 51.7333984375 158.2701873779297 0 -1
24.062068939208984 43.6624870300293 156.84707641601562 0 -1
-9.240201950073242 38.56065368652344 155.94749450683594 0 -1
-47.74026107788086 41.14226150512695 156.40269470214844 0 -1
74.77925109863281 51.58293533325195 158.24366760253906 0 -1
79.99906158447266 45.79750061035156 157.22354125976562 0 -1
1.3617417812347412 40.258399963378906 156.24684143066406 0 -1
95.53396606445312 51.7843132019043 158.2791748046875 0 -1
-62.90335464477539 47.50316619873047 157.5242919921875 0 -1
6.792348384857178 44.72378921508789 157.03421020507812 0 -1
42.80048370361328 46.866294860839844 157.4119873046875 0 -1
110.6318130493164 51.48929214477539 158.22715759277344 0 -1
49.274436950683594 53.52298355102539 158.5857391357422 0 -1
-0.9878642559051514 54.26487731933594 158.71656799316406 0 -1
58.322086334228516 52.096370697021484 158.33419799804688 0 -1
33.00663757324219 41.08574295043945 156.39273071289062 0 -1
-26.949726104736328 38.986324310302734 156.02255249023438 0 -1
-42.920223236083984 41.46625900268555 156.45982360839844 0 -1
-56.92902755737305 51.9145393371582 158.30213928222656 0 -1
89.36198425292969 47.659976959228516 157.55194091796875 0 -1
-27.20690155029297 42.441650390625 156.63180541992188 0 -1
-73.8066635131836 48.58573913574219 157.71517944335938 0 -1
-46.30413818359375 51.259891510009766 158.18670654296875 0 -1
55.778343200683594 45.257659912109375 157.1283416748047 0 -1
55.3011474609375 44.08294677734375 156.9212188720703 0 -1
-36.574825286865234 38.50904083251953 155.93838500976562 0 -1
-52.498016357421875 46.235843658447266 157.3008270263672 0 -1
-20.13608741760254 43.81016540527344 156.8731231689453 0 -1
18.105838775634766 41.52294158935547 156.46981811523438 0 -1
-32.829185485839844 40.5340690612793 156.2954559326172 0 -1
74.08151245117188 52.67814636230469 158.43678283691406 0 -1
-42.263221740722656 53.240257263183594 158.535888671875 0 -1
-16.999454498291016 48.95342254638672 157.78001403808594 0 -1
-28.661779403686523 49.88457489013672 157.94419860839844 0 -1
11.989377975463867 53.02265548706055 158.49752807617188 0 -1
12.089694023132324 43.682228088378906 156.85055541992188 0 -1
-42.67890167236328 43.41908264160156 156.8041534423828 0 -1
-45.73175048828125 44.28407669067383 156.95668029785156 0 -1
47.752925872802734 53.62291717529297 158.60336303710938 0 -1
59.9930534362793 46.84242248535156 157.4077911376953 0 -1
-63.038291931152344 52.31544494628906 158.37281799316406 0 -1
3.915764093399048 48.03225326538086 157.61758422851562 0 -1
102.76946258544922 49.571163177490234 157.88893127441406 0 -1
24.47016143798828 48.26670455932617 157.65892028808594 0 -1
3.7609610557556152 38.008934020996094 155.85020446777344 0 -1
114.32611846923828 49.645057678222656 157.90196228027344 0 -1
48.10307312011719 48.559913635253906 157.7106170654297 0 -1
-1.940512776374817 50.108184814453125 157.98362731933594 0 -1
29.777774810791016 51.21166229248047 158.17819213867188 0 -1
-7.454914569854736 39.810035705566406 156.16778564453125 0 -1
32.46815490722656 47.813232421875 157.57896423339844 0 -1
60.43840408325195 45.39585876464844 157.1527099609375 0 -1
-28.624963760375977 46.718177795410156 157.38587951660156 0 -1
-41.417354583740234 42.657615661621094 156.66989135742188 0 -1
42.84743881225586 52.965816497802734 158.4875030517578 0 -1
-52.82114028930664 48.38238525390625 157.6793212890625 0 -1
9.55666446685791 38.674869537353516 155.96762084960938 0 -1
42.10166549682617 50.216068267822266 158.00265502929688 0 -1
71.07182312011719 52.52546310424805 158.40985107421875 0 -1
-25.40300941467285 46.832000732421875 157.40594482421875 0 -1
48.2424430847168 52.19533920288086 158.3516387939453 0 -1
-27.709388732910156 37.150081634521484 155.69876098632812 0 -1
-39.44071960449219 52.501041412353516 158.40554809570312 0 -1
-45.18944549560547 50.89960861206055 158.1231689453125 0 -1
44.88804626464844 44.104698181152344 156.925048828125 0 -1
-29.482397079467773 48.01936340332031 157.6153106689453 0 -1
-42.85715103149414 50.80116653442383 158.10581970214844 0 -1
48.85210037231445 47.536617279052734 157.53018188476562 0 -1
-10.514431953430176 43.78014373779297 156.86782836914062 0 -1
48.2316780090332 45.651451110839844 157.19778442382812 0 -1
5.250720977783203 46.806495666503906 157.4014434814453 0 -1
34.792972564697266 41.684783935546875 156.49835205078125 0 -1
-2.6397628784179688 40.431053161621094 156.27728271484375 0 -1
32.00824737548828 41.39398956298828 156.44708251953125 0 -1
39.508548736572266 42.91790008544922 156.71578979492188 0 -1
95.09154510498047 52.875877380371094 158.47164916992188 0 -1
24.42826271057129 44.980140686035156 157.0794219970703 0 -1
39.47016525268555 51.0985107421875 158.1582489013672 0 -1
-15.791523933410645 41.3693962097168 156.4427490234375 0 -1
-6.000883102416992 47.18396759033203 157.46800231933594 0 -1
62.840545654296875 50.59001159667969 158.06858825683594 0 -1
149.68841552734375 53.41697692871094 158.56704711914062 0 -1
-72.06237030029297 49.915679931640625 157.94967651367188 0 -1
140.71585083007812 54.065673828125 158.6814422607422 0 -1
-30.65955352783203 50.689090728759766 158.0860595703125 0 -1
122.11327362060547 54.203975677490234 158.70582580566406 0 -1
107.53557586669922 51.4265251159668 158.21607971191406 0 -1
59.2294921875 50.111412048339844 157.98419189453125 0 -1
45.68326950073242 52.01647186279297 158.3201141357422 0 -1
-46.60569381713867 40.369346618652344 156.2664031982422 0 -1
11.622666358947754 41.76810836791992 156.51304626464844 0 -1
-32.9286003112793 43.64987564086914 156.8448486328125 0 -1
49.27901840209961 52.16466522216797 158.3462371826172 0 -1
-47.39105224609375 52.08915328979492 158.33291625976562 0 -1
-8.774835586547852 54.08619689941406 158.68505859375 0 -1
24.6290283203125 42.88100814819336 156.7092742919922 0 -1
-69.00153350830078 53.06039810180664 158.50418090820312 0 -1
11.19523811340332 50.67744827270508 158.08399963378906 0 -1
64.4702377319336 52.619022369384766 158.4263458251953 0 -1
12.473658561706543 42.76985168457031 156.68968200683594 0 -1
51.17942428588867 42.98898696899414 156.7283172607422 0 -1
49.457740783691406 48.34345626831055 157.67245483398438 0 -1
-30.8712100982666 46.38262176513672 157.3267059326172 0 -1
141.15394592285156 51.59176254272461 158.24522399902344 0 -1
-71.1641845703125 50.74052047729492 158.09512329101562 0 -1
40.75655746459961 41.97732925415039 156.54994201660156 0 -1
37.3923225402832 49.55313491821289 157.88575744628906 0 -1
131.7306671142578 51.62016677856445 158.25022888183594 0 -1
-15.087546348571777 42.42113494873047 156.62818908691406 0 -1
-76.46223449707031 53.05250549316406 158.50279235839844 0 -1
18.07549285888672 39.79349136352539 156.1648712158203 0 -1
16.618488311767578 44.74141311645508 157.03732299804688 0 -1
48.78605651855469 43.9932861328125 156.90541076660156 0 -1
20.637996673583984 51.85712432861328 158.29200744628906 0 -1
-94.97502899169922 53.87575149536133 158.64794921875 0 -1
-49.19587326049805 42.355472564697266 156.6166229248047 0 -1
-66.61114501953125 51.09491729736328 158.15760803222656 0 -1
-27.957639694213867 54.11214065551758 158.68963623046875 0 -1
-8.615886688232422 39.480751037597656 156.10972595214844 0 -1
123.22293090820312 53.84467315673828 158.64247131347656 0 -1
-52.66901397705078 53.769859313964844 158.6292724609375 0 -1
-54.51219177246094 49.79380798339844 157.92819213867188 0 -1
-55.941001892089844 47.3967399597168 157.50552368164062 0 -1
-13.13054370880127 54.162418365478516 158.69850158691406 0 -1
19.779638290405273 50.795799255371094 158.10487365722656 0 -1
152.06919860839844 53.90514373779297 158.65313720703125 0 -1
-4.590479850769043 48.995174407958984 157.78736877441406 0 -1
-27.36456871032715 41.200279235839844 156.4129180908203 0 -1
110.21998596191406 50.427730560302734 158.0399627685547 0 -1
20.951066970825195 46.810585021972656 157.4021759033203 0 -1
-14.669496536254883 44.96886444091797 157.07742309570312 0 -1
97.60807037353516 50.62871170043945 158.07540893554688 0 -1
-24.86655044555664 36.74977493286133 155.62818908691406 0 -1
-37.1578369140625 44.436134338378906 156.98348999023438 0 -1
2.3854894638061523 47.7856330871582 157.5740966796875 0 -1
-22.189624786376953 44.78288650512695 157.0446319580078 0 -1
31.388870239257812 47.46674728393555 157.5178680419922 0 -1
1.1651192903518677 49.587764739990234 157.89186096191406 0 -1
26.743179321289062 54.1412239074707 158.69476318359375 0 -1
108.4120101928711 52.1187858581543 158.33815002441406 0 -1
-79.49224090576172 48.67534255981445 157.73097229003906 0 -1
-43.446937561035156 45.087730407714844 157.098388671875 0 -1
-0.6305699944496155 51.72431182861328 158.26858520507812 0 -1
106.52091979980469 48.219173431396484 157.65054321289062 0 -1
-1.4685074090957642 46.99014663696289 157.433837890625 0 -1
-2.3627231121063232 41.883338928222656 156.5333709716797 0 -1
-10.05497932434082 50.33070755004883 158.02285766601562 0 -1
113.74639129638672 52.5419807434082 158.4127655029297 0 -1
-62.494972229003906 49.33815383911133 157.8478546142578 0 -1
-97.02703094482422 52.970664978027344 158.4883575439453 0 -1
68.5372543334961 51.165374755859375 158.17002868652344 0 -1
-31.568355560302734 36.77788162231445 155.6331329345703 0 -1
-85.06253051757812 49.54436492919922 157.88421630859375 0 -1
-85.03999328613281 54.37919998168945 158.73672485351562 0 -1
-42.985050201416016 39.055423736572266 156.03472900390625 0 -1
70.00025177001953 47.66743469238281 157.55325317382812 0 -1
148.84336853027344 54.05937194824219 158.68032836914062 0 -1
-24.982013702392578 49.75044250488281 157.92054748535156 0 -1
-38.975772857666016 39.65335464477539 156.14016723632812 0 -1
-39.20004653930664 42.76693344116211 156.6891632080078 0 -1
-5.517440319061279 51.59968948364258 158.24661254882812 0 -1
101.01238250732422 54.02756118774414 158.67471313476562 0 -1
140.05352783203125 51.96375274658203 158.31080627441406 0 -1
-54.50596618652344 53.925933837890625 158.65679931640625 0 -1
0.7049304246902466 43.407535552978516 156.8021240234375 0 -1
20.53033447265625 42.69935607910156 156.67724609375 0 -1
-26.546009063720703 47.920387268066406 157.5978546142578 0 -1
-37.88740539550781 41.044044494628906 156.3853759765625 0 -1
-77.73698425292969 54.04417419433594 158.67764282226562 0 -1
103.65859985351562 52.30661392211914 158.3712615966797 0 -1
-52.07969284057617 43.10625457763672 156.74899291992188 0 -1
20.136810302734375 45.90528869628906 157.24253845214844 0 -1
43.59453201293945 48.89746856689453 157.7701416015625 0 -1
86.1166763305664 46.69267654418945 157.38137817382812 0 -1
124.46827697753906 53.52637481689453 158.5863494873047 0 -1
57.25125503540039 49.108497619628906 157.80735778808594 0 -1
-10.924510955810547 49.202762603759766 157.823974609375 0 -1
23.121206283569336 42.93523025512695 156.71884155273438 0 -1
-33.77458190917969 47.41244888305664 157.50830078125 0 -1
-9.466788291931152 43.456390380859375 156.81072998046875 0 -1
78.522216796875 49.52122497558594 157.880126953125 0 -1
-64.15888977050781 44.86664962768555 157.0594024658203 0 -1
-35.9518928527832 41.47903823852539 156.4620819091797 0 -1
-13.865826606750488 39.8814582824707 156.1803741455078 0 -1
97.7671127319336 54.0340576171875 158.6758575439453 0 -1
-58.430301666259766 47.02351760864258 157.43971252441406 0 -1
-46.91039276123047 46.1634407043457 157.28805541992188 0 -1
-85.7751693725586 53.6563835144043 158.60926818847656 0 -1
38.162288665771484 42.255577087402344 156.5989990234375 0 -1
13.210094451904297 48.714263916015625 157.7378387451172 0 -1
58.84040069580078 48.520538330078125 157.70367431640625 0 -1
8.240068435668945 50.74814987182617 158.09646606445312 0 -1
-19.388216018676758 37.17878341674805 155.70382690429688 0 -1
-18.6495304107666 40.19981002807617 156.23651123046875 0 -1
-64.77569580078125 50.518245697021484 158.05592346191406 0 -1
35.10267639160156 44.19589614868164 156.94113159179688 0 -1
-13.785539627075195 42.89115905761719 156.71107482910156 0 -1
24.513900756835938 50.47262954711914 158.04788208007812 0 -1
-48.409461975097656 50.09563064575195 157.98141479492188 0 -1
117.19969940185547 52.02307891845703 158.32127380371094 0 -1
75.35671997070312 52.31929016113281 158.37350463867188 0 -1
49.4974250793457 45.314205169677734 157.13832092285156 0 -1
37.59187316894531 50.65809631347656 158.08059692382812 0 -1
-90.48078155517578 52.43367004394531 158.3936767578125 0 -1
13.63007926940918 50.997440338134766 158.1404266357422 0 -1
-17.560911178588867 52.647315979003906 158.43133544921875 0 -1
5.969287395477295 41.299522399902344 156.430419921875 0 -1
-65.4662094116211 52.55486297607422 158.4150390625 0 -1
-54.25613021850586 52.95127487182617 158.4849395751953 0 -1
-31.97885513305664 49.28321838378906 157.83816528320312 0 -1
26.770429611206055 45.92256546020508 157.24559020996094 0 -1
4.125024795532227 45.62517166137695 157.19314575195312 0 -1
-38.592952728271484 45.84160614013672 157.23130798339844 0 -1
21.73213005065918 51.43665313720703 158.21786499023438 0 -1
-28.97371482849121 43.696754455566406 156.85311889648438 0 -1
11.660454750061035 45.59022521972656 157.18699645996094 0 -1
3.0681228637695312 39.03572463989258 156.03125 0 -1
116.90008544921875 50.06973648071289 157.9768524169922 0 -1
4.823339462280273 44.90234375 157.06570434570312 0 -1
-18.936307907104492 49.74966812133789 157.92041015625 0 -1
57.07030487060547 52.089107513427734 158.33291625976562 0 -1
-52.91647720336914 50.211769104003906 158.00189208984375 0 -1
61.56624984741211 49.00069046020508 157.78834533691406 0 -1
-44.92744064331055 42.25400924682617 156.59872436523438 0 -1
56.91287612915039 53.813880920410156 158.6370391845703 0 -1
76.40187072753906 53.198272705078125 158.5284881591797 0 -1
122.09256744384766 51.9024543762207 158.3000030517578 0 -1
-60.7180290222168 51.8722038269043 158.29466247558594 0 -1
54.31609344482422 47.81890106201172 157.57997131347656 0 -1
125.45379638671875 51.4182014465332 158.21461486816406 0 -1
-21.171463012695312 42.783626556396484 156.69210815429688 0 -1
37.433433532714844 48.0332145690918 157.6177520751953 0 -1
-71.36180114746094 53.966148376464844 158.6638946533203 0 -1
40.99514389038086 48.5262451171875 157.70468139648438 0 -1
26.03437042236328 44.56956481933594 157.00701904296875 0 -1
-29.26336669921875 41.56835174560547 156.4778289794922 0 -1
53.601341247558594 53.02302932739258 158.49758911132812 0 -1
46.20016860961914 50.72964859008789 158.09320068359375 0 -1
54.731040954589844 46.23197937011719 157.30014038085938 0 -1
67.97562408447266 48.87934875488281 157.76695251464844 0 -1
16.947429656982422 49.93959045410156 157.9539031982422 0 -1
-17.353506088256836 53.648616790771484 158.60789489746094 0 -1
93.69695281982422 49.178245544433594 157.8196563720703 0 -1
118.21781158447266 51.9865608215332 158.31483459472656 0 -1
-100.89564514160156 53.74602127075195 158.6250762939453 0 -1
44.22666931152344 51.80373764038086 158.2825927734375 0 -1
66.48758697509766 48.047889709472656 157.62034606933594 0 -1
-49.10306930541992 50.92108917236328 158.12696838378906 0 -1
64.49205017089844 44.013851165771484 156.90902709960938 0 -1
81.76128387451172 51.3892936706543 158.2095184326172 0 -1
73.13044738769531 50.890193939208984 158.12152099609375 0 -1
30.79332733154297 51.29243469238281 158.19244384765625 0 -1
53.681304931640625 46.85914611816406 157.41073608398438 0 -1
144.02670288085938 52.12657928466797 158.3395233154297 0 -1
-7.102848529815674 51.9808349609375 158.31382751464844 0 -1
-22.89615821838379 43.445274353027344 156.80877685546875 0 -1
-74.81587982177734 47.96754455566406 157.60617065429688 0 -1
55.65473556518555 52.13035583496094 158.34019470214844 0 -1
43.73450469970703 45.99786376953125 157.2588653564453 0 -1
-17.55370330810547 43.17500686645508 156.76112365722656 0 -1
-68.09751892089844 47.34104919433594 157.49571228027344 0 -1
9.723993301391602 50.279144287109375 158.01376342773438 0 -1
134.0972900390625 53.43936538696289 158.5709991455078 0 -1
45.62299346923828 43.25092315673828 156.77450561523438 0 -1
-54.213775634765625 50.718994140625 158.09132385253906 0 -1
137.4131622314453 52.241607666015625 158.35980224609375 0 -1
1.9623717069625854 45.244876861572266 157.1260986328125 0 -1
21.096052169799805 45.599609375 157.1886444091797 0 -1
-36.51490783691406 47.7271728515625 157.5637969970703 0 -1
-50.92755126953125 52.40070724487305 158.3878631591797 0 -1
62.96792984008789 53.085479736328125 158.50860595703125 0 -1
109.59600830078125 53.02797317504883 158.4984588623047 0 -1
5.4331865310668945 40.02035140991211 156.2048797607422 0 -1
-70.8234634399414 47.9097900390625 157.5959930419922 0 -1
-25.539020538330078 45.841800689697266 157.23135375976562 0 -1
-57.76549530029297 44.519344329833984 156.9981689453125 0 -1
1.2174389362335205 51.933250427246094 158.30543518066406 0 -1
-32.13261413574219 41.57113265991211 156.4783172607422 0 -1
-35.478057861328125 54.30970764160156 158.72447204589844 0 -1
-45.70087432861328 43.17185974121094 156.76055908203125 0 -1
-15.660661697387695 37.610111236572266 155.77987670898438 0 -1
-74.97862243652344 51.103851318359375 158.15919494628906 0 -1
119.02494049072266 53.54544448852539 158.58970642089844 0 -1
23.13735580444336 52.8863525390625 158.47349548339844 0 -1
34.12298583984375 45.546504974365234 157.1792755126953 0 -1
61.31049728393555 44.23822784423828 156.94859313964844 0 -1
-35.88584518432617 39.50313949584961 156.11367797851562 0 -1
75.1690444946289 48.44222640991211 157.6898651123047 0 -1
151.58627319335938 52.91517639160156 158.47857666015625 0 -1
86.22025299072266 51.741397857666016 158.2716064453125 0 -1
-33.199527740478516 41.73978805541992 156.508056640625 0 -1
13.569265365600586 44.6411018371582 157.01963806152344 0 -1
-23.488325119018555 39.3538818359375 156.0873565673828 0 -1
14.624120712280273 52.57323455810547 158.41827392578125 0 -1
-75.40851593017578 49.13005447387695 157.8111572265625 0 -1
-24.297319412231445 40.19370651245117 156.23544311523438 0 -1
116.4668197631836 52.72018814086914 158.44419860839844 0 -1
39.45246887207031 52.98360824584961 158.4906463623047 0 -1
31.148990631103516 49.50522232055664 157.87730407714844 0 -1
0.12547552585601807 50.77309799194336 158.10086059570312 0 -1
-7.1994428634643555 49.48481369018555 157.8737030029297 0 -1
30.134191513061523 44.81398391723633 157.05010986328125 0 -1
-14.416341781616211 46.57650375366211 157.36090087890625 0 -1
-50.17792510986328 43.05956268310547 156.7407684326172 0 -1
22.118486404418945 41.155853271484375 156.40509033203125 0 -1
9.624951362609863 41.94136428833008 156.54359436035156 0 -1
83.80704498291016 45.79170608520508 157.22251892089844 0 -1
120.85881042480469 49.404727935791016 157.85958862304688 0 -1
78.72088623046875 40.35763931274414 156.26434326171875 0 -1
86.68799591064453 41.28162384033203 156.42726135253906 0 -1
116.31798553466797 44.187042236328125 156.9395751953125 0 -1
81.78416442871094 37.035457611083984 155.67855834960938 0 -1
126.62591552734375 49.87953567504883 157.9433135986328 0 -1
15.058473587036133 38.65884780883789 155.9647979736328 0 -1
112.3578872680664 45.61463928222656 157.19129943847656 0 -1
61.734867095947266 36.884033203125 155.65185546875 0 -1
117.27422332763672 43.700721740722656 156.85382080078125 0 -1
-1.9717307090759277 36.93465042114258 155.66078186035156 0 -1
2.1526670455932617 36.876041412353516 155.65045166015625 0 -1
61.95240783691406 42.07293701171875 156.56680297851562 0 -1
71.89117431640625 42.449668884277344 156.6332244873047 0 -1
8.27054500579834 35.587310791015625 155.42320251464844 0 -1
115.43450927734375 45.14448928833008 157.1083984375 0 -1
-19.332185745239258 35.27424240112305 155.36801147460938 0 -1
84.9565200805664 39.362545013427734 156.08888244628906 0 -1
91.03606414794922 42.85890579223633 156.70538330078125 0 -1
97.01762390136719 41.59034729003906 156.48170471191406 0 -1
110.5691146850586 39.88794708251953 156.1815185546875 0 -1
117.726318359375 46.41592025756836 157.33258056640625 0 -1
93.62931823730469 41.074886322021484 156.39080810546875 0 -1
3.8341825008392334 34.890926361083984 155.3004150390625 0 -1
122.05579376220703 44.52157211303711 156.99855041503906 0 -1
156.90737915039062 51.33060073852539 158.1991729736328 0 -1
12.363974571228027 36.306331634521484 155.54998779296875 0 -1
41.84037780761719 38.653358459472656 155.96383666992188 0 -1
-0.8532692790031433 36.75285339355469 155.62872314453125 0 -1
87.82301330566406 44.84644317626953 157.05584716796875 0 -1
50.91928482055664 37.85867691040039 155.82371520996094 0 -1
128.1520233154297 49.430633544921875 157.86415100097656 0 -1
12.147525787353516 37.2150993347168 155.71023559570312 0 -1
-0.14244650304317474 35.458778381347656 155.40054321289062 0 -1
122.34105682373047 42.49818801879883 156.64178466796875 0 -1
110.08395385742188 43.35251998901367 156.79241943359375 0 -1
77.66120910644531 37.78284454345703 155.81033325195312 0 -1
35.240474700927734 34.9586067199707 155.31234741210938 0 -1
130.59197998046875 50.19109344482422 157.9982452392578 0 -1
120.6139907836914 46.85224151611328 157.40951538085938 0 -1
106.97606658935547 45.64639663696289 157.1968994140625 0 -1
82.41226959228516 35.41133117675781 155.39218139648438 0 -1
109.18327331542969 41.20365905761719 156.41351318359375 0 -1
56.81637954711914 36.50764083862305 155.58547973632812 0 -1
89.29904174804688 38.52853775024414 155.9418182373047 0 -1
92.45893859863281 39.05823516845703 156.0352325439453 0 -1
118.2233657836914 47.92829895019531 157.59925842285156 0 -1
34.560306549072266 38.13986587524414 155.873291015625 0 -1
160.0035858154297 53.27308654785156 158.54168701171875 0 -1
60.129791259765625 38.35624313354492 155.91143798828125 0 -1
93.28417205810547 46.183013916015625 157.29151916503906 0 -1
47.86428451538086 36.93689727783203 155.6611785888672 0 -1
105.52995300292969 40.71254348754883 156.32691955566406 0 -1
69.65296936035156 43.8194694519043 156.874755859375 0 -1
56.69563293457031 37.727420806884766 155.80056762695312 0 -1
142.7863006591797 48.845638275146484 157.76100158691406 0 -1
61.727169036865234 37.84343719482422 155.82102966308594 0 -1
46.86527633666992 41.35746765136719 156.44064331054688 0 -1
74.04621887207031 41.1883430480957 156.4108123779297 0 -1
119.75665283203125 47.658363342285156 157.55165100097656 0 -1
90.86605834960938 37.248626708984375 155.7161407470703 0 -1
72.89508056640625 44.52495574951172 156.99916076660156 0 -1
121.9033203125 46.700538635253906 157.3827667236328 0 -1
94.85676574707031 46.695613861083984 157.38189697265625 0 -1
131.0309295654297 46.172122955322266 157.2895965576172 0 -1
51.51991271972656 36.73418426513672 155.62542724609375 0 -1
45.337127685546875 35.245811462402344 155.3629913330078 0 -1
130.05252075195312 48.911598205566406 157.7726287841797 0 -1
86.11004638671875 35.68775939941406 155.44091796875 0 -1
102.91725158691406 41.3322639465332 156.4362030029297 0 -1
58.71678161621094 42.90004348754883 156.71263122558594 0 -1
34.66542053222656 36.183433532714844 155.5283203125 0 -1
97.46331787109375 37.80331802368164 155.81394958496094 0 -1
89.35633087158203 42.31952667236328 156.6102752685547 0 -1
46.98234558105469 40.07155227661133 156.21389770507812 0 -1
44.46537399291992 40.558616638183594 156.29978942871094 0 -1
117.59632873535156 44.72917938232422 157.03517150878906 0 -1
78.06665802001953 39.22499084472656 156.06463623046875 0 -1
35.756351470947266 40.777217864990234 156.3383331298828 0 -1
94.1904296875 37.11914825439453 155.6933135986328 0 -1
-6.084383487701416 36.3121337890625 155.55101013183594 0 -1
110.00719451904297 45.65180587768555 157.19784545898438 0 -1
80.89800262451172 41.00209045410156 156.3779754638672 0 -1
11.477643966674805 38.3099250793457 155.9032745361328 0 -1
-4.208419322967529 35.70927429199219 155.44471740722656 0 -1
7.5149736404418945 37.2584342956543 155.71786499023438 0 -1
56.63833999633789 35.07890319824219 155.33355712890625 0 -1
55.82912063598633 35.77961349487305 155.45712280273438 0 -1
73.11654663085938 35.11035919189453 155.339111328125 0 -1
43.333126068115234 41.637760162353516 156.4900665283203 0 -1
138.57115173339844 49.60498809814453 157.8948974609375 0 -1
131.1088409423828 48.88252258300781 157.7675018310547 0 -1
77.99559783935547 35.37443923950195 155.38568115234375 0 -1
91.00736236572266 40.45689392089844 156.28184509277344 0 -1
56.61134338378906 42.245323181152344 156.59719848632812 0 -1
154.97970581054688 51.62623977661133 158.2512969970703 0 -1
71.65633392333984 37.79443359375 155.8123779296875 0 -1
58.74044418334961 39.661861419677734 156.14166259765625 0 -1
70.0051498413086 39.57314682006836 156.1260223388672 0 -1
45.1513786315918 36.26891326904297 155.54339599609375 0 -1
97.64198303222656 39.179832458496094 156.05667114257812 0 -1
99.5849609375 43.525970458984375 156.82301330566406 0 -1
36.4022331237793 36.259681701660156 155.54176330566406 0 -1
143.33717346191406 49.98665237426758 157.96218872070312 0 -1
47.89922332763672 42.09645080566406 156.57093811035156 0 -1
94.900146484375 41.4288215637207 156.45321655273438 0 -1
78.60649108886719 36.90339279174805 155.6552734375 0 -1
83.2757568359375 41.10462951660156 156.39605712890625 0 -1
18.824697494506836 37.13524627685547 155.69615173339844 0 -1
111.15330505371094 43.28899383544922 156.78121948242188 0 -1
102.71019744873047 37.66581344604492 155.78970336914062 0 -1
127.61672973632812 46.807682037353516 157.4016571044922 0 -1
49.9915771484375 39.84273910522461 156.17355346679688 0 -1
99.99248504638672 44.63839340209961 157.01914978027344 0 -1
5.570134162902832 35.16429138183594 155.34861755371094 0 -1
79.23384094238281 39.40968704223633 156.09719848632812 0 -1
119.99877166748047 44.71926498413086 157.03341674804688 0 -1
79.9402084350586 42.24481201171875 156.59710693359375 0 -1
49.21193313598633 37.731197357177734 155.80123901367188 0 -1
169.2628631591797 54.23444366455078 158.71119689941406 0 -1
48.17690658569336 40.016578674316406 156.20420837402344 0 -1
132.19088745117188 47.564300537109375 157.53506469726562 0 -1
103.8478775024414 40.70001983642578 156.32472229003906 0 -1
60.86521530151367 39.87916946411133 156.1799774169922 0 -1
108.40973663330078 46.7601432800293 157.39328002929688 0 -1
-20.34982681274414 35.15291976928711 155.34661865234375 0 -1
43.08005905151367 35.86729049682617 155.4725799560547 0 -1
-3.7444212436676025 36.79084396362305 155.6354217529297 0 -1
89.59353637695312 39.55293273925781 156.12245178222656 0 -1
145.03102111816406 50.84053039550781 158.11276245117188 0 -1
24.128280639648438 39.124549865722656 156.0469207763672 0 -1
31.111408233642578 39.31502151489258 156.08050537109375 0 -1
-2.3588998317718506 35.83289337158203 155.4665069580078 0 -1
81.1091079711914 43.25765609741211 156.77569580078125 0 -1
87.67790222167969 41.922096252441406 156.5402069091797 0 -1
116.91061401367188 48.24369430541992 157.6548614501953 0 -1
85.74577331542969 42.73147201538086 156.6829071044922 0 -1
145.8306884765625 51.46638870239258 158.22311401367188 0 -1
78.97962951660156 35.67337417602539 155.43838500976562 0 -1
67.65815734863281 42.669429779052734 156.67198181152344 0 -1
90.25946807861328 36.288028717041016 155.54676818847656 0 -1
100.70281219482422 47.35592269897461 157.49832153320312 0 -1
128.56842041015625 44.19841766357422 156.9415740966797 0 -1
82.16510772705078 45.18711471557617 157.11590576171875 0 -1
-1.2920970916748047 35.914634704589844 155.48092651367188 0 -1
62.87668228149414 42.33585739135742 156.6131591796875 0 -1
101.29336547851562 46.35178756713867 157.32127380371094 0 -1
69.51971435546875 40.73811340332031 156.33143615722656 0 -1
134.35072326660156 50.22848129272461 158.0048370361328 0 -1
68.59325408935547 44.198974609375 156.94168090820312 0 -1
113.79077911376953 47.84834671020508 157.5851593017578 0 -1
57.72437286376953 39.067832946777344 156.0369110107422 0 -1
146.6841583251953 50.74186706542969 158.09536743164062 0 -1
125.4827651977539 44.62055206298828 157.01600646972656 0 -1
99.6853256225586 37.80752944946289 155.814697265625 0 -1
33.400665283203125 36.65091323852539 155.61074829101562 0 -1
86.0350341796875 38.39754867553711 155.91873168945312 0 -1
45.7691535949707 38.8242301940918 155.99395751953125 0 -1
34.2624626159668 35.028587341308594 155.32469177246094 0 -1
16.190433502197266 38.72059631347656 155.97569274902344 0 -1
120.80732727050781 48.35308837890625 157.6741485595703 0 -1
49.00563430786133 41.17800521850586 156.40899658203125 0 -1
23.786588668823242 36.21181106567383 155.5333251953125 0 -1
135.60800170898438 49.01295471191406 157.79051208496094 0 -1
29.4757080078125 40.29463195800781 156.25323486328125 0 -1
33.06288146972656 35.71855926513672 155.44635009765625 0 -1
23.22804832458496 39.7177734375 156.15151977539062 0 -1
114.76673889160156 48.28592300415039 157.6623077392578 0 -1
64.86469268798828 41.181129455566406 156.4095458984375 0 -1
124.8055648803711 46.78569412231445 157.3977813720703 0 -1
35.09628677368164 39.344970703125 156.08578491210938 0 -1
112.72822570800781 40.41984939575195 156.2753143310547 0 -1
110.70890808105469 42.399417877197266 156.62435913085938 0 -1
20.202638626098633 38.390899658203125 155.9175567626953 0 -1
105.555419921875 43.96946334838867 156.9011993408203 0 -1
135.35504150390625 50.57855987548828 158.06655883789062 0 -1
95.42849731445312 37.934539794921875 155.8370819091797 0 -1
61.19982147216797 43.19116973876953 156.76397705078125 0 -1
59.7183952331543 40.812679290771484 156.34457397460938 0 -1
122.41304016113281 45.77085876464844 157.21884155273438 0 -1
51.21573257446289 39.54514694213867 156.12107849121094 0 -1
118.93243408203125 42.71689987182617 156.6803436279297 0 -1
21.58089828491211 35.63543701171875 155.43170166015625 0 -1
58.797142028808594 35.8887939453125 155.4763641357422 0 -1
92.62088775634766 44.92507553100586 157.0697021484375 0 -1
37.92409133911133 37.65635299682617 155.7880401611328 0 -1
78.831787109375 37.82700729370117 155.81813049316406 0 -1
98.60684967041016 39.608253479003906 156.1322021484375 0 -1
53.19633102416992 40.10856246948242 156.22042846679688 0 -1
32.42988204956055 39.75068283081055 156.15731811523438 0 -1
47.22028350830078 36.23368835449219 155.5371856689453 0 -1
87.90155029296875 36.84595489501953 155.6451416015625 0 -1
37.175296783447266 41.1286506652832 156.40029907226562 0 -1
98.53679656982422 44.77981185913086 157.04409790039062 0 -1
43.9952392578125 38.50753402709961 155.93812561035156 0 -1
70.06552124023438 36.3375129699707 155.5554962158203 0 -1
89.52395629882812 40.98526382446289 156.37501525878906 0 -1
24.941064834594727 38.27110290527344 155.8964385986328 0 -1
128.29310607910156 48.10362243652344 157.6301727294922 0 -1
48.484527587890625 38.670692443847656 155.96688842773438 0 -1
125.38421630859375 47.592308044433594 157.54000854492188 0 -1
68.64794921875 41.23329162597656 156.4187469482422 0 -1
67.42308807373047 39.823055267333984 156.1700897216797 0 -1
25.65601348876953 37.447147369384766 155.7511444091797 0 -1
115.58733367919922 41.876731872558594 156.53219604492188 0 -1
31.467403411865234 40.3238410949707 156.25839233398438 0 -1
102.12613677978516 40.43631362915039 156.27821350097656 0 -1
88.93994140625 36.642051696777344 155.60919189453125 0 -1
54.91730880737305 41.28939437866211 156.4286346435547 0 -1
62.820594787597656 38.60503387451172 155.95530700683594 0 -1
104.17692565917969 41.93855667114258 156.54310607910156 0 -1
50.05649185180664 41.58539962768555 156.4808349609375 0 -1
54.604087829589844 38.89570236206055 156.00656127929688 0 -1
72.60952758789062 38.888675689697266 156.0053253173828 0 -1
127.26744079589844 43.90312576293945 156.88951110839844 0 -1
100.29341888427734 39.76628494262695 156.1600799560547 0 -1
74.52876281738281 42.54426574707031 156.64990234375 0 -1
74.09210205078125 34.86956024169922 155.29664611816406 0 -1
71.9655990600586 40.95291519165039 156.3693084716797 0 -1
89.27227020263672 43.960052490234375 156.89955139160156 0 -1
140.38897705078125 50.667972564697266 158.08233642578125 0 -1
75.58322143554688 34.82361602783203 155.28854370117188 0 -1
92.9592514038086 37.215511322021484 155.71029663085938 0 -1
82.79207611083984 36.83651351928711 155.6434783935547 0 -1
16.568410873413086 37.49424743652344 155.7594451904297 0 -1
143.97787475585938 50.92572021484375 158.12777709960938 0 -1
123.03306579589844 43.934593200683594 156.89505004882812 0 -1
85.17073822021484 44.29304885864258 156.95826721191406 0 -1
149.20565795898438 51.018043518066406 158.14405822753906 0 -1
12.645257949829102 35.331912994384766 155.378173828125 0 -1
11.072355270385742 37.29555130004883 155.7244110107422 0 -1
52.3410758972168 42.189552307128906 156.5873565673828 0 -1
141.6699676513672 50.67708206176758 158.0839385986328 0 -1
16.734397888183594 36.13972854614258 155.52061462402344 0 -1
140.73345947265625 49.75923156738281 157.92208862304688 0 -1
65.61931610107422 40.538604736328125 156.29624938964844 0 -1
63.95724868774414 37.302879333496094 155.7257080078125 0 -1
54.83665466308594 36.9514045715332 155.6637420654297 0 -1
46.06455612182617 37.829627990722656 155.81858825683594 0 -1
91.88906860351562 42.10264205932617 156.57203674316406 0 -1
59.77964401245117 35.8031120300293 155.4612579345703 0 -1
67.99449920654297 38.006439208984375 155.84976196289062 0 -1
95.66521453857422 43.04216384887695 156.73770141601562 0 -1
56.01836395263672 39.11302185058594 156.04489135742188 0 -1
147.19850158691406 49.89439392089844 157.9459228515625 0 -1
14.334074020385742 36.73586654663086 155.625732421875 0 -1
106.24867248535156 41.439598083496094 156.4551239013672 0 -1
131.0736083984375 47.36295700073242 157.49957275390625 0 -1
121.67377471923828 47.77030563354492 157.57139587402344 0 -1
87.0860824584961 37.56239318847656 155.77146911621094 0 -1
39.57649230957031 35.852176666259766 155.46990966796875 0 -1
17.65479278564453 38.28374099731445 155.89866638183594 0 -1
154.03201293945312 50.74803161621094 158.09645080566406 0 -1
98.8101577758789 46.4039421081543 157.33047485351562 0 -1
133.38519287109375 49.4295654296875 157.8639678955078 0 -1
73.34300231933594 37.18051528930664 155.70413208007812 0 -1
93.82401275634766 42.95998764038086 156.72320556640625 0 -1
93.32127380371094 39.46611785888672 156.10714721679688 0 -1
34.16654968261719 39.075439453125 156.0382537841797 0 -1
87.34146881103516 45.891963958740234 157.2401885986328 0 -1
72.105712890625 39.79301834106445 156.16477966308594 0 -1
120.9969253540039 44.57845687866211 157.0085906982422 0 -1
71.83268737792969 36.81266784667969 155.63926696777344 0 -1
108.1343994140625 41.02547073364258 156.38209533691406 0 -1
100.50853729248047 40.780513763427734 156.3389129638672 0 -1
72.6469955444336 43.197547912597656 156.7650909423828 0 -1
127.46356964111328 45.588966369628906 157.186767578125 0 -1
108.11833953857422 39.84126663208008 156.1732940673828 0 -1
65.51591491699219 36.7694206237793 155.63165283203125 0 -1
63.31870651245117 43.562225341796875 156.8293914794922 0 -1
43.002864837646484 38.52865982055664 155.9418487548828 0 -1
120.20285034179688 46.01766586303711 157.26235961914062 0 -1
33.56337356567383 38.16889190673828 155.87840270996094 0 -1
90.73067474365234 39.49478530883789 156.11219787597656 0 -1
27.599252700805664 36.91732406616211 155.65773010253906 0 -1
91.13170623779297 38.25553894042969 155.89369201660156 0 -1
67.46183776855469 41.71110534667969 156.50299072265625 0 -1
27.539392471313477 38.98801040649414 156.02284240722656 0 -1
29.910999298095703 39.31990051269531 156.08135986328125 0 -1
62.77956771850586 41.16777801513672 156.40719604492188 0 -1
28.361356735229492 35.72006607055664 155.4466094970703 0 -1
157.47576904296875 52.80354309082031 158.45889282226562 0 -1
22.50396156311035 36.311546325683594 155.5509033203125 0 -1
132.44300842285156 45.7169075012207 157.20932006835938 0 -1
9.159207344055176 37.02268981933594 155.67630004882812 0 -1
123.92049407958984 49.39967727661133 157.85870361328125 0 -1
74.20063781738281 38.80828857421875 155.99114990234375 0 -1
5.120525360107422 36.29704666137695 155.54835510253906 0 -1
58.60570526123047 41.58486557006836 156.48074340820312 0 -1
92.52334594726562 40.05067825317383 156.21022033691406 0 -1
48.9420280456543 35.93684005737305 155.48483276367188 0 -1
92.53909301757812 41.17592239379883 156.40863037109375 0 -1
20.81321144104004 37.53305435180664 155.76629638671875 0 -1
0.5986098647117615 37.1506462097168 155.69886779785156 0 -1
50.17988586425781 34.847869873046875 155.29283142089844 0 -1
63.87748336791992 42.36170959472656 156.6177215576172 0 -1
62.15594482421875 34.897525787353516 155.30157470703125 0 -1
26.575363159179688 37.08844757080078 155.68789672851562 0 -1
94.83905792236328 39.987369537353516 156.1990509033203 0 -1
80.6291275024414 39.08161163330078 156.0393524169922 0 -1
119.96427917480469 42.59075927734375 156.65809631347656 0 -1
115.54427337646484 42.971763610839844 156.72528076171875 0 -1
137.31570434570312 47.225990295410156 157.4754180908203 0 -1
161.1815643310547 52.583431243896484 158.42007446289062 0 -1
114.13819885253906 42.14141082763672 156.57887268066406 0 -1
123.04216003417969 47.156715393066406 157.46319580078125 0 -1
76.50428009033203 40.46657943725586 156.28355407714844 0 -1
105.74560546875 39.352272033691406 156.08706665039062 0 -1
44.35062026977539 35.60836410522461 155.4269256591797 0 -1
73.78527069091797 39.739627838134766 156.15536499023438 0 -1
58.075103759765625 40.37847900390625 156.2680206298828 0 -1
138.368408203125 47.683223724365234 157.55604553222656 0 -1
22.64048194885254 38.11501693725586 155.86891174316406 0 -1
114.78707885742188 46.42118835449219 157.33351135253906 0 -1
76.72560119628906 37.40651321411133 155.74398803710938 0 -1
37.89226531982422 40.39630126953125 156.2711639404297 0 -1
68.8141098022461 42.60070037841797 156.65985107421875 0 -1
116.46574401855469 45.129825592041016 157.10580444335938 0 -1
82.3599853515625 39.32221984863281 156.08177185058594 0 -1
90.77125549316406 34.94874954223633 155.31060791015625 0 -1
55.83385467529297 36.96696090698242 155.66647338867188 0 -1
137.0540313720703 48.99775314331055 157.78782653808594 0 -1
