VERSION .7
FIELDS x y z label object
SIZE 4 4 4 4 4
TYPE F F F I I
COUNT 1 1 1 1 1
WIDTH 933
HEIGHT 1
POINTS 933
VIEWPOINT 0 0 0 1 0 0 0
DATA ascii
407.729248046875 200 -138.64002990722656 0 -1
429.0636291503906 200 -0.8965392708778381 0 -1
434.63970947265625 200 -130.76461791992188 0 -1
445.6495666503906 200 -27.65934944152832 0 -1
363.60662841796875 200 -121.19719696044922 0 -1
369.1597595214844 200 -104.30602264404297 0 -1
419.5520935058594 200 -115.28501892089844 0 -1
366.6246337890625 200 -146.9618377685547 0 -1
422.92962646484375 200 -65.44751739501953 0 -1
380.91912841796875 200 -118.40035247802734 0 -1
441.7879333496094 200 -88.2014389038086 0 -1
399.5487365722656 200 -123.44728088378906 0 -1
483.942626953125 200 -105.87074279785156 0 -1
410.6766357421875 200 -51.116615295410156 0 -1
431.3409423828125 200 -51.51907730102539 0 -1
448.7892150878906 200 -12.307295799255371 0 -1
412.3168029785156 200 -16.893068313598633 0 -1
382.7630920410156 200 -139.8646697998047 0 -1
447.3692932128906 200 -116.61048126220703 0 -1
398.4552917480469 200 -92.453125 0 -1
411.6867370605469 200 -32.43552017211914 0 -1
475.8695068359375 200 -152.45335388183594 0 -1
454.9933166503906 200 -151.22789001464844 0 -1
415.5517272949219 200 -94.74241638183594 0 -1
461.4939880371094 200 -98.45860290527344 0 -1
405.2511291503906 200 -107.41725158691406 0 -1
443.0312194824219 200 6.933636665344238 0 -1
347.4730224609375 200 -125.25065612792969 0 -1
457.7384948730469 200 -80.9140396118164 0 -1
350.9526062011719 200 -109.74516296386719 0 -1
469.31378173828125 200 -114.11922454833984 0 -1
481.4505310058594 200 -131.54592895507812 0 -1
431.55438232421875 200 -77.68218231201172 0 -1
377.4009094238281 200 -71.7300033569336 0 -1
391.11199951171875 200 -32.86686706542969 0 -1
363.2566833496094 186.49081420898438 -154.75 0 -1
325.97589111328125 193.49632263183594 -154.75 0 -1
397.1667785644531 199.16712951660156 -154.75 0 -1
380.4597473144531 192.45169067382812 -154.75 0 -1
353.6468811035156 196.3587646484375 -154.75 0 -1
322.1672058105469 180 -154.07557678222656 0 -1
311.5740051269531 191.5196075439453 -146.41769409179688 0 -1
310 180.9717559814453 326.8706970214844 0 -1
310 192.6093292236328 235.52040100097656 0 -1
310 199.2716827392578 50.761783599853516 0 -1
310 190.21568298339844 165.56138610839844 0 -1
310 198.85499572753906 10.150477409362793 0 -1
310 198.27810668945312 182.81881713867188 0 -1
310 198.8845977783203 68.51876831054688 0 -1
310 198.17587280273438 218.419921875 0 -1
310 199.71263122558594 143.97882080078125 0 -1
310 199.821533203125 -134.47242736816406 0 -1
310 195.38693237304688 85.02925109863281 0 -1
310 195.28256225585938 34.07628631591797 0 -1
310 195.28292846679688 -69.06749725341797 0 -1
310 182.20838928222656 184.5417938232422 0 -1
310 188.0318145751953 -123.49486541748047 0 -1
310 187.4363250732422 -46.60734558105469 0 -1
310 182.89109802246094 256.0552062988281 0 -1
310 180.95208740234375 -109.66082000732422 0 -1
310 187.2044219970703 112.63145446777344 0 -1
310 180.41355895996094 19.060428619384766 0 -1
310 186.2176513671875 -86.08116912841797 0 -1
377.2224426269531 180 -38.033870697021484 0 -1
425.3341369628906 180 39.97610855102539 0 -1
394.99371337890625 180 -7.457494258880615 0 -1
411.0621032714844 180 22.29452896118164 0 -1
336.9078674316406 180 -96.29235076904297 0 -1
396.5611572265625 180 5.898794174194336 0 -1
430.7665100097656 197.5935821533203 59.800636291503906 0 -1
411.31463623046875 200 24.049654006958008 0 -1
399.34649658203125 200 -5.576644420623779 0 -1
411.43701171875 200 8.472593307495117 0 -1
312.7928466796875 183.84259033203125 343.4524841308594 0 -1
379.2527160644531 -180 326.9752502441406 0 -1
382.1451110839844 -200 333.3345947265625 0 -1
383.21112060546875 -200 312.9447326660156 0 -1
390.7769775390625 -186.63621520996094 342.0096740722656 0 -1
407.58673095703125 -200 257.4996643066406 0 -1
410.2066650390625 -200 226.17120361328125 0 -1
397.842529296875 -200 244.53018188476562 0 -1
387.9891662597656 -200 291.77874755859375 0 -1
394.68243408203125 -200 228.44235229492188 0 -1
419.7593994140625 -200 176.2581329345703 0 -1
403.0268859863281 -200 198.5431671142578 0 -1
388.3941345214844 -200 260.0108947753906 0 -1
394.75927734375 -187.30809020996094 325.52520751953125 0 -1
399.4966125488281 -194.87721252441406 301.41217041015625 0 -1
404.1919250488281 -196.18023681640625 277.5130615234375 0 -1
420.34747314453125 -197.37815856933594 195.2813720703125 0 -1
416.13525390625 -191.4864501953125 216.7214813232422 0 -1
427.663818359375 -199.19435119628906 158.04129028320312 0 -1
385.9693298339844 -180 270.574462890625 0 -1
386.85113525390625 -180 309.8456115722656 0 -1
403.7076416015625 -180 266.5741271972656 0 -1
397.3983154296875 -180 281.8182678222656 0 -1
403.21380615234375 -180 247.0039520263672 0 -1
414.34393310546875 -180 204.44911193847656 0 -1
423.8763427734375 -180 154.39669799804688 0 -1
388.7991638183594 -180 253.56243896484375 0 -1
388.4896240234375 -180 233.66604614257812 0 -1
395.7900085449219 -200 213.63967895507812 0 -1
398.6169128417969 -180 202.42449951171875 0 -1
380.11334228515625 -200 243.80345153808594 0 -1
406.5115966796875 -200 160.32882690429688 0 -1
416.1814270019531 -200 146.7795867919922 0 -1
430.5931396484375 -200 110.32088470458984 0 -1
426.1595458984375 -200 89.06477355957031 0 -1
397.6340026855469 -200 179.68617248535156 0 -1
373.8316955566406 -180 245.8821563720703 0 -1
406.84381103515625 -180 159.29412841796875 0 -1
422.25994873046875 -180 102.05459594726562 0 -1
424.6327209472656 -180 130.42880249023438 0 -1
432.46331787109375 -180 86.1539535522461 0 -1
401.0056457519531 -180 181.9978790283203 0 -1
385.9096374511719 -200 198.60951232910156 0 -1
378.5435485839844 -180 217.1888885498047 0 -1
367.1620788574219 -200 237.71722412109375 0 -1
378.6640625 -180 202.33843994140625 0 -1
408.284912109375 -200 122.11544799804688 0 -1
365.3354797363281 -200 214.94485473632812 0 -1
350.3131408691406 -180 198.92294311523438 0 -1
379.431396484375 -180 166.1995391845703 0 -1
403.6530456542969 -180 48.67133331298828 0 -1
393.7167663574219 -180 105.39749908447266 0 -1
345.8388977050781 -180 -12.579227447509766 0 -1
376.0724182128906 -180 -21.492111206054688 0 -1
356.44482421875 -180 236.41664123535156 0 -1
334.5052795410156 -180 -45.21462631225586 0 -1
339.3399658203125 -180 37.93817901611328 0 -1
366.8875732421875 -180 76.90972900390625 0 -1
373.06793212890625 -180 22.891908645629883 0 -1
366.5660400390625 -180 123.33641815185547 0 -1
364.6341857910156 -180 191.02517700195312 0 -1
359.41949462890625 -180 9.58222484588623 0 -1
356.1064453125 -180 214.911865234375 0 -1
378.7566833496094 -180 -3.9437148571014404 0 -1
423.5805969238281 -180 57.220611572265625 0 -1
336.14727783203125 -180 -109.47496032714844 0 -1
407.7880554199219 -180 87.86630249023438 0 -1
378.6336975097656 -180 149.3888702392578 0 -1
390.71258544921875 -180 60.19430923461914 0 -1
405.4156188964844 -180 65.58821105957031 0 -1
348.0525207519531 -180 182.78195190429688 0 -1
362.37774658203125 -180 -15.876545906066895 0 -1
393.36590576171875 -180 150.41543579101562 0 -1
382.4529724121094 -180 72.67092895507812 0 -1
331.4117126464844 -180 -127.06422424316406 0 -1
364.4129333496094 -180 102.38330078125 0 -1
374.17626953125 -180 39.396060943603516 0 -1
342.2134094238281 -180 54.927955627441406 0 -1
356.2288513183594 -180 -79.75581359863281 0 -1
363.9772033691406 -180 143.6244659423828 0 -1
347.71759033203125 -180 107.08829498291016 0 -1
379.8374938964844 -180 182.64784240722656 0 -1
418.7151794433594 -180 77.71865844726562 0 -1
381.4429931640625 -180 130.64768981933594 0 -1
342.41802978515625 -180 -60.16133117675781 0 -1
360.36669921875 -180 -60.958580017089844 0 -1
389.7095947265625 -180 86.06609344482422 0 -1
363.65936279296875 -180 166.18479919433594 0 -1
341.416748046875 -180 -81.85611724853516 0 -1
351.1767272949219 -180 67.57565307617188 0 -1
365.54864501953125 -180 54.081844329833984 0 -1
393.17608642578125 -180 34.185447692871094 0 -1
399.6243591308594 -180 3.9720046520233154 0 -1
403.8341064453125 -180 126.20773315429688 0 -1
384.0433349609375 -200 16.709856033325195 0 -1
364.13690185546875 -200 -15.728524208068848 0 -1
378.2729797363281 -200 -17.587543487548828 0 -1
371.2936706542969 -200 107.66218566894531 0 -1
336.70306396484375 -200 93.47473907470703 0 -1
380.00384521484375 -200 69.91094970703125 0 -1
347.3546142578125 -200 20.347200393676758 0 -1
332.21148681640625 -200 -61.829811096191406 0 -1
343.0439758300781 -200 76.71882629394531 0 -1
394.8160705566406 -200 136.56161499023438 0 -1
412.5865478515625 -200 60.9788818359375 0 -1
358.2872314453125 -200 3.851746082305908 0 -1
344.60101318359375 -200 61.20046615600586 0 -1
377.51690673828125 -200 90.25851440429688 0 -1
388.36212158203125 -200 120.30330657958984 0 -1
404.3172912597656 -200 106.88661193847656 0 -1
358.8909606933594 -200 133.05776977539062 0 -1
369.0920715332031 -200 189.5717315673828 0 -1
397.14306640625 -200 63.33990478515625 0 -1
353.6541748046875 -200 158.29689025878906 0 -1
390.13836669921875 -200 1.2205250263214111 0 -1
394.24371337890625 -200 94.6283950805664 0 -1
322.7057189941406 -200 -21.91927719116211 0 -1
400.0064697265625 -200 17.715356826782227 0 -1
374.0194396972656 -200 -0.2803471088409424 0 -1
367.3523254394531 -200 147.03982543945312 0 -1
391.36181640625 -200 45.153079986572266 0 -1
411.0566101074219 -200 91.40743255615234 0 -1
362.6694641113281 -200 56.729801177978516 0 -1
356.9410095214844 -200 -29.140905380249023 0 -1
333.3371887207031 -200 3.433295249938965 0 -1
348.96173095703125 -200 -59.912540435791016 0 -1
362.6935729980469 -200 81.21261596679688 0 -1
331.8969421386719 -200 -36.345035552978516 0 -1
324.55889892578125 -200 -95.35893249511719 0 -1
376.26483154296875 -200 31.95784568786621 0 -1
416.0035400390625 -200 44.032344818115234 0 -1
384.06005859375 -200 170.3865966796875 0 -1
407.77313232421875 -200 76.49658203125 0 -1
375.72357177734375 -200 49.20561599731445 0 -1
358.1229553222656 -200 30.716928482055664 0 -1
328.58807373046875 -200 -76.14348602294922 0 -1
379.44537353515625 -200 156.22340393066406 0 -1
341.8776550292969 -200 37.90926742553711 0 -1
330.9255065917969 -200 19.81636619567871 0 -1
337.6666564941406 -200 135.97842407226562 0 -1
319.0832214355469 -200 -50.50059509277344 0 -1
327.9986877441406 -200 48.06789779663086 0 -1
330.300048828125 -180 25.47344970703125 0 -1
322.86151123046875 -180 -142.4521026611328 0 -1
329.1260070800781 -180 -71.32435607910156 0 -1
331.4900207519531 -180 -1.8926689624786377 0 -1
331.9858703613281 -180 -25.881046295166016 0 -1
339.6666564941406 -180 145.88104248046875 0 -1
321.1027526855469 -180 -117.93880462646484 0 -1
331.8109130859375 -180 92.8429946899414 0 -1
344.8192443847656 -186.72776794433594 250.44882202148438 0 -1
327.9726867675781 -200 67.62901306152344 0 -1
341.8722839355469 -180 225.84283447265625 0 -1
333.0819396972656 -180 127.24132537841797 0 -1
334.28021240234375 -200 149.9552764892578 0 -1
327.8839416503906 -180 76.87592315673828 0 -1
333.677978515625 -180 165.0192108154297 0 -1
334.8793640136719 -200 188.8752899169922 0 -1
333.7620849609375 -200 170.91879272460938 0 -1
318.9180908203125 -180 -18.51406478881836 0 -1
316.75469970703125 -180 -36.5330924987793 0 -1
330.027587890625 -180 206.789794921875 0 -1
324.6038818359375 -180 109.87686157226562 0 -1
329.35736083984375 -200 221.00619506835938 0 -1
322.7384948730469 -200 87.97742462158203 0 -1
323.67926025390625 -200 119.88871765136719 0 -1
329.9598388671875 -180 236.24122619628906 0 -1
328.2601013183594 -200 237.48814392089844 0 -1
316.84478759765625 -200 6.670822620391846 0 -1
325.514404296875 -180 180.4820556640625 0 -1
313.8468322753906 -180 -55.069061279296875 0 -1
324.52783203125 -180 223.58544921875 0 -1
325.3511962890625 -196.28756713867188 270.3100891113281 0 -1
313.82183837890625 -200 159.52508544921875 0 -1
323.071533203125 -200 252.9013671875 0 -1
316.1915588378906 -200 196.17393493652344 0 -1
314.2235412597656 -200 100.13084411621094 0 -1
316.4326171875 -200 35.59446716308594 0 -1
312.93780517578125 -200 297.8345947265625 0 -1
321.75335693359375 -180 260.0874328613281 0 -1
318.99090576171875 -180 296.673583984375 0 -1
312.71478271484375 -180 192.78236389160156 0 -1
311.5114440917969 -180 -82.50656127929688 0 -1
311.0539245605469 -180 210.83285522460938 0 -1
311.064453125 -180 34.96984100341797 0 -1
310.0121765136719 -180 239.2661895751953 0 -1
314.16204833984375 -180 -5.138671398162842 0 -1
310.82928466796875 -180 -101.22293853759766 0 -1
315.51885986328125 -180 148.37750244140625 0 -1
311.9220275878906 -180 166.60986328125 0 -1
322.6616516113281 -180 323.5703430175781 0 -1
317.3296203613281 -200 341.90997314453125 0 -1
326.9974670410156 -200 325.9007873535156 0 -1
332.0181884765625 -180 310.34942626953125 0 -1
336.1981201171875 -188.2858428955078 295.95355224609375 0 -1
336.7247619628906 -200 310.6385498046875 0 -1
347.89752197265625 -197.84286499023438 300.00189208984375 0 -1
348.1893615722656 -180 305.89434814453125 0 -1
342.3445129394531 -180 334.4123229980469 0 -1
370.4829406738281 -180 347.6013488769531 0 -1
353.0921630859375 -180 322.3107604980469 0 -1
373.831787109375 -196.60586547851562 349.75 0 -1
336.68927001953125 -185.79232788085938 349.75 0 -1
340.37725830078125 -200 340.2953186035156 0 -1
346.5841369628906 -200 325.24737548828125 0 -1
362.7461242675781 -200 337.83984375 0 -1
368.5975036621094 -200 322.7408142089844 0 -1
363.074951171875 -200 300.7052917480469 0 -1
367.1811218261719 -180 312.4286193847656 0 -1
372.56170654296875 -195.32957458496094 285.9923095703125 0 -1
378.27362060546875 -180 296.5723571777344 0 -1
435.9097595214844 -180.78897094726562 116.06938171386719 0 -1
412.3468933105469 -184.27496337890625 236.00428771972656 0 -1
423.9556579589844 -180.4211883544922 176.9156951904297 0 -1
432.9832458496094 -192.95321655273438 130.9654541015625 0 -1
440.0313720703125 -180 100.13847351074219 0 -1
441.8015441894531 -199.3514404296875 83.4837417602539 0 -1
448.837646484375 -180 87.01005554199219 0 -1
459.0673522949219 -200 93.6016845703125 0 -1
479.56982421875 -199.8928985595703 95.25 0 -1
490.9252014160156 -180 94.320068359375 0 -1
467.12347412109375 -180.8397216796875 95.25 0 -1
467.41961669921875 -197.12078857421875 75.0651626586914 0 -1
478.1426086425781 -180 79.19419860839844 0 -1
469.21063232421875 -192.6445770263672 59.7219123840332 0 -1
488.247314453125 -200 19.51742935180664 0 -1
479.985107421875 -200 65.31416320800781 0 -1
493.0785217285156 -200 85.10948944091797 0 -1
482.536376953125 -200 -35.0034294128418 0 -1
486.0355224609375 -200 47.94313049316406 0 -1
484.7906188964844 -200 -16.393966674804688 0 -1
487.02685546875 -200 -54.582603454589844 0 -1
500 -198.64984130859375 28.870338439941406 0 -1
500 -198.40704345703125 10.844856262207031 0 -1
500 -195.0745086669922 69.18730163574219 0 -1
500 -183.9490203857422 55.14244842529297 0 -1
475.3662109375 -200 8.569683074951172 0 -1
481.1216125488281 -180 -4.560801029205322 0 -1
491.8834228515625 -180 68.38187408447266 0 -1
489.4337158203125 -180 11.751489639282227 0 -1
481.1986083984375 -180 54.59294509887695 0 -1
500 -180.1807403564453 -138.99705505371094 0 -1
500 -183.13804626464844 -44.12577438354492 0 -1
500 -195.9670867919922 -106.35668182373047 0 -1
481.46307373046875 -180 -30.170063018798828 0 -1
471.18017578125 -180 30.32368278503418 0 -1
468.2850341796875 -200 43.91447067260742 0 -1
492.6226806640625 -180 -108.31549835205078 0 -1
465.05621337890625 -180 46.11960220336914 0 -1
466.76629638671875 -180 2.870837926864624 0 -1
460.97760009765625 -180 19.206714630126953 0 -1
453.7493896484375 -192.862548828125 45.604705810546875 0 -1
465.3287658691406 -200 -4.586166858673096 0 -1
362.2037658691406 -200 -108.69915771484375 0 -1
408.31121826171875 -200 -59.354225158691406 0 -1
443.2613220214844 -200 -21.45026397705078 0 -1
435.650634765625 -200 -142.03602600097656 0 -1
433.24200439453125 -200 -70.26354217529297 0 -1
468.76275634765625 -200 -104.33928680419922 0 -1
386.2391052246094 -200 -60.56372833251953 0 -1
400.87164306640625 -200 -88.49164581298828 0 -1
427.48504638671875 -200 -9.989731788635254 0 -1
448.9068298339844 -200 -62.66994857788086 0 -1
440.50701904296875 -200 -41.6473274230957 0 -1
489.35089111328125 -200 -140.53628540039062 0 -1
458.910888671875 -200 9.518717765808105 0 -1
460.9834289550781 -200 -51.16870880126953 0 -1
453.6414489746094 -200 29.124364852905273 0 -1
387.4210205078125 -200 -92.71270751953125 0 -1
366.73040771484375 -200 -140.53512573242188 0 -1
441.9192810058594 -200 -2.349524974822998 0 -1
414.0634765625 -200 -115.2408447265625 0 -1
376.5470275878906 -200 -120.10195922851562 0 -1
453.89520263671875 -200 -141.97860717773438 0 -1
393.748779296875 -200 -121.46945190429688 0 -1
337.4846496582031 -200 -138.5053253173828 0 -1
483.6226501464844 -200 -95.1839828491211 0 -1
452.0462341308594 -200 -80.95285034179688 0 -1
483.2220764160156 -200 -120.61858367919922 0 -1
410.00103759765625 -200 -39.026039123535156 0 -1
350.4251708984375 -200 -125.17060852050781 0 -1
477.3613586425781 -200 -75.80274200439453 0 -1
440.51275634765625 -200 -154.5520782470703 0 -1
405.5456848144531 -200 -102.684814453125 0 -1
425.1379089355469 -200 -46.594947814941406 0 -1
370.9231262207031 -200 -95.06853485107422 0 -1
462.1517639160156 -200 -27.829174041748047 0 -1
410.9311828613281 -200 -134.63851928710938 0 -1
457.6765441894531 -200 -120.20662689208984 0 -1
443.03106689453125 -200 -94.80240631103516 0 -1
414.7508850097656 -200 -71.67134094238281 0 -1
471.140869140625 -200 -133.89382934570312 0 -1
434.0221862792969 -200 -109.53571319580078 0 -1
438.6947937011719 -200 16.437084197998047 0 -1
380.99005126953125 -200 -77.28059387207031 0 -1
418.5118103027344 -200 -150.57508850097656 0 -1
473.2066345214844 -191.299560546875 -154.75 0 -1
342.30645751953125 -199.90444946289062 -154.75 0 -1
493.25555419921875 -198.18460083007812 -154.75 0 -1
380.3379211425781 -197.0827178955078 -154.75 0 -1
347.9075012207031 -200 -107.02802276611328 0 -1
356.6188049316406 -200 -90.29723358154297 0 -1
387.24664306640625 -200 -44.3336181640625 0 -1
362.7146911621094 -200 -70.19305419921875 0 -1
394.6130065917969 -200 -30.866493225097656 0 -1
322.92462158203125 -200 -135.07835388183594 0 -1
409.84405517578125 -200 -18.734813690185547 0 -1
475.3658447265625 -180 -59.810951232910156 0 -1
328.103759765625 -200 -115.2804183959961 0 -1
478.515380859375 -180 -75.305908203125 0 -1
445.11505126953125 -180 41.972721099853516 0 -1
462.67529296875 -180 -22.045360565185547 0 -1
370.5542907714844 -200 -54.644134521484375 0 -1
432.71026611328125 -200 34.687870025634766 0 -1
404.5950622558594 -200 -2.4617769718170166 0 -1
446.3147888183594 -180 25.092884063720703 0 -1
481.818603515625 -180 -94.17705535888672 0 -1
427.9572448730469 -180 32.715572357177734 0 -1
441.52423095703125 -180 -67.79593658447266 0 -1
427.70758056640625 -180 -9.86245346069336 0 -1
384.94952392578125 -180 -94.36341857910156 0 -1
389.9168395996094 -180 -131.397705078125 0 -1
430.837646484375 -180 -95.50141143798828 0 -1
450.27862548828125 -180 0.7624852061271667 0 -1
391.94134521484375 -180 -114.08134460449219 0 -1
368.4506530761719 -180 -123.63475036621094 0 -1
395.9613952636719 -180 -60.78413009643555 0 -1
439.3467102050781 -180 -117.53508758544922 0 -1
421.41192626953125 -180 -109.20418548583984 0 -1
468.5167541503906 -180 -127.76568603515625 0 -1
454.0267028808594 -180 -135.45016479492188 0 -1
421.96636962890625 -180 -141.8248291015625 0 -1
407.56866455078125 -180 -130.94027709960938 0 -1
434.1619873046875 -180 4.001561164855957 0 -1
489.2149963378906 -180 -153.32310485839844 0 -1
457.2411193847656 -180 -40.525474548339844 0 -1
442.8966064453125 -180 -53.12709426879883 0 -1
374.2234191894531 -180 -152.33604431152344 0 -1
400.4928283691406 -180 -89.74913024902344 0 -1
394.8113708496094 -180 -40.31267166137695 0 -1
414.508544921875 -180 -20.613391876220703 0 -1
436.0101623535156 -180 -139.16586303710938 0 -1
411.9980163574219 -180 -37.72822570800781 0 -1
453.882080078125 -180 -108.81829833984375 0 -1
376.7900390625 -180 -108.9773941040039 0 -1
378.2715759277344 -180 -70.24195861816406 0 -1
368.78173828125 -180 -92.65626525878906 0 -1
464.5156555175781 -180 -89.6274185180664 0 -1
364.1567077636719 -180 -141.00192260742188 0 -1
413.1210021972656 -180 -60.426109313964844 0 -1
402.2920837402344 -180 -73.45708465576172 0 -1
474.6592712402344 -180 -111.87623596191406 0 -1
439.9183654785156 -180 -32.70759963989258 0 -1
486.0619812011719 -180 -133.89810180664062 0 -1
445.21820068359375 -180 -151.06520080566406 0 -1
416.5975341796875 -180 -84.58478546142578 0 -1
415.2498474121094 -180 2.65002179145813 0 -1
449.9588317871094 -180 -92.02538299560547 0 -1
406.7162170410156 -180 -111.69474792480469 0 -1
390.3543701171875 -183.0092010498047 -154.75 0 -1
362.0988464355469 -189.45196533203125 -154.75 0 -1
405.06146240234375 -190.41555786132812 -154.75 0 -1
347.3807678222656 -182.45474243164062 -154.75 0 -1
431.9964904785156 -182.88719177246094 -154.75 0 -1
323.18585205078125 -198.1146697998047 -154.63177490234375 0 -1
310.3436279296875 -194.10446166992188 -142.9416961669922 0 -1
310 -188.61720275878906 314.54754638671875 0 -1
310 -180.1331329345703 86.8996810913086 0 -1
310 -181.8330535888672 15.359929084777832 0 -1
310 -185.36001586914062 106.19129180908203 0 -1
310 -195.92662048339844 246.7189178466797 0 -1
310 -189.58157348632812 225.9264373779297 0 -1
310 -182.67723083496094 64.04449462890625 0 -1
310 -180.54994201660156 277.7757873535156 0 -1
310 -198.24655151367188 74.43833923339844 0 -1
310 -197.4625701904297 268.6599426269531 0 -1
310 -196.63687133789062 -127.30951690673828 0 -1
310 -199.17835998535156 136.64730834960938 0 -1
310 -193.92971801757812 181.0895538330078 0 -1
310 -199.90530395507812 283.5976257324219 0 -1
310 -195.6453399658203 -78.28340911865234 0 -1
310 -198.66590881347656 -64.20471954345703 0 -1
310 -197.36277770996094 -38.302127838134766 0 -1
310 -197.9815216064453 52.921817779541016 0 -1
310 -199.44235229492188 -104.39717102050781 0 -1
416.5517883300781 -200 26.009899139404297 0 -1
341.06353759765625 -200 -89.93171691894531 0 -1
375.139892578125 -200 -32.786136627197266 0 -1
415.05560302734375 -180 21.909019470214844 0 -1
353.9197082519531 -180 -100.1328125 0 -1
397.7573547363281 -180 -19.977956771850586 0 -1
430.0279541015625 -196.45372009277344 66.13933563232422 0 -1
310.48486328125 -185.83468627929688 338.4951171875 0 -1
325.1412658691406 -152.12669372558594 277.6097106933594 0 -1
325.15069580078125 312.7254638671875 277.7173767089844 0 -1
325.1014709472656 250.8455810546875 277.1373596191406 0 -1
325.0822448730469 -132.86204528808594 276.91131591796875 0 -1
325.02789306640625 135.2593231201172 275.9919738769531 0 -1
325.0271301269531 230.21875 275.96343994140625 0 -1
325.0113220214844 -347.7582702636719 275.4040832519531 1 -1
325.0039367675781 42.272117614746094 275.1405944824219 0 -1
325.3432312011719 270.55023193359375 279.11358642578125 0 -1
325.55859375 -278.0491027832031 280.2205505371094 0 -1
325.5101318359375 -86.97532653808594 279.97784423828125 0 -1
325.2559814453125 89.7591552734375 271.5006408691406 0 -1
325.1502990722656 66.09185028076172 272.2854309082031 0 -1
325.1314392089844 -22.07342529296875 272.5071105957031 0 -1
325.0728759765625 -58.84371566772461 273.1992492675781 0 -1
325.0428771972656 -234.5308074951172 273.5553283691406 0 -1
325.00140380859375 -168.44224548339844 274.9501037597656 0 -1
325.0082092285156 16.585155487060547 274.7076110839844 0 -1
338.9432678222656 -375 274.8125915527344 0 -1
335.6794128417969 255.1288604736328 254.51246643066406 0 -1
335.05010986328125 8.591996192932129 254.97412109375 0 -1
335.3746337890625 -321.3025207519531 254.73025512695312 0 -1
334.4804382324219 -351.8013610839844 255.4032745361328 1 -1
334.37158203125 -249.8822784423828 255.48910522460938 0 -1
336.78564453125 217.3210906982422 253.78021240234375 0 -1
337.3763732910156 -271.6415100097656 253.43231201171875 0 -1
338.6512756347656 115.36666870117188 252.7347869873047 0 -1
338.8075256347656 -59.696651458740234 252.6540985107422 0 -1
338.2464294433594 39.690067291259766 252.9436492919922 0 -1
338.53363037109375 -305.3451232910156 252.79563903808594 0 -1
360.2707214355469 331.92327880859375 252.2177276611328 0 -1
359.8466796875 -173.24234008789062 252.02798461914062 0 -1
358.9060974121094 -7.3837666511535645 251.65040588378906 0 -1
359.072265625 65.49495697021484 251.7137908935547 0 -1
358.4667053222656 -144.60623168945312 251.48294067382812 0 -1
357.1478576660156 -325.6945495605469 251.0493927001953 1 -1
357.7858581542969 215.56515502929688 251.25250244140625 0 -1
356.83526611328125 -343.3079833984375 250.95498657226562 1 -1
356.731201171875 347.55804443359375 250.9278106689453 0 -1
355.0889587402344 258.6757507324219 250.5323028564453 0 -1
352.8414306640625 11.619810104370117 250.1632537841797 0 -1
348.3096923828125 363.71343994140625 250.063720703125 1 -1
348.12481689453125 -358.9640197753906 250.07923889160156 0 -1
349.0957946777344 197.29031372070312 250.02532958984375 0 -1
351.4860534667969 -251.61859130859375 250.04641723632812 0 -1
352.6600036621094 50.06649398803711 250.1453857421875 0 -1
363.41534423828125 -375 268.6586608886719 0 -1
373.85870361328125 -238.8628692626953 267.56329345703125 0 -1
373.90301513671875 -160.72727966308594 267.701904296875 0 -1
374.1198425292969 -68.58271026611328 268.45458984375 0 -1
374.1099548339844 36.62874221801758 268.4169921875 0 -1
374.1583251953125 -128.57150268554688 268.6029968261719 0 -1
374.3202209472656 -107.3204574584961 269.2303771972656 0 -1
374.23822021484375 -286.998291015625 268.9133605957031 0 -1
374.49749755859375 292.70513916015625 270.0624084472656 0 -1
374.4483947753906 -349.74224853515625 269.8149108886719 1 -1
374.6200256347656 -365.8918151855469 270.6777648925781 0 -1
374.0188903808594 154.874755859375 281.9335632324219 0 -1
373.7398681640625 -147.5980224609375 282.8100891113281 0 -1
373.9031677246094 0.15409351885318756 282.2984313964844 0 -1
374.52508544921875 53.0761604309082 279.8009033203125 0 -1
374.3254699707031 69.2353286743164 280.7500915527344 0 -1
373.55474853515625 -335.10662841796875 283.3681335449219 1 -1
373.3112487792969 -229.85794067382812 284.0064697265625 0 -1
356.47918701171875 -346.8106689453125 277.62738037109375 1 -1
374.8717346191406 171.93714904785156 272.5462646484375 0 -1
374.95538330078125 -207.8835906982422 273.5346374511719 0 -1
374.9778747558594 219.4595489501953 274.2142028808594 0 -1
374.9751281738281 202.09695434570312 274.1168212890625 0 -1
374.67279052734375 -32.38484573364258 270.9975891113281 0 -1
374.8448181152344 127.8166732788086 277.7713928222656 0 -1
374.7431640625 233.59515380859375 278.5044860839844 0 -1
374.7291259765625 18.898332595825195 278.60479736328125 0 -1
374.6587219238281 -53.10514450073242 279.1016540527344 0 -1
374.9833679199219 275.651123046875 275.5904541015625 0 -1
374.9936828613281 87.69451904296875 275.2255554199219 0 -1
374.9921875 109.74765014648438 275.279052734375 0 -1
374.54290771484375 -177.89785766601562 279.7107238769531 0 -1
374.5122985839844 -252.33831787109375 279.8642578125 0 -1
343.9576110839844 -332.4267272949219 275.0672912597656 1 -1
325.92376708984375 -1.8314683437347412 281.7132568359375 0 -1
325.83056640625 298.5234069824219 281.352294921875 0 -1
326.4652099609375 -187.84170532226562 283.42108154296875 0 -1
325.7646179199219 -251.1763458251953 268.9022521972656 0 -1
325.7662048339844 -267.3380126953125 268.8961181640625 0 -1
326.3726501464844 216.49911499023438 266.8404846191406 0 -1
326.1324768066406 -363.91619873046875 267.5915222167969 0 -1
326.85845947265625 26.421157836914062 284.44891357421875 0 -1
326.5870666503906 156.63357543945312 283.7411193847656 0 -1
326.6416320800781 181.934326171875 283.8831787109375 0 -1
326.6449279785156 260.9219055175781 266.108642578125 0 -1
325.4169616699219 -102.32136535644531 270.4906005859375 0 -1
327.2076416015625 -333.1979675292969 264.751953125 1 -1
327.0317687988281 -3.6613476276397705 265.1434326171875 0 -1
327.56610107421875 -217.96095275878906 263.9773254394531 0 -1
327.6918029785156 52.057640075683594 263.73272705078125 0 -1
327.2241516113281 111.50160217285156 264.7146911621094 0 -1
328.3834533691406 -43.13087844848633 262.45819091796875 0 -1
327.9162292480469 -125.32854461669922 263.29925537109375 0 -1
328.5651550292969 31.09298324584961 262.1507263183594 0 -1
328.8927917480469 -291.6858215332031 261.6077880859375 0 -1
329.5813293457031 322.5997009277344 260.5794982910156 0 -1
329.5634460449219 357.0527648925781 260.6062316894531 1 -1
330.4561767578125 295.6239013671875 259.411865234375 0 -1
330.31744384765625 177.59449768066406 259.59521484375 0 -1
329.7364196777344 161.28219604492188 260.364990234375 0 -1
330.2724914550781 -233.37147521972656 259.6538391113281 0 -1
331.1914367675781 89.94393920898438 258.5400390625 0 -1
330.83270263671875 132.42225646972656 258.9634704589844 0 -1
332.6087951660156 -142.6626434326172 257.0509948730469 0 -1
332.7401428222656 -79.94306182861328 256.9267272949219 0 -1
332.24383544921875 147.6715545654297 257.4061584472656 0 -1
331.8884582519531 234.64649963378906 257.781005859375 0 -1
333.2379150390625 -103.87337493896484 256.4568176269531 0 -1
335.16754150390625 374.6092834472656 259.58929443359375 1 -1
365.1107177734375 371.6727600097656 255.93658447265625 1 -1
365.92999267578125 -265.958984375 255.7434539794922 0 -1
366.33306884765625 22.74434471130371 256.0832824707031 0 -1
366.09661865234375 116.79667663574219 255.88388061523438 0 -1
368.4599914550781 301.2182312011719 258.1485290527344 0 -1
368.5162353515625 353.0390319824219 258.20794677734375 1 -1
367.5875549316406 98.83029174804688 257.2361755371094 0 -1
367.1141052246094 -79.30355072021484 256.7889099121094 0 -1
365.3374328613281 -245.10377502441406 255.26602172851562 0 -1
364.93121337890625 -131.42453002929688 254.9601287841797 0 -1
365.1534118652344 -37.972198486328125 255.12721252441406 0 -1
364.63177490234375 -283.8167724609375 254.73501586914062 0 -1
368.0669860839844 -354.9483947753906 257.7340393066406 0 -1
370.189697265625 264.9782409667969 260.26678466796875 0 -1
370.07421875 214.40338134765625 260.11376953125 0 -1
369.666015625 51.026588439941406 259.572998046875 0 -1
370.0848693847656 9.713269233703613 260.1279602050781 0 -1
370.57110595703125 -215.43971252441406 260.80523681640625 0 -1
370.9779357910156 -299.7201843261719 261.41436767578125 0 -1
370.4332275390625 239.46580505371094 260.6009521484375 0 -1
370.7138366699219 192.39126586914062 261.0190124511719 0 -1
371.7925109863281 314.4942321777344 262.7552185058594 0 -1
371.35186767578125 132.83595275878906 262.0111083984375 0 -1
371.82208251953125 -5.33115816116333 262.8064270019531 0 -1
371.420166015625 -180.55105590820312 262.1258239746094 0 -1
372.21685791015625 -143.94285583496094 263.556884765625 0 -1
372.1673889160156 -48.292747497558594 263.460693359375 0 -1
371.9399719238281 -198.68296813964844 263.0220642089844 0 -1
348.87725830078125 375 272.52325439453125 1 -1
327.5 341.7618713378906 272.59222412109375 0 -1
372.5 315.1065673828125 284.5279541015625 0 -1
372.5 331.2630920410156 268.63238525390625 0 -1
366.0376281738281 375 272.9364318847656 1 -1
372.575927734375 154.71885681152344 264.27069091796875 0 -1
373.23333740234375 -92.92784881591797 265.7896423339844 0 -1
373.3382568359375 -260.32659912109375 266.064453125 0 -1
373.3780822753906 251.82925415039062 283.8314514160156 0 -1
372.9859313964844 -24.561296463012695 284.8169250488281 0 -1
369.4640808105469 -374.1947326660156 284.81158447265625 0 -1
372.811767578125 32.69469451904297 285.2059020996094 0 -1
371.9837341308594 -305.5563049316406 286.8936767578125 0 -1
372.42498779296875 -277.34552001953125 286.0395812988281 0 -1
371.71588134765625 -358.1188659667969 287.3722839355469 0 -1
371.85443115234375 -111.6623764038086 287.1383361816406 0 -1
371.15472412109375 191.63287353515625 288.3213195800781 0 -1
371.032958984375 -87.87706756591797 288.50396728515625 0 -1
370.9651794433594 333.07958984375 288.60595703125 0 -1
369.6491394042969 364.2603759765625 290.44854736328125 1 -1
369.7386169433594 -42.617183685302734 290.33111572265625 0 -1
368.87261962890625 -216.24229431152344 291.3849182128906 0 -1
345.9255065917969 375 286.99713134765625 1 -1
369.01983642578125 216.39305114746094 291.2103271484375 0 -1
368.6605529785156 -264.2752380371094 291.6354675292969 0 -1
367.9183349609375 130.33419799804688 292.42291259765625 0 -1
368.1315612792969 84.10047912597656 292.19818115234375 0 -1
334.2945861816406 311.872314453125 294.4451599121094 0 -1
333.9620056152344 227.0111083984375 294.165283203125 0 -1
334.0494689941406 249.59725952148438 294.2388916015625 0 -1
333.7215881347656 -18.728626251220703 293.9627990722656 0 -1
333.7889709472656 1.0072375535964966 294.0197448730469 0 -1
333.28643798828125 291.0307312011719 293.5881652832031 0 -1
335.46337890625 -93.45743560791016 295.3362121582031 0 -1
334.6352844238281 -145.6341094970703 294.7135925292969 0 -1
336.212646484375 272.0723876953125 295.843017578125 0 -1
335.9098815917969 170.45455932617188 295.641357421875 0 -1
335.8777770996094 -275.7676086425781 295.619384765625 0 -1
335.67694091796875 19.899194717407227 295.4855651855469 0 -1
337.19635009765625 40.11774826049805 296.46185302734375 0 -1
337.2026672363281 -364.6865234375 296.4651184082031 0 -1
341.1000061035156 -348.07293701171875 298.3516845703125 1 -1
339.7478942871094 142.41445922851562 297.7907409667969 0 -1
342.5148010253906 -296.2421569824219 298.8431091308594 0 -1
342.29473876953125 -126.4428482055664 298.7730712890625 0 -1
341.2867126464844 359.209716796875 298.42279052734375 1 -1
358.001953125 373.4580383300781 296.0652770996094 1 -1
361.1629943847656 251.5701141357422 297.36083984375 0 -1
359.8013916015625 -251.7561492919922 297.99224853515625 0 -1
357.61358642578125 -55.412635803222656 298.8023376464844 0 -1
354.4213562011719 -356.4833679199219 299.6003112792969 0 -1
354.3558349609375 276.04071044921875 299.6131896972656 0 -1
354.9794006347656 143.05770874023438 299.4894714355469 0 -1
353.9154968261719 222.1179962158203 299.6853942871094 0 -1
354.07965087890625 97.33169555664062 299.6622009277344 0 -1
356.15924072265625 -277.7543029785156 299.2194519042969 0 -1
356.2226257324219 36.70462417602539 299.2032470703125 0 -1
352.9867858886719 317.9071960449219 299.81622314453125 0 -1
353.09033203125 121.30486297607422 299.8016662597656 0 -1
357.2785339355469 -103.99893951416016 298.90899658203125 0 -1
346.68389892578125 262.5440979003906 299.76983642578125 0 -1
346.45147705078125 -159.3900604248047 299.7370910644531 0 -1
345.26641845703125 84.25518798828125 299.5382995605469 0 -1
344.7664489746094 68.42012023925781 299.4389343261719 0 -1
345.01953125 -332.6715087890625 299.4891052246094 1 -1
344.63873291015625 -111.56900787353516 299.4134521484375 0 -1
344.41021728515625 201.7913818359375 299.3660888671875 0 -1
344.251953125 -237.85504150390625 299.32550048828125 0 -1
347.9264221191406 -259.536376953125 299.9040222167969 0 -1
351.4577331542969 -375 295.0892333984375 0 -1
351.06268310546875 161.0558624267578 299.97021484375 0 -1
349.24456787109375 54.6736946105957 299.97882080078125 0 -1
349.74041748046875 295.1361999511719 299.99273681640625 0 -1
348.81402587890625 11.219815254211426 299.9667663574219 0 -1
352.7322692871094 -82.69816589355469 299.8485107421875 0 -1
351.6866760253906 -142.54519653320312 299.9366760253906 0 -1
351.8861083984375 332.3763427734375 299.9197998046875 0 -1
348.1021423339844 -34.43159866333008 299.91888427734375 0 -1
348.42303466796875 -215.6487274169922 299.9459228515625 0 -1
366.26934814453125 105.29497528076172 293.9706726074219 0 -1
366.341064453125 162.72015380859375 293.91021728515625 0 -1
365.5092468261719 19.994321823120117 294.6050720214844 0 -1
367.5632629394531 -238.7349395751953 292.7861328125 0 -1
367.4245300292969 -71.16890716552734 292.9176025390625 0 -1
366.92657470703125 46.9552116394043 293.3878173828125 0 -1
367.1815490722656 234.70294189453125 293.1471252441406 0 -1
364.5295104980469 -160.00856018066406 295.3416442871094 0 -1
364.9981689453125 286.12127685546875 294.9892272949219 0 -1
364.0690002441406 -345.5324401855469 295.65484619140625 1 -1
364.0095520019531 -321.87957763671875 295.694580078125 0 -1
364.2984313964844 308.0770568847656 295.5023193359375 0 -1
363.76361083984375 64.99932861328125 295.8591003417969 0 -1
363.43426513671875 -127.6023178100586 296.0788269042969 0 -1
362.3846435546875 -178.7318115234375 296.7087707519531 0 -1
361.644775390625 -5.427670478820801 297.1125183105469 0 -1
361.4413757324219 -298.36370849609375 297.21728515625 0 -1
361.8565368652344 183.56402587890625 297.0032958984375 0 -1
338.9500732421875 185.24624633789062 297.4191589355469 0 -1
338.9851989746094 -65.2553482055664 297.4375 0 -1
338.5575256347656 101.697265625 297.2169189453125 0 -1
332.1522521972656 127.40874481201172 292.4973449707031 0 -1
332.0303649902344 -52.74894332885742 292.3692321777344 0 -1
331.6989440917969 -163.17210388183594 292.018798828125 0 -1
330.54327392578125 88.58822631835938 290.6939392089844 0 -1
329.673583984375 350.0856018066406 289.552001953125 1 -1
330.1343688964844 -338.17877197265625 290.16229248046875 1 -1
329.2908020019531 -205.44601440429688 288.9881591796875 0 -1
328.2992858886719 212.54351806640625 287.4000244140625 0 -1
328.68572998046875 -241.5989532470703 288.0534973144531 0 -1
328.5308837890625 -294.2186584472656 287.7908020019531 0 -1
327.8597412109375 57.388614654541016 286.5911865234375 0 -1
328.0636291503906 -262.00164794921875 286.98516845703125 0 -1
327.8705139160156 -67.60802459716797 286.61248779296875 0 -1
327.5 368.73638916015625 281.3825988769531 1 -1
327.5121765136719 -223.18902587890625 285.9182434082031 0 -1
327.38299560546875 -37.66615676879883 285.63909912109375 0 -1
326.9875183105469 109.87000274658203 284.7582092285156 0 -1
326.92315673828125 -359.2715759277344 284.6121520996094 0 -1
326.9573059082031 -111.89376831054688 284.68963623046875 0 -1
372.5 351.1792907714844 283.8797607421875 1 -1
363.983642578125 -110.41294860839844 254.2877960205078 0 -1
363.71533203125 278.9874572753906 254.1090087890625 0 -1
363.9415283203125 79.69549560546875 254.25950622558594 0 -1
362.3453369140625 -369.08477783203125 253.2682647705078 0 -1
361.2762756347656 149.7046661376953 252.6974639892578 0 -1
360.8602294921875 -202.00711059570312 252.4827117919922 0 -1
364.4924011230469 -227.7100067138672 254.63043212890625 0 -1
339.20208740234375 306.9066467285156 252.45314025878906 0 -1
339.4706726074219 -36.76335144042969 252.33328247070312 0 -1
341.1730041503906 -227.11700439453125 251.62037658691406 0 -1
340.31292724609375 346.245849609375 251.95716857910156 0 -1
341.7634582519531 179.15545654296875 251.39602661132812 0 -1
341.9753112792969 -334.9460144042969 251.32884216308594 1 -1
341.28271484375 62.07012176513672 251.57852172851562 0 -1
341.7423095703125 -155.1647491455078 251.4033203125 0 -1
342.7865295410156 -202.91009521484375 251.0702362060547 0 -1
343.20697021484375 -170.89854431152344 250.94398498535156 0 -1
344.3714904785156 159.56324768066406 250.64385986328125 0 -1
345.3611755371094 -126.65851593017578 250.4428253173828 0 -1
345.5990905761719 -284.9489440917969 250.39556884765625 0 -1
344.6338195800781 -375 255.48817443847656 0 -1
344.653564453125 324.9853515625 250.5834503173828 0 -1
345.66241455078125 81.0363540649414 250.3831024169922 0 -1
1821.737060546875 -291.9131164550781 215.5 0 -1
1295.097412109375 -287.8304138183594 215.5 0 -1
1762.3656005859375 -297.0073547363281 215.5 0 -1
960.8825073242188 -310.2471923828125 215.5 0 -1
2186.317138671875 -240.5366668701172 215.5 0 -1
2447.478759765625 -222.13040161132812 215.5 0 -1
2591.30810546875 -204.96176147460938 215.5 0 -1
2277.139892578125 -223.7338104248047 215.5 0 -1
2136.447021484375 -229.6404266357422 215.5 0 -1
2056.127197265625 -232.2793426513672 215.5 0 -1
1598.1629638671875 -288.301025390625 215.5 0 -1
2478.542236328125 -307.6311950683594 215.5 0 -1
2553.42333984375 -187.46104431152344 215.5 0 -1
812.240478515625 -323.0237121582031 215.5 0 -1
2348.346435546875 -207.90504455566406 215.5 0 -1
2416.9912109375 -238.7134552001953 215.5 0 -1
1055.231689453125 -296.93707275390625 215.5 0 -1
1418.818115234375 -269.45379638671875 215.5 0 -1
2219.657470703125 -295.09869384765625 215.5 0 -1
1935.058837890625 -296.6100158691406 215.5 0 -1
1860.6322021484375 -227.1587677001953 215.5 0 -1
1003.4381103515625 -293.28643798828125 215.5 0 -1
1352.1158447265625 -285.3056945800781 215.5 0 -1
2306.60400390625 -281.1242370605469 215.5 0 -1
1932.62841796875 -256.608642578125 215.5 0 -1
1631.6778564453125 -266.10858154296875 215.5 0 -1
1989.07470703125 -305.7896423339844 215.5 0 -1
1828.3021240234375 -271.8842468261719 215.5 0 -1
846.7711791992188 -321.1316833496094 215.5 0 -1
2394.992919921875 -205.91171264648438 215.5 0 -1
1418.1234130859375 -312.8774108886719 215.5 0 -1
1217.6890869140625 -314.2303161621094 215.5 0 -1
2307.24658203125 -219.65052795410156 215.5 0 -1
2350.453857421875 -309.56744384765625 215.5 0 -1
1864.1865234375 -243.1553192138672 215.5 0 -1
2056.7294921875 -213.56234741210938 215.5 0 -1
1959.491455078125 -270.6329650878906 215.5 0 -1
623.5889282226562 -318.3543395996094 215.5 1 -1
2061.09033203125 -272.057373046875 215.5 0 -1
1931.444580078125 -238.03598022460938 215.5 0 -1
2522.006103515625 -250.8653564453125 215.5 0 -1
1118.7525634765625 -284.6698303222656 215.5 0 -1
1326.37353515625 -281.85589599609375 215.5 0 -1
2590.7919921875 -235.3407745361328 215.5 0 -1
1376.9478759765625 -297.97552490234375 215.5 0 -1
2180.24072265625 -289.3475036621094 215.5 0 -1
1098.5601806640625 -289.43328857421875 215.5 0 -1
2067.522216796875 -311.9739685058594 215.5 0 -1
1915.2618408203125 -288.7879943847656 215.5 0 -1
1805.7269287109375 -240.8093719482422 215.5 0 -1
2105.718505859375 -211.34381103515625 215.5 0 -1
2439.396484375 -202.02723693847656 215.5 0 -1
1686.4449462890625 -283.333984375 215.5 0 -1
2422.894775390625 -277.659423828125 215.5 0 -1
1589.0736083984375 -323.56402587890625 215.5 0 -1
2569.49072265625 -233.2714385986328 215.5 0 -1
2399.473876953125 -250.08810424804688 215.5 0 -1
1796.3533935546875 -302.0570373535156 215.5 0 -1
2206.265380859375 -260.8972473144531 215.5 0 -1
2092.64453125 -296.3326721191406 215.5 0 -1
894.7161865234375 -318.7040100097656 215.5 0 -1
2229.2236328125 -281.1428527832031 215.5 0 -1
2565.831787109375 -177.86570739746094 215.5 0 -1
2370.729736328125 -215.9055633544922 215.5 0 -1
1481.2791748046875 -292.26715087890625 215.5 0 -1
2158.68994140625 -326.2165832519531 215.5 0 -1
2530.21142578125 -286.7207336425781 215.5 0 -1
1278.5596923828125 -310.1494140625 215.5 0 -1
2507.494140625 -209.44598388671875 215.5 0 -1
1309.3583984375 -278.37982177734375 215.5 0 -1
2261.136474609375 -311.7869567871094 215.5 0 -1
2347.316650390625 -252.72108459472656 215.5 0 -1
1499.247314453125 -308.76788330078125 215.5 0 -1
2199.240234375 -228.45220947265625 215.5 0 -1
752.9910278320312 -314.51397705078125 215.5 0 -1
2365.5966796875 -295.5223083496094 215.5 0 -1
1823.552001953125 -252.57997131347656 215.5 0 -1
2196.607177734375 -200.9270782470703 215.5 0 -1
2510.128662109375 -267.8789367675781 215.5 0 -1
2068.302490234375 -253.8573455810547 215.5 0 -1
2582.0341796875 -247.75514221191406 215.5 0 -1
1545.337646484375 -308.6847839355469 215.5 0 -1
2308.58056640625 -318.64215087890625 215.5 0 -1
1367.6719970703125 -272.37420654296875 215.5 0 -1
1472.3258056640625 -306.0902404785156 215.5 0 -1
2395.75244140625 -289.2876892089844 215.5 0 -1
882.7630615234375 -302.2524108886719 215.5 0 -1
2547.5 -250.73208618164062 215.5 0 -1
2394.41796875 -184.03665161132812 215.5 0 -1
2133.88720703125 -265.2876281738281 215.5 0 -1
2538.3330078125 -265.1770935058594 215.5 0 -1
2430.5830078125 -306.3005676269531 215.5 0 -1
1576.7347412109375 -285.242919921875 215.5 0 -1
1382.3717041015625 -276.8963317871094 215.5 0 -1
2309.691650390625 -242.72767639160156 215.5 0 -1
2008.465576171875 -262.5415954589844 215.5 0 -1
2188.5458984375 -263.444091796875 215.5 0 -1
2172.1650390625 -230.16824340820312 215.5 0 -1
1713.767578125 -303.7179870605469 215.5 0 -1
2466.76318359375 -291.921875 215.5 0 -1
1394.3450927734375 -261.06524658203125 215.5 0 -1
1579.808349609375 -303.89019775390625 215.5 0 -1
1250.675537109375 -274.81781005859375 215.5 0 -1
2002.9952392578125 -230.0738067626953 215.5 0 -1
1259.7449951171875 -318.8879699707031 215.5 0 -1
2455.318115234375 -187.0334930419922 215.5 0 -1
1732.4803466796875 -281.0494384765625 215.5 0 -1
2411.5966796875 -259.48077392578125 215.5 0 -1
2149.302734375 -269.6892395019531 215.5 0 -1
2552.470947265625 -234.13890075683594 215.5 0 -1
2562.5087890625 -213.49754333496094 215.5 0 -1
2521.680419921875 -301.1184997558594 215.5 0 -1
1841.7633056640625 -248.5076141357422 215.5 0 -1
2276.740234375 -295.3168029785156 215.5 0 -1
1234.954833984375 -320.59381103515625 215.5 0 -1
1927.9552001953125 -309.3479309082031 215.5 0 -1
2492.21142578125 -233.7996368408203 215.5 0 -1
1020.5518798828125 -292.1543273925781 215.5 0 -1
2058.738037109375 -298.9183349609375 215.5 0 -1
2248.560546875 -257.9797058105469 215.5 0 -1
1252.73046875 -297.22705078125 215.5 0 -1
2226.50634765625 -223.6930694580078 215.5 0 -1
2457.04541015625 -243.1283721923828 215.5 0 -1
796.8766479492188 -318.1101989746094 215.5 0 -1
2125.31689453125 -220.40533447265625 215.5 0 -1
999.8220825195312 -311.7409362792969 215.5 0 -1
1090.26708984375 -312.3494567871094 215.5 0 -1
714.830078125 -319.3633728027344 215.5 0 -1
2259.231201171875 -296.5274353027344 215.5 0 -1
1343.5782470703125 -270.68994140625 215.5 0 -1
1706.65380859375 -288.4195556640625 215.5 0 -1
2459.53515625 -211.0193328857422 215.5 0 -1
2500.021240234375 -277.1000671386719 215.5 0 -1
1313.881103515625 -318.2739562988281 215.5 0 -1
2134.55419921875 -318.58709716796875 215.5 0 -1
2597.40185546875 -270.1284484863281 215.5 0 -1
2496.891845703125 -298.1051940917969 215.5 0 -1
2436.63818359375 -182.79676818847656 215.5 0 -1
2153.282958984375 -309.1658935546875 215.5 0 -1
1945.386474609375 -262.5923156738281 215.5 0 -1
1456.6822509765625 -254.8305206298828 215.5 0 -1
1138.5302734375 -293.9620056152344 215.5 0 -1
1732.8944091796875 -236.46322631835938 215.5 0 -1
1517.521484375 -323.2451171875 215.5 0 -1
1557.6712646484375 -296.4718322753906 215.5 0 -1
1855.258544921875 -268.1436767578125 215.5 0 -1
1198.7928466796875 -310.0429992675781 215.5 0 -1
2402.4677734375 -273.4018859863281 215.5 0 -1
2420.92919921875 -198.00221252441406 215.5 0 -1
2493.555908203125 -315.3271179199219 215.5 0 -1
1635.8270263671875 -244.66893005371094 215.5 0 -1
1757.643310546875 -272.4486999511719 215.5 0 -1
2467.843017578125 -274.0333557128906 215.5 0 -1
1393.0792236328125 -299.7173767089844 215.5 0 -1
1987.075439453125 -264.8093566894531 215.5 0 -1
767.9655151367188 -310.6050720214844 215.5 0 -1
2171.09326171875 -270.0418701171875 215.5 0 -1
2564.947265625 -321.20233154296875 215.5 0 -1
2139.697998046875 -210.3921356201172 215.5 0 -1
1570.7398681640625 -268.5686340332031 215.5 0 -1
2220.607666015625 -265.29827880859375 215.5 0 -1
2400.965087890625 -312.3150634765625 215.5 0 -1
2344.732666015625 -190.0386962890625 215.5 0 -1
2382.464599609375 -314.80487060546875 215.5 0 -1
2007.9918212890625 -284.112548828125 215.5 0 -1
2378.97509765625 -195.34805297851562 215.5 0 -1
2074.392333984375 -235.5139617919922 215.5 0 -1
2330.924072265625 -297.5863952636719 215.5 0 -1
2030.873779296875 -268.6512145996094 215.5 0 -1
2433.69189453125 -265.6676025390625 215.5 0 -1
2569.76318359375 -267.0167541503906 215.5 0 -1
1499.6138916015625 -264.3841552734375 215.5 0 -1
667.0029907226562 -315.9299621582031 215.5 0 -1
1880.953125 -284.294921875 215.5 0 -1
2266.636962890625 -257.4925842285156 215.5 0 -1
1749.03173828125 -234.08932495117188 215.5 0 -1
2042.4752197265625 -293.2046813964844 215.5 0 -1
1974.511474609375 -287.1145324707031 215.5 0 -1
1037.8541259765625 -299.70013427734375 215.5 0 -1
1688.9462890625 -255.3114471435547 215.5 0 -1
2464.767822265625 -225.83421325683594 215.5 0 -1
