VERSION .7
FIELDS x y z label object
SIZE 4 4 4 4 4
TYPE F F F I I
COUNT 1 1 1 1 1
WIDTH 720
HEIGHT 1
POINTS 720
VIEWPOINT 0 0 0 1 0 0 0
DATA ascii
0.029710587114095688 0.0767492726445198 0.009278861805796623 0 -1
0.006176098249852657 0.0765230730175972 0.009184612892568111 0 -1
0.005681218113750219 0.07513895630836487 0.008607897907495499 0 -1
0.0187178123742342 0.07653283327817917 0.009188679046928883 0 -1
0.007137076463550329 0.07612573355436325 0.009019056335091591 0 -1
0.02491994947195053 0.07671568542718887 0.009264868684113026 0 -1
0.04300409555435181 0.07784970104694366 0.009737374261021614 0 -1
0.020704427734017372 0.0768456757068634 0.009319031611084938 0 -1
0.018217716366052628 0.07767362147569656 0.009664008393883705 0 -1
0.03135134279727936 0.07717661559581757 0.00945692416280508 0 -1
0.029010478407144547 0.07713425159454346 0.009439271874725819 0 -1
0.009245424531400204 0.07792745530605316 0.009769772179424763 0 -1
0.015548039227724075 0.07536650449037552 0.008702711202204227 0 -1
0.012041199021041393 0.0776321217417717 0.00964671652764082 0 -1
0.02470892108976841 0.0774429589509964 0.009567898698151112 0 -1
0.020360305905342102 0.0777597576379776 0.009699899703264236 0 -1
0.025806954130530357 0.07679656893014908 0.009298568591475487 0 -1
0.0237063430249691 0.0778740718960762 0.009747528471052647 0 -1
0.009524316526949406 0.07678151875734329 0.0092922979965806 0 -1
0.02224869839847088 0.07652007043361664 0.009183362126350403 0 -1
0.008055975660681725 0.07617742568254471 0.009040595032274723 0 -1
0.016474755480885506 0.07631417363882065 0.009097572416067123 0 -1
0.014477517455816269 0.0765298455953598 0.009187434799969196 0 -1
0.006769292987883091 0.07792302966117859 0.009767929092049599 0 -1
0.008494243025779724 0.07491257786750793 0.008513575419783592 0 -1
0.03338638320565224 0.0775703713297844 0.009620987810194492 0 -1
0.00877936091274023 0.07571624964475632 0.008848438039422035 0 -1
0.011284426786005497 0.07577533274888992 0.008873054757714272 0 -1
0.03744072467088699 0.07745926082134247 0.009574689902365208 0 -1
0.006364881061017513 0.07569454610347748 0.00883939303457737 0 -1
0.007679379545152187 0.07699490338563919 0.009381209500133991 0 -1
0.03909287974238396 0.07794929295778275 0.009778871200978756 0 -1
0.01513462420552969 0.0779280886054039 0.009770036675035954 0 -1
0.02149895578622818 0.07698331028223038 0.00937637872993946 0 -1
0.0054787686094641685 0.07708223909139633 0.009417598135769367 0 -1
0.03580538555979729 0.0776137039065361 0.009639041498303413 0 -1
0.01385212130844593 0.07785042375326157 0.00973767414689064 0 -1
0.00970730185508728 0.07604320347309113 0.008984667249023914 0 -1
0.01164788007736206 0.07691100239753723 0.0093462523072958 0 -1
0.007119552697986364 0.07526110112667084 0.008658790960907936 0 -1
0.022697024047374725 0.07740029692649841 0.009550123475492 0 -1
0.03338158130645752 0.0758303552865982 0.008895980194211006 0 -1
0.04369015246629715 0.07452956587076187 0.008353983983397484 0 -1
0.02154114469885826 0.0744118019938469 0.008304917253553867 0 -1
0.03458244726061821 0.07702887803316116 0.009395365603268147 0 -1
0.041633591055870056 0.07522260397672653 0.008642751723527908 0 -1
0.035826798528432846 0.0746230036020279 0.00839291699230671 0 -1
0.042610686272382736 0.07598765939474106 0.008961524814367294 0 -1
0.014636280946433544 0.07477555423974991 0.008456479758024216 0 -1
0.04420933499932289 0.07531342655420303 0.008680593222379684 0 -1
0.0385960191488266 0.07722418010234833 0.009476741775870323 0 -1
0.016345161944627762 0.07457421720027924 0.008372589014470577 0 -1
0.03145916759967804 0.075173519551754 0.008622299879789352 0 -1
0.02739218808710575 0.07559654861688614 0.008798560127615929 0 -1
0.03602692857384682 0.0762961134314537 0.009090048260986805 0 -1
0.02066771686077118 0.07569526135921478 0.008839691057801247 0 -1
0.023752771317958832 0.07482072710990906 0.008475301787257195 0 -1
0.043153148144483566 0.07712890207767487 0.009437041357159615 0 -1
0.04499919340014458 0.07758557051420212 0.009627319872379303 0 -1
0.04043670743703842 0.07511180639266968 0.00859658420085907 0 -1
0.04076256975531578 0.07656837999820709 0.009203490801155567 0 -1
0.04283224418759346 0.07485662400722504 0.008490260690450668 0 -1
0.030537642538547516 0.07542166113853455 0.008725691586732864 0 -1
0.020649835467338562 0.07487397640943527 0.008497489616274834 0 -1
0.02310791425406933 0.07546310126781464 0.008742960169911385 0 -1
0.02445928379893303 0.07580438256263733 0.008885160088539124 0 -1
0.03873085975646973 0.07549359649419785 0.008755666203796864 0 -1
0.03367280215024948 0.07674148678779602 0.009275619871914387 0 -1
0.01810251735150814 0.07547394186258316 0.008747476153075695 0 -1
0.010954150930047035 0.0748520940542221 0.008488371968269348 0 -1
0.025238489732146263 0.07520837336778641 0.008636822924017906 0 -1
0.03447460010647774 0.07443176954984665 0.008313237689435482 0 -1
0.012842923402786255 0.0750914216041565 0.008588092401623726 0 -1
0.03649306669831276 0.07702365517616272 0.009393188171088696 0 -1
0.039494339376688004 0.07697799801826477 0.009374165907502174 0 -1
0.038482919335365295 0.07628364115953445 0.009084849618375301 0 -1
0.039414167404174805 0.0759996548295021 0.008966521359980106 0 -1
0.03214158117771149 0.07592874020338058 0.00893697515130043 0 -1
0.02835524082183838 0.07591668516397476 0.008931951597332954 0 -1
0.018409613519906998 0.07464663684368134 0.008402763865888119 0 -1
0.03556997328996658 0.07533033192157745 0.008687636815011501 0 -1
0.0416555255651474 0.07708337903022766 0.009418074041604996 0 -1
0.022182639688253403 0.07490453869104385 0.008510223589837551 0 -1
0.019107190892100334 0.07545521855354309 0.008739673532545567 0 -1
0.030912555754184723 0.07623741030693054 0.009065588004887104 0 -1
0.02946743182837963 0.074968121945858 0.008536716923117638 0 -1
0.0377374030649662 0.07502684742212296 0.00856118742376566 0 -1
0.03726274147629738 0.07655875384807587 0.009199480526149273 0 -1
0.03441089019179344 0.07551275938749313 0.008763650432229042 0 -1
0.02651389315724373 0.0761464461684227 0.009027685970067978 0 -1
0.033647261559963226 0.07480765879154205 0.008469858206808567 0 -1
0.027765881270170212 0.07490252703428268 0.008509385399520397 0 -1
0.026712195947766304 0.07484391331672668 0.008484963327646255 0 -1
0.04055026173591614 0.07750638574361801 0.0095943259075284 0 -1
0.03685500845313072 0.07480078190565109 0.008466990664601326 0 -1
0.03852704539895058 0.07453148812055588 0.008354786783456802 0 -1
0.02915550209581852 0.07611982524394989 0.009016592055559158 0 -1
0.017538657411932945 0.0745769664645195 0.008373734541237354 0 -1
0.021692365407943726 0.07589960843324661 0.008924836292862892 0 -1
0.04474329203367233 0.07606791704893112 0.008994964882731438 0 -1
0.04342447966337204 0.07619763165712357 0.009049013257026672 0 -1
0.04500000178813934 0.07159306108951569 0.008474036119878292 0 -1
0.04500000178813934 0.07193882018327713 0.011701121926307678 0 -1
0.04500000178813934 0.07385184615850449 0.008339363150298595 0 -1
0.04500000178813934 0.07223715633153915 0.00706812459975481 0 -1
0.04500000178813934 0.07097861170768738 0.0112986471503973 0 -1
0.04500000178813934 0.07204630225896835 0.005922788754105568 0 -1
0.04500000178813934 0.07155416905879974 0.00994075182825327 0 -1
0.04500000178813934 0.07352809607982635 0.009149327874183655 0 -1
0.04500000178813934 0.07322175800800323 0.0072498987428843975 0 -1
0.04500000178813934 0.07081989198923111 0.01209494099020958 0 -1
0.04500000178813934 0.07168414443731308 0.010770533233880997 0 -1
0.04500000178813934 0.07269459962844849 0.00867125391960144 0 -1
0.04500000178813934 0.07313117384910583 0.010126946493983269 0 -1
0.03550950065255165 0.07347913831472397 0.007345029152929783 0 -1
0.03260623663663864 0.07438602298498154 0.008285507559776306 0 -1
0.0374661386013031 0.07317701727151871 0.007031724788248539 0 -1
0.01050533726811409 0.07418040186166763 0.008072265423834324 0 -1
0.03133461996912956 0.07387267798185349 0.007753145415335894 0 -1
0.0328003354370594 0.07333424687385559 0.007194772828370333 0 -1
0.04052608832716942 0.07366905361413956 0.00754198431968689 0 -1
0.041025079786777496 0.07255666702985764 0.006388399749994278 0 -1
0.030132371932268143 0.07427346706390381 0.0081687793135643 0 -1
0.019880622625350952 0.07429508864879608 0.008191205561161041 0 -1
0.034641291946172714 0.07377170026302338 0.007648433092981577 0 -1
0.04130672663450241 0.07411371171474457 0.008003105409443378 0 -1
0.030900483950972557 0.0728415697813034 0.006683848798274994 0 -1
0.026843223720788956 0.07342734187841415 0.007291318383067846 0 -1
0.022517643868923187 0.07418583333492279 0.008077899925410748 0 -1
0.023721622303128242 0.07377515733242035 0.007652017753571272 0 -1
0.03354116156697273 0.0740944966673851 0.007983183488249779 0 -1
0.04283146932721138 0.07413343340158463 0.008023559115827084 0 -1
0.029255464673042297 0.07314843684434891 0.007002086378633976 0 -1
0.011826436966657639 0.07401946187019348 0.007905366830527782 0 -1
0.04185797646641731 0.07278387993574142 0.0066240220330655575 0 -1
0.04292377457022667 0.07347533106803894 0.007341083139181137 0 -1
0.03675650432705879 0.07275708764791489 0.006596237886697054 0 -1
0.04392267018556595 0.07206139713525772 0.005874780006706715 0 -1
0.03996746987104416 0.07315893471240997 0.007012972608208656 0 -1
0.0431939959526062 0.07249520719051361 0.006324658170342445 0 -1
0.03764274716377258 0.07238639146089554 0.0062118167988955975 0 -1
0.028252776712179184 0.07369162142276764 0.007565384265035391 0 -1
0.02456347830593586 0.07359720766544342 0.007467476185411215 0 -1
0.03770245239138603 0.07385793328285217 0.0077378577552735806 0 -1
0.03957277163863182 0.07434637099504471 0.008244384080171585 0 -1
0.030098063871264458 0.07276900112628937 0.006608590949326754 0 -1
0.013023646548390388 0.07429513335227966 0.008191251195967197 0 -1
0.027005406096577644 0.07411853224039078 0.008008104749023914 0 -1
0.033203911036252975 0.07282803952693939 0.0066698165610432625 0 -1
0.04165968671441078 0.07213225960731506 0.0059482683427631855 0 -1
0.04006806015968323 0.07257547974586487 0.006407903041690588 0 -1
0.02770625427365303 0.07297445833683014 0.006821661721915007 0 -1
0.04201382026076317 0.07381918281316757 0.007697668392211199 0 -1
0.02030438371002674 0.07347330451011658 0.007338983938097954 0 -1
0.02918536774814129 0.07389512658119202 0.007776426617056131 0 -1
0.01819705218076706 0.07393358647823334 0.00781631376594305 0 -1
0.031606171280145645 0.07322649657726288 0.007083029951900244 0 -1
0.030261529609560966 0.0734749436378479 0.007340678945183754 0 -1
0.03470800071954727 0.07309551537036896 0.006947202142328024 0 -1
0.007109766826033592 0.07436314225196838 0.008261773735284805 0 -1
0.026019182056188583 0.07356701046228409 0.007436156272888184 0 -1
0.041288599371910095 0.07334048300981522 0.007201239001005888 0 -1
0.0356936939060688 0.07255296409130096 0.006384552456438541 0 -1
0.02479955554008484 0.07434643805027008 0.008244452066719532 0 -1
0.03881080821156502 0.07338457554578781 0.007246966008096933 0 -1
0.039625030010938644 0.0736880749464035 0.007561711128801107 0 -1
0.03218192234635353 0.07275477796792984 0.00659384299069643 0 -1
0.014112706296145916 0.07421306520700455 0.008106145076453686 0 -1
0.03654202073812485 0.07366380095481873 0.007536534685641527 0 -1
0.044077318161726 0.07341321557760239 0.0072766682133078575 0 -1
0.039115943014621735 0.07280300557613373 0.0066438596695661545 0 -1
0.020717700943350792 0.07400152087211609 0.007886760868132114 0 -1
0.04436204582452774 0.07272961735725403 0.006567754317075014 0 -1
0.02444891817867756 0.06680277734994888 0.011074148118495941 0 -1
0.03597119450569153 0.06615141034126282 0.010436075739562511 0 -1
0.021616999059915543 0.06597144901752472 0.010259788483381271 0 -1
0.03889055922627449 0.0684344545006752 0.012672532349824905 0 -1
0.04381338134407997 0.06977766752243042 0.013988327234983444 0 -1
0.03543008491396904 0.06726092100143433 0.01152294222265482 0 -1
0.0330483540892601 0.06831232458353043 0.012552893720567226 0 -1
0.03165438026189804 0.06755907088518143 0.011815011501312256 0 -1
0.013149533420801163 0.06613651663064957 0.010421485640108585 0 -1
0.03686075657606125 0.06862745434045792 0.012861589901149273 0 -1
0.0323171503841877 0.06801337003707886 0.012260041199624538 0 -1
0.04312968626618385 0.0672806054353714 0.011542229913175106 0 -1
0.029984252527356148 0.0662146806716919 0.010498056188225746 0 -1
0.030564267188310623 0.06559833884239197 0.0098942955955863 0 -1
0.044277288019657135 0.06907504051923752 0.013300041668117046 0 -1
0.022871121764183044 0.06694686412811279 0.01121529657393694 0 -1
0.03444153815507889 0.0669068917632103 0.011176139116287231 0 -1
0.015084298327565193 0.06632202118635178 0.010603204369544983 0 -1
0.041555002331733704 0.0666278526186943 0.01090279407799244 0 -1
0.019224392250180244 0.06658396869897842 0.010859811678528786 0 -1
0.03082997538149357 0.06843075156211853 0.012668900191783905 0 -1
0.04073265194892883 0.06852909922599792 0.012765242718160152 0 -1
0.03209837153553963 0.06541357934474945 0.009713307023048401 0 -1
0.016601691022515297 0.06666559725999832 0.010939772240817547 0 -1
0.04084860533475876 0.06621947139501572 0.010502750054001808 0 -1
0.03785034641623497 0.06894876807928085 0.013176344335079193 0 -1
0.03678950294852257 0.06640087068080902 0.01068044826388359 0 -1
0.043204061686992645 0.06804448366165161 0.01229051873087883 0 -1
0.03916846215724945 0.06689614802598953 0.011165615171194077 0 -1
0.02807028219103813 0.06664479523897171 0.01091939490288496 0 -1
0.030670247972011566 0.0673208087682724 0.011581608094274998 0 -1
0.03685970976948738 0.06755470484495163 0.01181073673069477 0 -1
0.03757698833942413 0.06720495969057083 0.011468122713267803 0 -1
0.04003007709980011 0.0668911561369896 0.011160723865032196 0 -1
0.019752541556954384 0.06604205816984177 0.010328955948352814 0 -1
0.03408901020884514 0.06827890872955322 0.012520160526037216 0 -1
0.02507328800857067 0.06629727780818939 0.010578969493508339 0 -1
0.04294052720069885 0.0662483498454094 0.010531037114560604 0 -1
0.037614598870277405 0.06834201514720917 0.012581974267959595 0 -1
0.039272040128707886 0.0690407007932663 0.013266399502754211 0 -1
0.021648680791258812 0.06672637164592743 0.010999305173754692 0 -1
0.0348699688911438 0.06841638684272766 0.01265482697635889 0 -1
0.02750277891755104 0.0662294253706932 0.010512500070035458 0 -1
0.03987576812505722 0.06580463796854019 0.010096386075019836 0 -1
0.026329347863793373 0.06678631156682968 0.011058022268116474 0 -1
0.02420407347381115 0.06609494984149933 0.01038077287375927 0 -1
0.044504646211862564 0.0684346854686737 0.012672758661210537 0 -1
0.015753326937556267 0.06591059267520905 0.010200174525380135 0 -1
0.03824721649289131 0.06683271378278732 0.011103479191660881 0 -1
0.0359332300722599 0.06679665297269821 0.011068152263760567 0 -1
0.04477182775735855 0.06966908276081085 0.013881958089768887 0 -1
0.02093493938446045 0.06550697982311249 0.009804802015423775 0 -1
0.018210584297776222 0.06633655726909637 0.010617449879646301 0 -1
0.03571922704577446 0.06540919840335846 0.009709014557301998 0 -1
0.02739892154932022 0.06712628155946732 0.011391053907573223 0 -1
0.027054881677031517 0.06552262604236603 0.009820125065743923 0 -1
0.02612934820353985 0.06559731066226959 0.009893284179270267 0 -1
0.0439540296792984 0.06648920476436615 0.01076697837561369 0 -1
0.04345494136214256 0.06568903475999832 0.00998313631862402 0 -1
0.03800267353653908 0.06778155267238617 0.012032952159643173 0 -1
0.027842745184898376 0.06765660643577576 0.011910554021596909 0 -1
0.03591810539364815 0.06865649670362473 0.01289004273712635 0 -1
0.03255331143736839 0.06701420992612839 0.011281268671154976 0 -1
0.02011078968644142 0.06656515598297119 0.010841378942131996 0 -1
0.035166576504707336 0.06587591022253036 0.010166199877858162 0 -1
0.04491530358791351 0.06640323251485825 0.010682761669158936 0 -1
0.02700224705040455 0.06765224784612656 0.011906283907592297 0 -1
0.042288318276405334 0.06701025366783142 0.011277396231889725 0 -1
0.0405922494828701 0.06742110103368759 0.011679857969284058 0 -1
0.028497571125626564 0.06816882640123367 0.012412319891154766 0 -1
0.03976807743310928 0.06771998107433319 0.0119726387783885 0 -1
0.03253605589270592 0.06594502925872803 0.010233907029032707 0 -1
0.031611621379852295 0.06620423495769501 0.01048782654106617 0 -1
0.037939343601465225 0.06623799353837967 0.010520895011723042 0 -1
0.024287471547722816 0.06751258671283722 0.011769471690058708 0 -1
0.044433217495679855 0.06746010482311249 0.011718062683939934 0 -1
0.006197117269039154 0.06540896743535995 0.009708789177238941 1 -1
0.027930470183491707 0.0655975267291069 0.00989349652081728 0 -1
0.02231478877365589 0.06747468560934067 0.011732344515621662 0 -1
0.035681113600730896 0.06803487241268158 0.012281102128326893 0 -1
0.03195487707853317 0.0685959905385971 0.012830765917897224 0 -1
0.02995913475751877 0.06826939433813095 0.012510836124420166 0 -1
0.03451917693018913 0.06541891396045685 0.009718529880046844 0 -1
0.038252733647823334 0.0656653419137001 0.009959926828742027 0 -1
0.017560472711920738 0.06690189987421036 0.011171253398060799 0 -1
0.029111245647072792 0.06699807941913605 0.011265465058386326 0 -1
0.01847764104604721 0.06694909930229187 0.01121748611330986 0 -1
0.041612256318330765 0.06576056033372879 0.010053202509880066 0 -1
0.03318488225340843 0.06552606076002121 0.009823491796851158 0 -1
0.02938910387456417 0.06779176741838455 0.012042957358062267 0 -1
0.04027057811617851 0.06913280487060547 0.013356625102460384 0 -1
0.010318780317902565 0.06599585711956024 0.010283696465194225 0 -1
0.04071732982993126 0.06563486158847809 0.009930072352290154 0 -1
0.00846643652766943 0.06556491553783417 0.009861556813120842 0 -1
0.04368923604488373 0.06856625527143478 0.012801642529666424 0 -1
0.020688220858573914 0.06707566976547241 0.011341477744281292 0 -1
0.0332857184112072 0.06760556995868683 0.011860557831823826 0 -1
0.04297149181365967 0.06899155676364899 0.013218262232840061 0 -1
0.01107421237975359 0.06550441682338715 0.009802286513149738 0 -1
0.042680323123931885 0.06971282511949539 0.01392480917274952 0 -1
0.016666261479258537 0.06606034934520721 0.010346876457333565 0 -1
0.03370232507586479 0.06885325163602829 0.013082781806588173 0 -1
0.02563236467540264 0.06775403767824173 0.012006000615656376 0 -1
0.03421414643526077 0.06756745278835297 0.011823218315839767 0 -1
0.0420617014169693 0.06790471076965332 0.012153594754636288 0 -1
0.03325004130601883 0.06645391136407852 0.010732407681643963 0 -1
0.014287741854786873 0.06586368381977081 0.010154221206903458 0 -1
0.02359798178076744 0.06656015664339066 0.010836486704647541 0 -1
0.031637243926525116 0.06693511456251144 0.011203790083527565 0 -1
0.025259068235754967 0.06700320541858673 0.011270488612353802 0 -1
0.00945779774338007 0.06590081006288528 0.010190591216087341 0 -1
0.022803327068686485 0.06618110090494156 0.010465164668858051 0 -1
0.017937645316123962 0.06885120272636414 0.013080769218504429 0 -1
0.03644159436225891 0.06952093541622162 0.013736835680902004 0 -1
0.02109953947365284 0.06977006793022156 0.013980886898934841 0 -1
0.029235687106847763 0.0691334456205368 0.013357254676520824 0 -1
0.015005344524979591 0.06906497478485107 0.013290181756019592 0 -1
0.03723017871379852 0.06996287405490875 0.014169753529131413 0 -1
0.040051404386758804 0.0701330229640007 0.01433643326163292 0 -1
0.008757088333368301 0.06794888526201248 0.01219687145203352 0 -1
0.026611611247062683 0.0688803568482399 0.013109330087900162 0 -1
0.02710597589612007 0.06933573633432388 0.013555416837334633 0 -1
0.019444730132818222 0.06902623176574707 0.013252231292426586 0 -1
0.01584876887500286 0.06959249824285507 0.013806935399770737 0 -1
0.03315677493810654 0.07013380527496338 0.014337198808789253 0 -1
0.012873595580458641 0.068655826151371 0.012889381498098373 0 -1
0.005698012188076973 0.06757573038339615 0.011831328272819519 1 -1
0.009400204755365849 0.06660306453704834 0.010878515429794788 0 -1
0.041308894753456116 0.06986400485038757 0.01407290156930685 0 -1
0.012524326331913471 0.0696793720126152 0.013892039656639099 0 -1
0.009943227283656597 0.07003763318061829 0.014242991805076599 0 -1
0.015246777795255184 0.06717173755168915 0.01143558043986559 0 -1
0.02537805214524269 0.06955933570861816 0.013774455524981022 0 -1
0.03277551010251045 0.06898731738328934 0.013214111328125 0 -1
0.016191817820072174 0.06723940372467041 0.011501865461468697 0 -1
0.013735937885940075 0.06695019453763962 0.01121856365352869 0 -1
0.028262749314308167 0.06913567334413528 0.013359434902668 0 -1
0.006869312841445208 0.06759467720985413 0.011849894188344479 1 -1
0.018618633970618248 0.06842455267906189 0.012662828899919987 0 -1
0.03526264429092407 0.06987972557544708 0.014088303782045841 0 -1
0.022663449868559837 0.06814631074666977 0.012390263378620148 0 -1
0.007010483182966709 0.06929504871368408 0.013515559956431389 1 -1
0.024092942476272583 0.06829492747783661 0.012535848654806614 0 -1
0.011709918268024921 0.06901334971189499 0.013239606283605099 0 -1
0.036432426422834396 0.07027221471071243 0.01447278168052435 0 -1
0.006161774508655071 0.06700103729963303 0.011268366128206253 1 -1
0.01138276420533657 0.06964490562677383 0.013858277350664139 0 -1
0.013927426189184189 0.0675794929265976 0.011835018172860146 0 -1
0.00895985309034586 0.0691596269607544 0.01338290050625801 0 -1
0.03256778419017792 0.06971077620983124 0.013922802172601223 0 -1
0.021470019593834877 0.06811609864234924 0.01236067432910204 0 -1
0.02025478333234787 0.07009358704090118 0.01429780013859272 0 -1
0.008365485817193985 0.06962728500366211 0.013841012492775917 0 -1
0.024239400401711464 0.06978560239076614 0.013996104709804058 0 -1
0.005778168793767691 0.0692112147808075 0.013433435000479221 1 -1
0.020861344411969185 0.06857962161302567 0.012814732268452644 0 -1
0.034130197018384933 0.06937799602746964 0.013596814125776291 0 -1
0.03044772893190384 0.06990894675254822 0.014116929844021797 0 -1
0.022041080519557 0.06922633200883865 0.013448242098093033 0 -1
0.0277214664965868 0.07016808539628983 0.01437077671289444 0 -1
0.014035907573997974 0.06995072960853577 0.0141578558832407 0 -1
0.013885891065001488 0.06838199496269226 0.01262113731354475 0 -1
0.01657942123711109 0.06877230107784271 0.013003481552004814 0 -1
0.025966132059693336 0.06994418054819107 0.01415144745260477 0 -1
0.013891832903027534 0.06919442117214203 0.013416988775134087 0 -1
0.008631047792732716 0.06701396405696869 0.011281028389930725 0 -1
0.023025410249829292 0.06889837235212326 0.01312697771936655 0 -1
0.008581382222473621 0.06621728092432022 0.01050060149282217 0 -1
0.010467944666743279 0.06839966028928757 0.012638445012271404 0 -1
0.013171183876693249 0.0678875669836998 0.012136802077293396 0 -1
0.02942800149321556 0.0697764977812767 0.013987183570861816 0 -1
0.03064822591841221 0.06919687241315842 0.013419384136795998 0 -1
0.017378855496644974 0.06982732564210892 0.014036974869668484 0 -1
0.019599277526140213 0.0681876540184021 0.012430764734745026 0 -1
0.011688943020999432 0.06709709018468857 0.011362461373209953 0 -1
0.014809497632086277 0.07028765231370926 0.014487908221781254 0 -1
0.012433844618499279 0.067498117685318 0.011755300685763359 0 -1
0.024269727990031242 0.06895433366298676 0.013181799091398716 0 -1
0.022918960079550743 0.06965675950050354 0.01386988628655672 0 -1
0.014775792136788368 0.06781016290187836 0.012060976587235928 0 -1
0.031438980251550674 0.06942791491746902 0.01364571787416935 0 -1
0.01085338182747364 0.06687554717063904 0.011145437136292458 0 -1
0.0389876626431942 0.0701817199587822 0.014384136535227299 0 -1
0.02536361664533615 0.06851367652416229 0.012750132940709591 0 -1
0.011854412965476513 0.06643747538328171 0.010716304183006287 0 -1
0.019745225086808205 0.0672633945941925 0.011525372043251991 0 -1
0.026211459189653397 0.06822934746742249 0.012471606023609638 0 -1
0.009265057742595673 0.0685339868068695 0.012770026922225952 0 -1
0.018879933282732964 0.06764111667871475 0.011895380914211273 0 -1
0.009571168571710587 0.06771915405988693 0.01197182945907116 0 -1
0.015721341595053673 0.06833352148532867 0.012573652900755405 0 -1
0.01683080568909645 0.06933832913637161 0.013557957485318184 0 -1
0.027368031442165375 0.06834883987903595 0.012588663958013058 0 -1
0.011814056895673275 0.06830327212810516 0.012544021010398865 0 -1
0.03425539657473564 0.07029230892658234 0.014492468908429146 0 -1
0.019044138491153717 0.06975746899843216 0.013968540355563164 0 -1
0.010204377584159374 0.06900396943092346 0.013230421580374241 0 -1
0.022044936195015907 0.06863857060670853 0.012872481718659401 0 -1
0.0069215730763971806 0.06825226545333862 0.012494059279561043 1 -1
0.010348682291805744 0.06744569540023804 0.011703946627676487 0 -1
0.02205893211066723 0.0699463039636612 0.014153527095913887 0 -1
0.01742650382220745 0.06767621636390686 0.011929767206311226 0 -1
0.04500000178813934 0.07048305869102478 0.013162934221327305 0 -1
0.04500000178813934 0.06726521998643875 0.00880846194922924 0 -1
0.04500000178813934 0.07002293318510056 0.011289668269455433 0 -1
0.04500000178813934 0.0684567540884018 0.01104856375604868 0 -1
0.04500000178813934 0.06822402030229568 0.008899951353669167 0 -1
0.04500000178813934 0.07123152911663055 0.007366709876805544 0 -1
0.04500000178813934 0.06924910843372345 0.010571085847914219 0 -1
0.04500000178813934 0.07004237920045853 0.008683105930685997 0 -1
0.04500000178813934 0.06859924644231796 0.009990565478801727 0 -1
0.04500000178813934 0.06968432664871216 0.009624146856367588 0 -1
0.04500000178813934 0.06688695400953293 0.0097148222848773 0 -1
0.04500000178813934 0.07006612420082092 0.010379034094512463 0 -1
0.04500000178813934 0.07109896838665009 0.009242822416126728 0 -1
0.04500000178813934 0.07014470547437668 0.006967275869101286 0 -1
0.04500000178813934 0.06906812638044357 0.008566873148083687 0 -1
0.04500000178813934 0.06927264481782913 0.0076225148513913155 0 -1
0.04500000178813934 0.06845302879810333 0.011914924718439579 0 -1
0.04500000178813934 0.06772606074810028 0.009980403818190098 0 -1
0.04500000178813934 0.07128268480300903 0.0064844898879528046 0 -1
0.04500000178813934 0.06936101615428925 0.012559059076011181 0 -1
0.04500000178813934 0.07078192383050919 0.008293848484754562 0 -1
0.004999999888241291 0.0681421086192131 0.011736792512238026 0 -1
0.004999999888241291 0.06682931631803513 0.010837427340447903 0 -1
0.004999999888241291 0.0697694942355156 0.00882821623235941 0 -1
0.004999999888241291 0.0697195753455162 0.006840751506388187 0 -1
0.004999999888241291 0.06959015876054764 0.012737147510051727 0 -1
0.004999999888241291 0.06948499381542206 0.008031774312257767 0 -1
0.004999999888241291 0.06724726408720016 0.009670782834291458 0 -1
0.004999999888241291 0.07227213680744171 0.010900484398007393 0 -1
0.004999999888241291 0.07172375917434692 0.009402228519320488 0 -1
0.004999999888241291 0.07372122257947922 0.008928190916776657 0 -1
0.004999999888241291 0.07063574343919754 0.012445216998457909 0 -1
0.004999999888241291 0.07275710999965668 0.0075261895544826984 0 -1
0.004999999888241291 0.07359904050827026 0.008120378479361534 0 -1
0.004999999888241291 0.07121509313583374 0.011810042895376682 0 -1
0.004999999888241291 0.07203186303377151 0.006940482184290886 0 -1
0.004999999888241291 0.07085084915161133 0.011068461462855339 0 -1
0.034389179199934006 0.07237280905246735 0.006197724957019091 0 -1
0.012107518501579762 0.07327257841825485 0.00713082542642951 0 -1
0.008860849775373936 0.07356670498847961 0.0074358438141644 0 -1
0.027002178132534027 0.07262836396694183 0.006462747696787119 0 -1
0.025331221520900726 0.07284093648195267 0.006683191284537315 0 -1
0.010173259302973747 0.07225906103849411 0.006079771090298891 0 -1
0.02039301209151745 0.0725548267364502 0.006386490073055029 0 -1
0.015099321492016315 0.0733281821012497 0.0071884822100400925 0 -1
0.013492968864738941 0.07263471931219101 0.006469340994954109 0 -1
0.022084474563598633 0.0731111690402031 0.006963435094803572 0 -1
0.02379198558628559 0.07188557833433151 0.005692448932677507 0 -1
0.006313057150691748 0.07394283264875412 0.007825903594493866 0 -1
0.006153885740786791 0.07171916961669922 0.005519880447536707 0 -1
0.007171835750341415 0.07310359179973602 0.0069555738009512424 0 -1
0.026274774223566055 0.07190823554992676 0.0057159485295414925 0 -1
0.031737037003040314 0.07208895683288574 0.005903360899537802 0 -1
0.01440894789993763 0.07270418107509613 0.006541375070810318 0 -1
0.01115728821605444 0.07298627495765686 0.006833916530013084 0 -1
0.021093444898724556 0.073286272585392 0.007145020179450512 0 -1
0.013262802734971046 0.07339094579219818 0.007253570482134819 0 -1
0.02774043381214142 0.07233530282974243 0.006158836651593447 0 -1
0.022888749837875366 0.07299729436635971 0.006845342461019754 0 -1
0.01547419372946024 0.07266533374786377 0.006501089781522751 0 -1
0.033867403864860535 0.07174599170684814 0.005547692533582449 0 -1
0.007373970001935959 0.07181250303983688 0.00561667000874877 0 -1
0.01348037738353014 0.0718267410993576 0.005631432402879 0 -1
0.008985579013824463 0.07215840369462967 0.005975379608571529 0 -1
0.008024856448173523 0.07235438376665115 0.006178617011755705 0 -1
0.01624276675283909 0.07292850315570831 0.006774003151804209 0 -1
0.009752566926181316 0.07367440313100815 0.007547531742602587 0 -1
0.020811792463064194 0.07174493372440338 0.005546601023525 0 -1
0.018270224332809448 0.0732652023434639 0.007123169489204884 0 -1
0.017234772443771362 0.07230505347251892 0.006127460859715939 0 -1
0.030456384643912315 0.07206877321004868 0.0058824289590120316 0 -1
0.014954878017306328 0.07200898230075836 0.005820427089929581 0 -1
0.03340688347816467 0.0722300112247467 0.006049641873687506 0 -1
0.007800475228577852 0.07386846840381622 0.007748783100396395 0 -1
0.012408736161887646 0.07186291366815567 0.005668948404490948 0 -1
0.012611414305865765 0.07280051708221436 0.006641278974711895 0 -1
0.042987897992134094 0.07182064652442932 0.00562511570751667 0 -1
0.02377723529934883 0.07263074815273285 0.006465217098593712 0 -1
0.009751825593411922 0.07282818853855133 0.006669973488897085 0 -1
0.017126673832535744 0.07355071604251862 0.007419258821755648 0 -1
0.008235163986682892 0.07314279675483704 0.006996231619268656 0 -1
0.040328431874513626 0.07187147438526154 0.005677823908627033 0 -1
0.019578013569116592 0.07219509035348892 0.006013429258018732 0 -1
0.018777379766106606 0.07274482399225235 0.006583520211279392 0 -1
0.025407928973436356 0.07180194556713104 0.005605719052255154 0 -1
0.011840063147246838 0.07241438329219818 0.006240841466933489 0 -1
0.011307010427117348 0.07178793102502823 0.005591191351413727 0 -1
0.017522864043712616 0.07291394472122192 0.006758907809853554 0 -1
0.02897355705499649 0.07191434502601624 0.005722284782677889 0 -1
0.01607859693467617 0.0736057460308075 0.007476332597434521 0 -1
0.021897785365581512 0.07220076769590378 0.00601931381970644 0 -1
0.0381537489593029 0.07184147834777832 0.005646722391247749 0 -1
0.006275542080402374 0.07257997244596481 0.006412561051547527 0 -1
0.019364316016435623 0.07331176847219467 0.007171464618295431 0 -1
0.005507502239197493 0.07301049679517746 0.006859033368527889 0 -1
0.04500000178813934 0.06642787903547287 0.008075813762843609 0 -1
0.04500000178813934 0.06967536360025406 0.0033681278582662344 0 -1
0.04500000178813934 0.07076241821050644 0.003948052879422903 0 -1
0.04500000178813934 0.06861270219087601 0.006607924588024616 0 -1
0.04500000178813934 0.06828538328409195 0.005595452152192593 0 -1
0.04500000178813934 0.06570037454366684 0.00922608282417059 0 -1
0.04500000178813934 0.06868868321180344 0.004654131829738617 0 -1
0.04500000178813934 0.07065226882696152 0.004856993444263935 0 -1
0.04500000178813934 0.06985140591859818 0.0055683450773358345 0 -1
0.04500000178813934 0.0700906366109848 0.0021607792004942894 0 -1
0.04500000178813934 0.06967831403017044 0.004684497602283955 0 -1
0.04500000178813934 0.0705488920211792 0.002872656099498272 0 -1
0.04428526386618614 0.07157664746046066 0.005203946027904749 0 -1
0.024783547967672348 0.0713294968008995 0.004610789008438587 0 -1
0.019990285858511925 0.07127167284488678 0.004472019616514444 0 -1
0.04158203676342964 0.07042588293552399 0.0024421156849712133 0 -1
0.029114076867699623 0.07114525139331818 0.004168608691543341 0 -1
0.04175778478384018 0.07161365449428558 0.005292776972055435 0 -1
0.02763448841869831 0.07169707119464874 0.005492965690791607 0 -1
0.039041027426719666 0.07119050621986389 0.004277215804904699 0 -1
0.02674693800508976 0.07145407795906067 0.004909786861389875 0 -1
0.036581989377737045 0.07125880569219589 0.0044411257840693 0 -1
0.03188518062233925 0.07125815004110336 0.004439554177224636 0 -1
0.018810492008924484 0.07125484198331833 0.004431610461324453 0 -1
0.019551647827029228 0.07165908068418503 0.005401787348091602 0 -1
0.03714893013238907 0.07167834043502808 0.005448019597679377 0 -1
0.03716611489653587 0.07074710726737976 0.0032130558975040913 0 -1
0.01527237705886364 0.07153994590044022 0.005115869455039501 0 -1
0.03818939998745918 0.07092379778623581 0.0036371154710650444 0 -1
0.027141455560922623 0.07109862565994263 0.004056704696267843 0 -1
0.04396684095263481 0.07072772085666656 0.003166517708450556 0 -1
0.017275569960474968 0.07150176912546158 0.005024254322052002 0 -1
0.034042418003082275 0.07082320004701614 0.0033956794068217278 0 -1
0.01631156913936138 0.07132361084222794 0.0045966580510139465 0 -1
0.013258864171802998 0.07145365327596664 0.0049087731167674065 0 -1
0.02796463668346405 0.07116346806287766 0.004212324507534504 0 -1
0.034938745200634 0.07156730443239212 0.005181525833904743 0 -1
0.03499710187315941 0.07070685923099518 0.0031164546962827444 0 -1
0.04057556390762329 0.0711999163031578 0.004299795255064964 0 -1
0.034647513180971146 0.07109742611646652 0.004053817596286535 0 -1
0.03922106325626373 0.07161035388708115 0.005284852348268032 0 -1
0.03157321736216545 0.07159679383039474 0.005252312868833542 0 -1
0.04252059757709503 0.07144658267498016 0.0048918030224740505 0 -1
0.0213464442640543 0.0712604895234108 0.0044451747089624405 0 -1
0.031086280941963196 0.07076845318078995 0.003264274215325713 0 -1
0.04305243119597435 0.0703437328338623 0.002244953066110611 0 -1
0.040614593774080276 0.07070013880729675 0.0031003316398710012 0 -1
0.022289739921689034 0.0711686983704567 0.004224875010550022 0 -1
0.025615472346544266 0.07144865393638611 0.0048967646434903145 0 -1
0.029453638941049576 0.07085500657558441 0.003472008975222707 0 -1
0.030256854370236397 0.07150179147720337 0.00502429623156786 0 -1
0.03751768544316292 0.07113475352525711 0.004143398255109787 0 -1
0.039804596453905106 0.07096385955810547 0.0037332556676119566 0 -1
0.03214987739920616 0.07077385485172272 0.003277239389717579 0 -1
0.022308282554149628 0.07150708884000778 0.005037019960582256 0 -1
0.032837554812431335 0.07145853340625763 0.00492047518491745 0 -1
0.010395952500402927 0.07169169187545776 0.005480061750859022 0 -1
0.026225842535495758 0.07118170708417892 0.004256096202880144 0 -1
0.038350820541381836 0.0713513195514679 0.0046631647273898125 0 -1
0.016094567254185677 0.07164835929870605 0.0053760698065161705 0 -1
0.0363687239587307 0.07066113501787186 0.0030067095067352057 0 -1
0.03556959703564644 0.07104825228452682 0.0039357990026474 0 -1
0.04242660105228424 0.07087275385856628 0.003514609532430768 0 -1
0.008794008754193783 0.07162449508905411 0.005318797659128904 0 -1
0.01838351972401142 0.07160566002130508 0.005273587070405483 0 -1
0.02385840006172657 0.07128185778856277 0.0044964575208723545 0 -1
0.043765269219875336 0.07124952971935272 0.004418877884745598 0 -1
0.03362379968166351 0.07131006568670273 0.004564159084111452 0 -1
0.03852259740233421 0.07050631940364838 0.002635159296914935 0 -1
0.03966245800256729 0.07055450975894928 0.002750815125182271 0 -1
0.02840418368577957 0.07157331705093384 0.005195959936827421 0 -1
0.030284792184829712 0.07105976343154907 0.0039634304121136665 0 -1
0.04163695499300957 0.07088427990674973 0.0035422733053565025 0 -1
0.03290301561355591 0.07100185751914978 0.003824459156021476 0 -1
0.0063638887368142605 0.08670458197593689 0.017788011580705643 1 -1
0.006942328065633774 0.0853957012295723 0.01748022623360157 1 -1
0.007788906805217266 0.08644302934408188 0.01645486243069172 0 -1
0.005956442095339298 0.0860832929611206 0.01830424927175045 1 -1
0.007597331423312426 0.0848998948931694 0.016940323635935783 1 -1
0.006947891321033239 0.08452218770980835 0.017644310370087624 1 -1
0.007977579720318317 0.08560790866613388 0.01643367111682892 0 -1
0.005619073752313852 0.08750437945127487 0.01835615001618862 1 -1
0.00601870846003294 0.0852687656879425 0.018401822075247765 1 -1
0.007275065872818232 0.08609971404075623 0.017020490020513535 1 -1
0.007266981061547995 0.08348490297794342 0.01753569208085537 1 -1
0.0077551184222102165 0.08958767354488373 0.014555140398442745 0 -1
0.006753399036824703 0.08723703026771545 0.017268648371100426 1 -1
0.006379673257470131 0.08964677155017853 0.01608986034989357 1 -1
0.0058133481070399284 0.08806972950696945 0.01778935082256794 1 -1
0.0059831514954566956 0.08874593675136566 0.017144212499260902 1 -1
0.007294596638530493 0.08731965720653534 0.016594192013144493 1 -1
0.006849332712590694 0.08819881826639175 0.01651766523718834 1 -1
0.00707138329744339 0.08927423506975174 0.015546596609055996 1 -1
0.006071743089705706 0.08433239907026291 0.016659384593367577 1 -1
0.006655092351138592 0.0835634246468544 0.016808589920401573 1 -1
0.005945625249296427 0.08617870509624481 0.016301147639751434 1 -1
0.007261531427502632 0.08197027444839478 0.017117707058787346 1 -1
0.00797240249812603 0.08286868780851364 0.016943389549851418 0 -1
0.005615714006125927 0.08725105226039886 0.015832634642720222 1 -1
0.007217425853013992 0.09011343121528625 0.01392438169568777 1 -1
0.007777359336614609 0.08730310946702957 0.01579792983829975 0 -1
0.006760252173990011 0.08932752907276154 0.014448314905166626 1 -1
0.006644498091191053 0.08334733545780182 0.018168870359659195 1 -1
0.0051404377445578575 0.08085606247186661 0.02018395997583866 0 -1
0.006273851729929447 0.08426924049854279 0.018350405618548393 1 -1
0.005321530159562826 0.08462216705083847 0.01923033408820629 0 -1
0.0059050521813333035 0.08358625322580338 0.01885930635035038 1 -1
0.006376518867909908 0.08006050437688828 0.019111070781946182 1 -1
0.005605674348771572 0.08220155537128448 0.0194427240639925 1 -1
0.006150043569505215 0.08265278488397598 0.018805794417858124 1 -1
0.007066923193633556 0.08187048137187958 0.018049389123916626 1 -1
0.007331587839871645 0.08080324530601501 0.018003644421696663 1 -1
0.0066537377424538136 0.08135513961315155 0.018568284809589386 1 -1
0.007049479987472296 0.07638276368379593 0.017748670652508736 1 -1
0.00734587199985981 0.07498127222061157 0.017180345952510834 1 -1
0.0061572943814098835 0.07888321578502655 0.01912601664662361 1 -1
0.0070703416131436825 0.07980332523584366 0.018391499295830727 1 -1
0.007926661521196365 0.07809261977672577 0.017203250899910927 0 -1
0.0066962577402591705 0.07805577665567398 0.018426505848765373 1 -1
0.007634355220943689 0.07431676983833313 0.016762929037213326 1 -1
0.0067372191697359085 0.07714022696018219 0.01820790022611618 1 -1
0.0071653081104159355 0.07891853898763657 0.018124856054782867 1 -1
0.007301073055714369 0.07755473256111145 0.017724473029375076 1 -1
0.007606424391269684 0.07893770933151245 0.017293885350227356 1 -1
0.0067211659625172615 0.07955335080623627 0.017413336783647537 1 -1
0.006606049370020628 0.07774931192398071 0.01706329919397831 1 -1
0.007546097040176392 0.07572384178638458 0.01667029783129692 1 -1
0.005389627069234848 0.08188420534133911 0.01713440753519535 0 -1
0.005736911669373512 0.08086802065372467 0.017331577837467194 1 -1
0.004999999888241291 0.08113034814596176 0.017956778407096863 0 -1
0.004999999888241291 0.08163721114397049 0.01917756348848343 0 -1
0.004999999888241291 0.08592184633016586 0.016649700701236725 0 -1
0.004999999888241291 0.08387315273284912 0.0189496036618948 0 -1
0.004999999888241291 0.08178283274173737 0.02006571739912033 0 -1
0.004999999888241291 0.08532524853944778 0.018239734694361687 0 -1
0.004999999888241291 0.08681041747331619 0.01718505658209324 0 -1
0.004999999888241291 0.08696652948856354 0.018942875787615776 0 -1
0.004999999888241291 0.08845990151166916 0.015618819743394852 0 -1
0.004999999888241291 0.09006386995315552 0.014789612963795662 0 -1
0.004999999888241291 0.08995579183101654 0.01567290537059307 0 -1
0.004999999888241291 0.08813080936670303 0.017122643068432808 0 -1
0.006087887100875378 0.09104657173156738 0.013302287086844444 1 -1
0.007070673629641533 0.09087584167718887 0.0134161077439785 1 -1
0.0066665890626609325 0.09189713001251221 0.012735245749354362 1 -1
0.006410577800124884 0.09038449078798294 0.013743671588599682 1 -1
0.005723283626139164 0.09287296235561371 0.014729710295796394 1 -1
0.005056518130004406 0.08817438036203384 0.01858859695494175 0 -1
0.005822387523949146 0.09203118085861206 0.015167591162025928 1 -1
0.006290178280323744 0.09045470505952835 0.015660390257835388 1 -1
0.006073017604649067 0.0933317318558693 0.01402283925563097 1 -1
0.006723282393068075 0.09234370291233063 0.013917580246925354 1 -1
0.0062067629769444466 0.09119152277708054 0.015273245051503181 1 -1
0.006768126506358385 0.0912744477391243 0.014567774720489979 1 -1
0.005469596013426781 0.08980166167020798 0.017040884122252464 0 -1
0.007737698499113321 0.09208916872739792 0.012908321805298328 1 -1
0.0070394305512309074 0.09286440908908844 0.01320898812264204 1 -1
0.004999999888241291 0.08915326744318008 0.017131382599473 0 -1
0.004999999888241291 0.09277963638305664 0.012894520536065102 0 -1
0.004999999888241291 0.09065377712249756 0.017005672678351402 0 -1
0.004999999888241291 0.09159456938505173 0.01406044326722622 0 -1
0.004999999888241291 0.09269960969686508 0.015638617798686028 0 -1
0.004999999888241291 0.0907410979270935 0.015337714925408363 0 -1
0.004999999888241291 0.09207768738269806 0.013280759565532207 0 -1
0.004999999888241291 0.09333445131778717 0.012165659107267857 0 -1
0.004999999888241291 0.09369459748268127 0.013142375275492668 0 -1
0.004999999888241291 0.09540659189224243 0.009328050538897514 0 -1
0.004999999888241291 0.09499195218086243 0.012172030285000801 0 -1
0.004999999888241291 0.09421306848526001 0.014017876237630844 0 -1
0.005761269014328718 0.09516768157482147 0.008248478174209595 1 -1
0.005737944971770048 0.09329964965581894 0.01105052512139082 1 -1
0.006306209601461887 0.09380863606929779 0.013251175172626972 1 -1
0.006191966123878956 0.09454713761806488 0.012343352660536766 1 -1
0.007081750780344009 0.09511259198188782 0.00993804819881916 1 -1
0.0065558901987969875 0.09518013894557953 0.010756980627775192 1 -1
0.007958151400089264 0.09313058853149414 0.01137735228985548 0 -1
0.006235688924789429 0.0949968472123146 0.011592271737754345 1 -1
0.006884121801704168 0.09359914809465408 0.012554066255688667 1 -1
0.005669642239809036 0.09471771121025085 0.013001560233533382 1 -1
0.007353920955210924 0.09353650361299515 0.011825880035758018 1 -1
0.007563529536128044 0.09519648551940918 0.008969095535576344 1 -1
0.007661971729248762 0.09354505687952042 0.010682414285838604 1 -1
0.006330212578177452 0.09551950544118881 0.007720740977674723 1 -1
0.005793375428766012 0.09578463435173035 0.011165653355419636 1 -1
0.0050352816469967365 0.09609253704547882 0.012013704515993595 0 -1
0.005151492543518543 0.09760436415672302 0.009509732946753502 0 -1
0.005964857060462236 0.09684112668037415 0.009259028360247612 1 -1
0.006690661888569593 0.09669646620750427 0.008218495175242424 1 -1
0.005666984710842371 0.09656480699777603 0.010197221301496029 0 -1
0.005527105648070574 0.0982513427734375 0.007872077636420727 0 -1
0.00695551373064518 0.09703449159860611 0.007243692874908447 1 -1
0.006754259113222361 0.0961158499121666 0.008992141112685204 1 -1
0.0058968462981283665 0.09750805795192719 0.00836161244660616 1 -1
0.006253387778997421 0.09607961773872375 0.009917380288243294 1 -1
0.007402802351862192 0.09587971866130829 0.008225101046264172 1 -1
0.004999999888241291 0.09668727964162827 0.00901134591549635 0 -1
0.004999999888241291 0.09559545665979385 0.01017560064792633 0 -1
0.004999999888241291 0.09624245017766953 0.01103559322655201 0 -1
0.004999999888241291 0.097620390355587 0.002523022936657071 0 -1
0.004999999888241291 0.09787292778491974 0.005986977368593216 0 -1
0.004999999888241291 0.09750515967607498 0.0015039084246382117 0 -1
0.004999999888241291 0.09726493060588837 0.0036991769447922707 0 -1
0.006275486201047897 0.09635704010725021 0.0058906241320073605 1 -1
0.005865457002073526 0.09622211009263992 0.006586019415408373 1 -1
0.0061241150833666325 0.09695511311292648 0.0028082348871976137 1 -1
0.00652337959036231 0.09665776044130325 0.004340766929090023 1 -1
0.005177957937121391 0.09939316660165787 0.00454975850880146 0 -1
0.006642044521868229 0.09756837785243988 0.00648510130122304 1 -1
0.006120658945292234 0.09790713340044022 0.007312404923141003 1 -1
0.007600328419357538 0.09657331556081772 0.006780180148780346 1 -1
0.007416120730340481 0.09693356603384018 0.0058997273445129395 1 -1
0.005892186425626278 0.09916980564594269 0.0022430899553000927 1 -1
0.006972461007535458 0.0976453498005867 0.004538987297564745 1 -1
0.005569949746131897 0.09921424090862274 0.0035584287252277136 0 -1
0.005731505341827869 0.09851473569869995 0.006200440693646669 1 -1
0.006940754596143961 0.09747679531574249 0.005511439871042967 1 -1
0.005826115142554045 0.0987558588385582 0.004575199447572231 1 -1
0.006354231387376785 0.09861232340335846 0.0027492947410792112 1 -1
0.006821013521403074 0.09793876856565475 0.0038149701431393623 1 -1
0.007375231944024563 0.09788970649242401 0.0012114645214751363 1 -1
0.006898856721818447 0.09855888038873672 0.00021781773830298334 1 -1
0.006644538603723049 0.09865814447402954 0.0010169479064643383 1 -1
0.00691336439922452 0.09815642237663269 0.002217247849330306 1 -1
0.006043568719178438 0.09929191321134567 0.0008479090174660087 1 -1
0.007189054042100906 0.09676751494407654 0.0037750815972685814 1 -1
0.005878239404410124 0.0974588617682457 0.0002120089775417 1 -1
0.007157969754189253 0.09696266055107117 0.0027693514712154865 1 -1
0.004999999888241291 0.09952915459871292 0.000031817169656278566 0 -1
0.004999999888241291 0.09909382462501526 0.00556279718875885 0 -1
0.004999999888241291 0.0985756665468216 0.0047712912783026695 0 -1
0.004999999888241291 0.10040430724620819 0.0003233439929317683 0 -1
0.004999999888241291 0.09911005198955536 0.002762679709121585 0 -1
0.004999999888241291 0.09915047138929367 -0.006453787442296743 0 -1
0.004999999888241291 0.09969979524612427 -0.003172247903421521 0 -1
0.004999999888241291 0.09794656932353973 -0.00025121698854491115 0 -1
0.004999999888241291 0.09822854399681091 -0.0023105796426534653 0 -1
0.004999999888241291 0.09890688955783844 -0.0027501373551785946 0 -1
0.004999999888241291 0.09722934663295746 -0.0022530851420015097 0 -1
0.004999999888241291 0.09743739664554596 -0.0037039557937532663 0 -1
0.004999999888241291 0.09731180965900421 -0.005440493114292622 0 -1
0.005826521199196577 0.09704579412937164 -0.0023408725392073393 1 -1
0.006137165240943432 0.09729176014661789 -0.0010732151567935944 1 -1
0.0065840426832437515 0.09843087941408157 -0.002364759100601077 1 -1
0.006393788382411003 0.0983111560344696 -0.003875895170494914 1 -1
0.0062436130829155445 0.09920552372932434 -0.00024793934426270425 1 -1
0.0050779604353010654 0.10031821578741074 -0.000506149954162538 0 -1
0.005803379230201244 0.09894038736820221 -0.0036866352893412113 1 -1
0.005309112370014191 0.09985853731632233 -0.0016202213009819388 0 -1
0.005147736519575119 0.09938261657953262 -0.004727040883153677 0 -1
0.007669989485293627 0.0977451354265213 -0.00041375108412466943 1 -1
0.005848851054906845 0.09866859763860703 -0.00478993309661746 1 -1
