VERSION .7
FIELDS x y z label object
SIZE 4 4 4 4 4
TYPE F F F I I
COUNT 1 1 1 1 1
WIDTH 1021
HEIGHT 1
POINTS 1021
VIEWPOINT 0 0 0 1 0 0 0
DATA ascii
2509.67431640625 -1230 194.6536865234375 0 -1
3027.52099609375 -1229.7467041015625 198.68838500976562 0 -1
2221.074462890625 -1230 199.97206115722656 0 -1
2820.223388671875 -1230 201.92953491210938 0 -1
2188.120361328125 -1230 203.06817626953125 0 -1
2664.673095703125 -1230 203.21177673339844 0 -1
2882.942626953125 -1230 205.71331787109375 0 -1
1999.9295654296875 -1230 208.822265625 0 -1
2069.359375 -1230 209.81402587890625 0 -1
2851.795166015625 -1230 209.4710693359375 0 -1
1859.1484375 -1230 210.17465209960938 0 -1
2301.241943359375 -1230 211.64697265625 0 -1
2935.26123046875 -1230 210.77484130859375 0 -1
1918.9390869140625 -1230 212.56202697753906 0 -1
2120.6953125 -1230 214.64056396484375 0 -1
1830.7401123046875 -1218.99560546875 216.37908935546875 0 -1
2157.76416015625 -1230 217.2483673095703 0 -1
3009.2626953125 -1230 218.89292907714844 0 -1
2792.808837890625 -1230 218.33323669433594 0 -1
2736.886962890625 -1230 222.31805419921875 0 -1
2966.3466796875 -1230 224.36965942382812 0 -1
2396.327880859375 -1230 224.27174377441406 0 -1
1890.2979736328125 -1230 228.35731506347656 0 -1
1975.520263671875 -1230 229.8428955078125 0 -1
2601.7685546875 -1230 229.3065643310547 0 -1
2021.5977783203125 -1230 231.0013427734375 0 -1
2357.54638671875 -1230 235.439208984375 0 -1
3038.314208984375 -1224.9691162109375 239.4700469970703 0 -1
2762.362548828125 -1230 239.27133178710938 0 -1
2693.89306640625 -1230 238.7599334716797 0 -1
2924.182861328125 -1230 241.04714965820312 0 -1
1941.2021484375 -1230 242.33213806152344 0 -1
2835.30322265625 -1230 244.03880310058594 0 -1
2244.020263671875 -1230 244.58982849121094 0 -1
2487.85986328125 -1230 246.8458251953125 0 -1
2045.5748291015625 -1230 246.6923828125 0 -1
2279.186767578125 -1230 248.0800018310547 0 -1
2454.37890625 -1230 248.17906188964844 0 -1
2140.113525390625 -1230 252.5327911376953 0 -1
2086.15771484375 -1230 253.90968322753906 0 -1
1809.5474853515625 -1218.595703125 255.0400848388672 0 -1
2630.657958984375 -1230 255.77044677734375 0 -1
1910.1939697265625 -1230 257.4475402832031 0 -1
2582.34814453125 -1230 259.5877685546875 0 -1
2811.3037109375 -1230 260.7484130859375 0 -1
2382.306396484375 -1230 262.041259765625 0 -1
2984.1201171875 -1230 260.7492980957031 0 -1
2165.28369140625 -1230 263.8380126953125 0 -1
2203.00341796875 -1230 265.2839660644531 0 -1
2310.246826171875 -1230 266.02789306640625 0 -1
2420.105712890625 -1230 266.87274169921875 0 -1
2887.862548828125 -1230 266.281494140625 0 -1
3031.54443359375 -1230 267.0887145996094 0 -1
2768.21923828125 -1230 267.32366943359375 0 -1
2017.013916015625 -1230 267.7128601074219 0 -1
3068.223876953125 -1230 268.78564453125 0 -1
2111.49853515625 -1230 270.5849609375 0 -1
1862.4359130859375 -1230 272.4707946777344 0 -1
2938.346923828125 -1230 273.452392578125 0 -1
2733.726318359375 -1230 273.2071228027344 0 -1
1774.185302734375 -1221.3255615234375 275.0813293457031 0 -1
2508.18994140625 -1230 276.1443786621094 0 -1
3239.7900390625 -1230 327.81585693359375 0 -1
3136.314208984375 -1230 340.50897216796875 0 -1
2625.719970703125 -1230 302.502685546875 0 -1
2854.89306640625 -1230 332.798828125 0 -1
3075.755126953125 -1230 319.44073486328125 0 -1
2064.153076171875 -1230 277.3301696777344 0 -1
3209.48486328125 -1230 308.09478759765625 0 -1
2567.02685546875 -1230 326.8067321777344 0 -1
3316.208740234375 -1230 340.65606689453125 0 -1
2525.002197265625 -1230 302.72784423828125 0 -1
2876.76220703125 -1230 296.6708679199219 0 -1
2607.51416015625 -1230 325.7272644042969 0 -1
3012.227294921875 -1230 354.7728576660156 0 -1
3114.14306640625 -1230 285.1861267089844 0 -1
3463.977783203125 -1230 388.5032958984375 0 -1
2345.74609375 -1230 301.8077087402344 0 -1
3297.226806640625 -1230 368.0511474609375 0 -1
2376.670166015625 -1230 309.4976806640625 0 -1
3043.420654296875 -1230 348.64508056640625 0 -1
2138.116943359375 -1230 298.51129150390625 0 -1
2446.758056640625 -1230 302.3415222167969 0 -1
3107.32275390625 -1230 324.93408203125 0 -1
2660.1826171875 -1230 299.4691162109375 0 -1
2408.513671875 -1230 298.4736633300781 0 -1
2732.50634765625 -1230 307.5019836425781 0 -1
2948.847412109375 -1230 307.6313171386719 0 -1
2998.365478515625 -1230 295.3380126953125 0 -1
3356.049560546875 -1230 365.6602783203125 0 -1
3046.6591796875 -1230 298.2042236328125 0 -1
2591.668212890625 -1230 292.7218017578125 0 -1
2969.5732421875 -1230 350.2072448730469 0 -1
2256.657470703125 -1230 306.00592041015625 0 -1
2910.7158203125 -1230 331.8875427246094 0 -1
1983.479736328125 -1230 278.2413330078125 0 -1
2687.634521484375 -1230 302.4493713378906 0 -1
3022.071533203125 -1230 319.2392883300781 0 -1
3138.695068359375 -1230 305.1524963378906 0 -1
2179.476806640625 -1230 294.29266357421875 0 -1
2817.814208984375 -1230 291.2906494140625 0 -1
2293.561767578125 -1230 296.57196044921875 0 -1
3254.17919921875 -1230 365.9562072753906 0 -1
2907.959228515625 -1230 295.90802001953125 0 -1
3429.64404296875 -1230 380.4288635253906 0 -1
3575 -1227.7381591796875 373.5877685546875 0 -1
3324.618408203125 -1230 303.5590515136719 0 -1
3562.082763671875 -1230 337.2032775878906 0 -1
3344.16943359375 -1230 330.8015441894531 0 -1
3497.9111328125 -1230 339.8227233886719 0 -1
3271.6572265625 -1230 309.4073791503906 0 -1
3414.654052734375 -1230 353.073974609375 0 -1
3458.588623046875 -1230 343.7712097167969 0 -1
3525.296875 -1230 323.5028076171875 0 -1
3383.722900390625 -1230 345.5003967285156 0 -1
3177.246826171875 -1230 288.4659729003906 0 -1
2944.804931640625 -1205 325.0810241699219 0 -1
2122.755126953125 -1205 277.3125 0 -1
2868.52685546875 -1205 314.5211181640625 0 -1
2489.583251953125 -1205 287.557373046875 0 -1
2816.714111328125 -1205 311.8696594238281 0 -1
2770.0458984375 -1205 328.1986389160156 0 -1
3231.177490234375 -1205 358.9950256347656 0 -1
2206.317138671875 -1205 291.4815673828125 0 -1
2632.578125 -1205 282.7944030761719 0 -1
2165.707275390625 -1205 293.3002624511719 0 -1
2416.943359375 -1205 319.4136047363281 0 -1
2087.763671875 -1205 283.97613525390625 0 -1
3108.787109375 -1205 310.4374084472656 0 -1
2669.51123046875 -1205 284.7075500488281 0 -1
3273.55126953125 -1205 362.0721435546875 0 -1
2382.826416015625 -1205 290.5919494628906 0 -1
3129.016845703125 -1205 352.4593505859375 0 -1
2035.28466796875 -1205 287.1531982421875 0 -1
2276.33740234375 -1205 300.38006591796875 0 -1
3078.846923828125 -1205 334.05242919921875 0 -1
2661.888916015625 -1205 325.7853698730469 0 -1
3365.6845703125 -1205 349.6388854980469 0 -1
2755.72802734375 -1205 280.5341491699219 0 -1
3327.252685546875 -1205 379.7601318359375 0 -1
2524.36962890625 -1205 290.19287109375 0 -1
2695.729248046875 -1205 324.1345520019531 0 -1
2725.573486328125 -1205 327.63427734375 0 -1
3390.71435546875 -1205 366.69940185546875 0 -1
2832.36181640625 -1205 281.4429016113281 0 -1
2630.769775390625 -1205 321.8445739746094 0 -1
2788.5673828125 -1205 278.9322509765625 0 -1
3059.386474609375 -1205 310.2295837402344 0 -1
3005.428466796875 -1205 332.98583984375 0 -1
2576.086181640625 -1205 305.7169494628906 0 -1
2353.60107421875 -1205 279.7843933105469 0 -1
2313.232666015625 -1205 301.8916320800781 0 -1
2925.106201171875 -1205 297.06585693359375 0 -1
2604.617431640625 -1205 279.56549072265625 0 -1
3173.3017578125 -1205 350.3955078125 0 -1
2892.903564453125 -1205 350.3822326660156 0 -1
2497.495849609375 -1205 321.2908630371094 0 -1
2980.60791015625 -1205 312.0897216796875 0 -1
3086.678955078125 -1230 365.84539794921875 0 -1
1961.943115234375 -1205 290.4234619140625 0 -1
2936.028564453125 -1205 355.32122802734375 0 -1
2817.303955078125 -1205 348.1463317871094 0 -1
3194.0966796875 -1230 374.4969482421875 0 -1
2739.3662109375 -1230 343.54156494140625 0 -1
2340.591064453125 -1205 316.4543762207031 0 -1
3377.908203125 -1230 388.269775390625 0 -1
2532.357177734375 -1205 329.87109375 0 -1
3073.082763671875 -1205 368.4978942871094 0 -1
3120.96240234375 -1230 372.21600341796875 0 -1
2450.180908203125 -1205 325.5625915527344 0 -1
3552.92333984375 -1230 403.1018371582031 0 -1
3427.977294921875 -1205 395.4936218261719 0 -1
1837.454833984375 -1205 282.84051513671875 0 -1
3103.614013671875 -1205 372.9889221191406 0 -1
3500.37841796875 -1230 403.5653076171875 0 -1
2788.49072265625 -1230 352.4317932128906 0 -1
3231.190673828125 -1230 384.6143493652344 0 -1
3151.98779296875 -1205 378.80780029296875 0 -1
3030.967041015625 -1205 370.5367736816406 0 -1
2586.40576171875 -1205 338.395751953125 0 -1
3584.333740234375 -1229.808349609375 411.9163513183594 0 -1
2723.239501953125 -1230 403.39190673828125 0 -1
3036.425537109375 -1230 389.5865173339844 0 -1
2660.216796875 -1230 381.77264404296875 0 -1
1784.8265380859375 -1230 363.688720703125 0 -1
1887.908935546875 -1230 478.01080322265625 0 -1
1808.755615234375 -1230 596.6438598632812 0 -1
2844.011962890625 -1230 439.89569091796875 0 -1
2091.634765625 -1230 543.959716796875 0 -1
1782.625732421875 -1230 527.9375 0 -1
1961.80712890625 -1230 457.67327880859375 0 -1
1783.0323486328125 -1230 407.339599609375 0 -1
2246.016357421875 -1230 386.5236511230469 0 -1
2140.756591796875 -1230 402.69866943359375 0 -1
3332.714111328125 -1230 414.562255859375 0 -1
1973.83349609375 -1230 498.05438232421875 0 -1
1658.7808837890625 -1230 591.2561645507812 0 -1
1755.9588623046875 -1230 583.0465087890625 0 -1
2100.650146484375 -1230 307.34600830078125 0 -1
2033.24951171875 -1230 392.17144775390625 0 -1
2646.4638671875 -1230 435.41021728515625 0 -1
2013.6590576171875 -1230 541.6917114257812 0 -1
1826.879150390625 -1230 441.99169921875 0 -1
1947.2098388671875 -1230 420.4603271484375 0 -1
2544.49755859375 -1230 442.4445495605469 0 -1
3266.700439453125 -1230 424.4661865234375 0 -1
3405.5224609375 -1230 399.7000427246094 0 -1
2851.9296875 -1230 368.3158264160156 0 -1
2323.732666015625 -1230 423.087158203125 0 -1
3270.0703125 -1230 395.03839111328125 0 -1
1839.71826171875 -1230 489.0119323730469 0 -1
2285.3642578125 -1230 510.6055603027344 0 -1
1706.8665771484375 -1230 539.6607666015625 0 -1
1675.756103515625 -1230 507.5594482421875 0 -1
2188.094970703125 -1230 352.4880065917969 0 -1
2636.53759765625 -1230 409.8309631347656 0 -1
2438.61767578125 -1230 386.26397705078125 0 -1
1904.2305908203125 -1230 354.4535217285156 0 -1
1877.4224853515625 -1230 510.1690979003906 0 -1
1805.8828125 -1230 294.46453857421875 0 -1
1788.04248046875 -1230 562.4918212890625 0 -1
1885.5040283203125 -1230 386.1041259765625 0 -1
2367.52734375 -1230 380.86334228515625 0 -1
2145.659912109375 -1230 338.9686584472656 0 -1
2704.3447265625 -1230 427.79852294921875 0 -1
2483.2138671875 -1230 331.5550537109375 0 -1
2709.0107421875 -1230 361.87615966796875 0 -1
1852.1256103515625 -1230 301.44580078125 0 -1
2831.59716796875 -1230 399.68572998046875 0 -1
2310.422607421875 -1230 324.23919677734375 0 -1
1983.060791015625 -1230 315.0799865722656 0 -1
2248.56787109375 -1230 519.7647705078125 0 -1
2206.8359375 -1230 404.17950439453125 0 -1
1941.20458984375 -1230 488.6323547363281 0 -1
3074.19580078125 -1230 415.2255554199219 0 -1
2122.3388671875 -1230 565.7003173828125 0 -1
2462.938232421875 -1230 362.1413879394531 0 -1
2408.397216796875 -1230 499.7170715332031 0 -1
2075.338134765625 -1230 320.4658508300781 0 -1
2984.24169921875 -1230 385.761962890625 0 -1
1954.5938720703125 -1230 352.38262939453125 0 -1
3002.98828125 -1230 418.9869079589844 0 -1
2476.509765625 -1230 408.2084655761719 0 -1
1819.6781005859375 -1230 341.53656005859375 0 -1
1895.6417236328125 -1230 590.365478515625 0 -1
2012.965576171875 -1230 493.0729675292969 0 -1
1738.433349609375 -1230 528.3621215820312 0 -1
2981.302978515625 -1230 459.84405517578125 0 -1
2290.500244140625 -1230 400.0006408691406 0 -1
1978.23583984375 -1230 534.330810546875 0 -1
1760.353515625 -1230 497.1168212890625 0 -1
2728.970703125 -1230 488.6908874511719 0 -1
1915.2357177734375 -1230 419.9985656738281 0 -1
2576.700439453125 -1230 396.1585388183594 0 -1
1926.22119140625 -1230 381.7856140136719 0 -1
1883.197265625 -1230 440.7026672363281 0 -1
2061.239501953125 -1230 433.8599853515625 0 -1
2904.793212890625 -1230 479.8355712890625 0 -1
3047.68603515625 -1230 436.097900390625 0 -1
3080.05029296875 -1230 449.7291564941406 0 -1
2329.79443359375 -1230 387.7151794433594 0 -1
2042.43798828125 -1230 361.7681579589844 0 -1
2233.495849609375 -1230 338.359375 0 -1
1676.2247314453125 -1230 475.4107360839844 0 -1
3127.0908203125 -1230 450.36529541015625 0 -1
1696.1129150390625 -1230 419.009521484375 0 -1
2109.237060546875 -1230 393.3784484863281 0 -1
2880.596923828125 -1230 385.4193420410156 0 -1
1768.704833984375 -1230 445.5755310058594 0 -1
2116.493408203125 -1230 339.608642578125 0 -1
2398.1806640625 -1230 331.8181457519531 0 -1
2435.458251953125 -1230 443.8088073730469 0 -1
3296.39013671875 -1230 429.0560302734375 0 -1
2010.8974609375 -1230 342.21844482421875 0 -1
1796.5833740234375 -1230 467.6599426269531 0 -1
1978.9559326171875 -1230 423.9598083496094 0 -1
2767.665283203125 -1230 375.7681579589844 0 -1
2263.29443359375 -1230 424.3385314941406 0 -1
2916.686279296875 -1230 381.88604736328125 0 -1
1750.2247314453125 -1230 387.41143798828125 0 -1
2388.772216796875 -1230 419.3770446777344 0 -1
3139.63720703125 -1230 409.41143798828125 0 -1
2620.792236328125 -1230 509.2803955078125 0 -1
1902.5743408203125 -1230 321.65399169921875 0 -1
1873.5484619140625 -1230 341.8891296386719 0 -1
2516.349365234375 -1230 337.3270263671875 0 -1
1854.3031005859375 -1230 456.7650451660156 0 -1
2594.7392578125 -1230 433.7001037597656 0 -1
1845.718994140625 -1230 578.2637329101562 0 -1
2154.916015625 -1230 371.59527587890625 0 -1
1850.1275634765625 -1230 405.5854187011719 0 -1
3231.731689453125 -1230 418.9756164550781 0 -1
2897.045166015625 -1230 446.78985595703125 0 -1
2950.02685546875 -1230 413.6275939941406 0 -1
2105.112548828125 -1230 435.1168212890625 0 -1
2764.49072265625 -1230 430.7145690917969 0 -1
1931.3775634765625 -1230 290.69512939453125 0 -1
2871.2353515625 -1230 465.8595275878906 0 -1
2489.53955078125 -1230 460.2856140136719 0 -1
2180.52880859375 -1230 426.4964904785156 0 -1
1820.09716796875 -1230 382.24139404296875 0 -1
2608.5888671875 -1230 378.4652404785156 0 -1
2516.72021484375 -1230 408.9096984863281 0 -1
2352.759033203125 -1230 428.93316650390625 0 -1
1924.43896484375 -1230 453.011474609375 0 -1
1712.033447265625 -1230 497.285400390625 0 -1
1997.1953125 -1230 462.17742919921875 0 -1
2802.17626953125 -1230 407.7610778808594 0 -1
2175.587158203125 -1230 325.51702880859375 0 -1
1996.20654296875 -1230 574.9649047851562 0 -1
2417.671875 -1230 419.1099548339844 0 -1
1851.2176513671875 -1230 524.0360717773438 0 -1
1848.6966552734375 -1230 371.7125244140625 0 -1
2290.586181640625 -1230 440.3274230957031 0 -1
2234.59619140625 -1230 427.0373840332031 0 -1
2115.87060546875 -1230 521.2771606445312 0 -1
2797.88671875 -1230 457.8489990234375 0 -1
2033.1082763671875 -1230 459.4530334472656 0 -1
2732.17822265625 -1230 441.0477600097656 0 -1
1769.308837890625 -1230 317.1623229980469 0 -1
1970.175048828125 -1230 395.7895202636719 0 -1
2362.89892578125 -1230 350.4052734375 0 -1
1988.8868408203125 -1230 360.32598876953125 0 -1
1674.73876953125 -1230 554.3903198242188 0 -1
2915.266845703125 -1230 411.29833984375 0 -1
2267.1474609375 -1230 340.291259765625 0 -1
2207.4990234375 -1230 314.1817932128906 0 -1
3163.138916015625 -1230 389.8711242675781 0 -1
2402.8076171875 -1230 387.06207275390625 0 -1
1817.9349365234375 -1230 558.5491943359375 0 -1
1718.49951171875 -1230 574.1036987304688 0 -1
1731.232421875 -1230 420.18133544921875 0 -1
2195.338134765625 -1230 456.00738525390625 0 -1
2637.513916015625 -1230 348.0783386230469 0 -1
2382.1962890625 -1230 520.5533447265625 0 -1
2414.264404296875 -1230 357.47607421875 0 -1
2679.834716796875 -1230 403.7579040527344 0 -1
2084.4345703125 -1230 370.5014343261719 0 -1
2680.41015625 -1230 353.6612548828125 0 -1
2370.906005859375 -1230 454.2934875488281 0 -1
2300.382080078125 -1230 474.1610412597656 0 -1
1702.545654296875 -1230 459.3067321777344 0 -1
3158.56787109375 -1230 440.8407287597656 0 -1
2017.764892578125 -1230 426.3848876953125 0 -1
2441.479248046875 -1230 478.0691833496094 0 -1
1796.406494140625 -1205 516.9599609375 0 -1
2787.25927734375 -1205 438.0016174316406 0 -1
2267.45654296875 -1205 405.60888671875 0 -1
2003.3140869140625 -1205 405.0132141113281 0 -1
3378.12939453125 -1205 407.5941162109375 0 -1
2618.759521484375 -1205 427.95147705078125 0 -1
2333.7216796875 -1205 476.30792236328125 0 -1
2419.4287109375 -1205 482.4702453613281 0 -1
2190.302001953125 -1205 515.1052856445312 0 -1
2179.693115234375 -1205 404.6709899902344 0 -1
2512.84130859375 -1205 361.4724426269531 0 -1
1856.9580078125 -1205 559.4786376953125 0 -1
2660.520751953125 -1205 354.0924987792969 0 -1
3022.876953125 -1205 450.3473205566406 0 -1
1827.6304931640625 -1205 574.46533203125 0 -1
2446.525634765625 -1205 533.0313110351562 0 -1
2975.138671875 -1205 412.8648376464844 0 -1
2182.124755859375 -1205 456.4720153808594 0 -1
2085.505859375 -1205 401.0560607910156 0 -1
2814.262939453125 -1205 424.1049499511719 0 -1
2683.75390625 -1205 458.1070556640625 0 -1
1667.7003173828125 -1205 530.2422485351562 0 -1
2605.281494140625 -1205 514.01708984375 0 -1
2754.364990234375 -1205 405.94830322265625 0 -1
2338.0458984375 -1205 441.8138427734375 0 -1
2218.416259765625 -1205 467.77850341796875 0 -1
2375.378173828125 -1205 405.2416076660156 0 -1
3057.12646484375 -1205 404.19610595703125 0 -1
2692.87841796875 -1205 367.1804504394531 0 -1
2136.04736328125 -1205 522.2110595703125 0 -1
2799.131591796875 -1205 472.65673828125 0 -1
1694.9061279296875 -1205 566.0928344726562 0 -1
1698.20361328125 -1205 482.95709228515625 0 -1
2301.64111328125 -1205 452.732421875 0 -1
1691.967041015625 -1205 515.2396240234375 0 -1
1899.5982666015625 -1205 303.5373229980469 0 -1
3130.044921875 -1205 431.7134094238281 0 -1
2843.197021484375 -1205 423.9372863769531 0 -1
2208.67626953125 -1205 345.0249328613281 0 -1
1932.92041015625 -1205 508.1246032714844 0 -1
2533.521240234375 -1205 463.815673828125 0 -1
2132.36572265625 -1205 354.32275390625 0 -1
2235.02197265625 -1205 361.51812744140625 0 -1
1764.488525390625 -1205 544.5370483398438 0 -1
1794.9600830078125 -1205 586.4619140625 0 -1
1936.16552734375 -1205 442.5987854003906 0 -1
1864.875244140625 -1205 494.96319580078125 0 -1
1815.60791015625 -1205 435.1527099609375 0 -1
1829.2374267578125 -1205 322.0703430175781 0 -1
1757.0618896484375 -1205 418.62286376953125 0 -1
1795.2911376953125 -1205 387.8106994628906 0 -1
1640.1959228515625 -1205 611.7422485351562 0 -1
2968.883056640625 -1205 451.1729736328125 0 -1
3185.927978515625 -1205 422.6824645996094 0 -1
2753.305908203125 -1205 466.6609191894531 0 -1
1940.73388671875 -1205 407.88555908203125 0 -1
2202.33984375 -1205 376.4681091308594 0 -1
2068.89013671875 -1205 532.803955078125 0 -1
2475.212158203125 -1205 479.7619323730469 0 -1
2344.42822265625 -1205 397.1202392578125 0 -1
2520.80322265625 -1205 494.72021484375 0 -1
2423.450927734375 -1205 511.42218017578125 0 -1
1746.1053466796875 -1205 509.064208984375 0 -1
1732.4031982421875 -1205 379.83905029296875 0 -1
3155.943603515625 -1205 417.2364196777344 0 -1
2442.94287109375 -1205 408.8830261230469 0 -1
1686.29931640625 -1205 600.885009765625 0 -1
2568.05126953125 -1205 498.3943786621094 0 -1
1699.80859375 -1205 438.5009765625 0 -1
1788.95361328125 -1205 307.8892517089844 0 -1
2887.864013671875 -1205 458.9348449707031 0 -1
2696.988525390625 -1205 398.067138671875 0 -1
1866.19580078125 -1205 293.778564453125 0 -1
3253.7451171875 -1205 445.1558837890625 0 -1
2565.625732421875 -1205 428.74652099609375 0 -1
2605.49951171875 -1205 485.2746887207031 0 -1
2644.708984375 -1205 386.82098388671875 0 -1
3097.348388671875 -1205 456.2173767089844 0 -1
3301.358154296875 -1205 406.1860656738281 0 -1
2959.18798828125 -1205 380.09881591796875 0 -1
2431.766357421875 -1205 373.3294677734375 0 -1
3021.4921875 -1205 400.8817443847656 0 -1
1896.8026123046875 -1205 464.1849060058594 0 -1
2083.214599609375 -1205 439.7062683105469 0 -1
2099.024169921875 -1205 474.8553771972656 0 -1
2046.9620361328125 -1205 446.7225341796875 0 -1
2127.81396484375 -1205 391.13189697265625 0 -1
1827.759765625 -1205 527.9033203125 0 -1
2157.91162109375 -1205 323.00384521484375 0 -1
2120.785888671875 -1205 316.158935546875 0 -1
2876.655029296875 -1205 419.746826171875 0 -1
2756.577392578125 -1205 368.1368713378906 0 -1
2265.58984375 -1205 368.25567626953125 0 -1
1654.3052978515625 -1205 576.9368896484375 0 -1
3512.597900390625 -1205 409.89605712890625 0 -1
2099.071533203125 -1205 510.0706787109375 0 -1
2638.044921875 -1205 458.2605285644531 0 -1
2533.53515625 -1205 391.98040771484375 0 -1
2054.50732421875 -1205 381.26177978515625 0 -1
1897.0616455078125 -1205 339.792724609375 0 -1
1881.43212890625 -1205 592.3324584960938 0 -1
2307.71044921875 -1205 425.1158142089844 0 -1
1943.0670166015625 -1205 370.24444580078125 0 -1
2024.5401611328125 -1205 559.9140014648438 0 -1
1905.49267578125 -1205 495.4167175292969 0 -1
2500.453857421875 -1205 440.4805603027344 0 -1
3099.189697265625 -1205 415.1873474121094 0 -1
2262.493896484375 -1205 521.5327758789062 0 -1
2285.166748046875 -1205 334.7673645019531 0 -1
2230.33740234375 -1205 408.4082336425781 0 -1
2716.953125 -1205 456.64849853515625 0 -1
1718.1341552734375 -1205 546.5765380859375 0 -1
1774.572021484375 -1205 347.478515625 0 -1
1835.1365966796875 -1205 358.7064208984375 0 -1
1762.7021484375 -1205 475.9134521484375 0 -1
2475.1591796875 -1205 346.9807434082031 0 -1
1864.8331298828125 -1205 374.6148681640625 0 -1
1800.6668701171875 -1205 552.0238647460938 0 -1
2105.95556640625 -1205 551.2540893554688 0 -1
1826.3626708984375 -1205 470.7845153808594 0 -1
2236.24365234375 -1205 539.12255859375 0 -1
2230.94775390625 -1205 314.0579528808594 0 -1
1932.582275390625 -1205 321.4606628417969 0 -1
2572.503173828125 -1205 377.5171813964844 0 -1
2266.689453125 -1205 480.43511962890625 0 -1
2463.94580078125 -1205 378.7051696777344 0 -1
2183.373046875 -1205 545.8839111328125 0 -1
2101.4765625 -1205 359.2653503417969 0 -1
2905.879150390625 -1205 431.6343994140625 0 -1
2068.42529296875 -1205 354.1357727050781 0 -1
2136.770263671875 -1205 433.08740234375 0 -1
2726.03125 -1205 360.9231262207031 0 -1
2088.267578125 -1205 328.5127258300781 0 -1
2497.745361328125 -1205 406.1299133300781 0 -1
1848.9681396484375 -1205 434.99444580078125 0 -1
2994.300048828125 -1205 371.13458251953125 0 -1
2850.9599609375 -1205 467.8350830078125 0 -1
2644.950439453125 -1205 509.537353515625 0 -1
1935.315673828125 -1205 475.5808410644531 0 -1
2931.402587890625 -1205 403.50457763671875 0 -1
2227.957763671875 -1205 500.4114990234375 0 -1
2385.7841796875 -1205 353.677490234375 0 -1
2339.035400390625 -1205 361.64703369140625 0 -1
2035.647705078125 -1205 345.89892578125 0 -1
2709.63623046875 -1205 488.74249267578125 0 -1
1879.2010498046875 -1205 415.90643310546875 0 -1
1904.60107421875 -1205 383.4273681640625 0 -1
2406.08544921875 -1205 446.79205322265625 0 -1
2358.12109375 -1205 516.33251953125 0 -1
2056.427978515625 -1205 311.2322692871094 0 -1
1746.4705810546875 -1205 450.0479431152344 0 -1
2305.80712890625 -1205 359.8156433105469 0 -1
2850.419677734375 -1205 391.3239440917969 0 -1
2931.101318359375 -1205 451.3250427246094 0 -1
1868.016845703125 -1205 528.1822509765625 0 -1
2457.23388671875 -1205 435.486083984375 0 -1
2062.218017578125 -1205 478.0840759277344 0 -1
2014.50439453125 -1205 463.1640319824219 0 -1
2162.705322265625 -1205 357.0018615722656 0 -1
1746.4385986328125 -1205 340.68756103515625 0 -1
2295.890625 -1205 494.8721008300781 0 -1
1785.805908203125 -1205 446.85113525390625 0 -1
1890.84375 -1205 563.3960571289062 0 -1
2614.904541015625 -1205 361.52716064453125 0 -1
1935.038818359375 -1205 574.35986328125 0 -1
2794.498046875 -1205 374.85546875 0 -1
1929.6160888671875 -1205 542.2300415039062 0 -1
2298.521484375 -1205 533.3478393554688 0 -1
3062.16015625 -1205 456.365234375 0 -1
2032.5513916015625 -1205 496.0811462402344 0 -1
3197.61181640625 -1230 454.276123046875 0 -1
1729.9598388671875 -1230 613.3738403320312 0 -1
2489.03515625 -1205 531.6065673828125 0 -1
2358.78515625 -1205 545.2816162109375 0 -1
2389.601806640625 -1205 541.0769653320312 0 -1
1743.616943359375 -1205 609.2579345703125 0 -1
3361.41552734375 -1205 438.3716735839844 0 -1
2962.103271484375 -1230 493.6002197265625 0 -1
2775.375732421875 -1230 553.3473510742188 0 -1
3226.98779296875 -1230 498.48388671875 0 -1
3128.150390625 -1230 504.5258483886719 0 -1
3036.61669921875 -1230 535.8512573242188 0 -1
3599.302001953125 -1230 490.5169677734375 0 -1
3718.999755859375 -1230 479.70703125 0 -1
3436.399169921875 -1230 433.971435546875 0 -1
3039.16845703125 -1230 505.89825439453125 0 -1
3075.13330078125 -1230 522.2236938476562 0 -1
2840.356201171875 -1230 496.8779296875 0 -1
2732.7978515625 -1230 552.6885986328125 0 -1
3697.5146484375 -1230 510.4283752441406 0 -1
3153.744873046875 -1230 535.7931518554688 0 -1
2295.736083984375 -1230 554.432373046875 0 -1
3267.03466796875 -1230 485.57830810546875 0 -1
3160.88720703125 -1230 485.13427734375 0 -1
3600.564208984375 -1230 531.21826171875 0 -1
3565.01708984375 -1230 459.5893859863281 0 -1
2515.848876953125 -1230 529.8004150390625 0 -1
3503.267578125 -1230 462.9849548339844 0 -1
3292.475341796875 -1230 465.50189208984375 0 -1
3681.004150390625 -1230 477.6444396972656 0 -1
3760.070068359375 -1230 500.3044738769531 0 -1
2313.821044921875 -1230 581.5358276367188 0 -1
2900.161865234375 -1230 526.6107177734375 0 -1
3673.9072265625 -1230 528.8525390625 0 -1
2901.42236328125 -1230 560.3794555664062 0 -1
3447.15234375 -1230 475.8708801269531 0 -1
3412.92822265625 -1230 494.9163818359375 0 -1
2608.269287109375 -1230 554.7098388671875 0 -1
3297.97998046875 -1230 517.7880249023438 0 -1
2968.315185546875 -1230 546.9652099609375 0 -1
3655.604736328125 -1230 506.3163146972656 0 -1
3554.69677734375 -1230 489.81890869140625 0 -1
3635.371826171875 -1230 476.603515625 0 -1
3233.80712890625 -1230 457.2933349609375 0 -1
3340.0126953125 -1230 448.5690612792969 0 -1
2659.084716796875 -1230 523.1273803710938 0 -1
2068.10595703125 -1230 588.977294921875 0 -1
3006.21484375 -1230 480.3542785644531 0 -1
3219.107177734375 -1230 530.1143188476562 0 -1
3268.2490234375 -1230 539.245361328125 0 -1
3343.16650390625 -1230 537.6710815429688 0 -1
3478.33837890625 -1230 487.56365966796875 0 -1
3434.8916015625 -1230 525.0201416015625 0 -1
3379.19482421875 -1230 483.3544616699219 0 -1
2576.87744140625 -1230 560.270751953125 0 -1
2234.799072265625 -1230 589.2535400390625 0 -1
3572.204345703125 -1230 519.3853149414062 0 -1
3628.815185546875 -1230 535.2206420898438 0 -1
3386.3828125 -1230 441.53192138671875 0 -1
3523.696044921875 -1230 423.6357116699219 0 -1
3330.994873046875 -1230 482.8479919433594 0 -1
3355.900390625 -1230 509.8761291503906 0 -1
3605.537841796875 -1230 453.5081787109375 0 -1
2369.968017578125 -1230 563.5359497070312 0 -1
3467.213134765625 -1230 443.8349914550781 0 -1
3384.371337890625 -1230 516.1316528320312 0 -1
2982.14697265625 -1230 518.4769897460938 0 -1
3521.509765625 -1230 500.8258972167969 0 -1
2926.639892578125 -1205 486.7531433105469 0 -1
3148.247802734375 -1205 553.8843994140625 0 -1
2817.787109375 -1205 548.9923706054688 0 -1
2613.322265625 -1205 572.7060546875 0 -1
2333.7529296875 -1205 587.2841186523438 0 -1
2179.202392578125 -1205 591.7028198242188 0 -1
2384.296875 -1205 577.4547729492188 0 -1
3326.054931640625 -1205 518.5952758789062 0 -1
2878.173583984375 -1205 561.0575561523438 0 -1
3015.91015625 -1205 502.207763671875 0 -1
3414.524169921875 -1205 522.9661254882812 0 -1
2293.595458984375 -1205 577.2874755859375 0 -1
2986.704345703125 -1205 498.91094970703125 0 -1
3044.790771484375 -1205 552.10009765625 0 -1
2957.1494140625 -1205 529.1653442382812 0 -1
2666.038818359375 -1205 535.0344848632812 0 -1
2434.4658203125 -1205 579.8004760742188 0 -1
2656.23193359375 -1205 575.18603515625 0 -1
3450.7158203125 -1205 495.8005676269531 0 -1
3043.9296875 -1205 482.591064453125 0 -1
1915.8026123046875 -1205 599.0233764648438 0 -1
3120.8779296875 -1205 528.0418701171875 0 -1
2096.39697265625 -1205 589.804443359375 0 -1
3081.42724609375 -1205 552.3494262695312 0 -1
2214.8818359375 -1205 568.2425537109375 0 -1
2274.425537109375 -1205 555.8485107421875 0 -1
2541.14501953125 -1205 575.0445556640625 0 -1
3300.396728515625 -1205 490.02581787109375 0 -1
3141.24365234375 -1205 486.67669677734375 0 -1
2568.092529296875 -1205 548.892333984375 0 -1
3467.40771484375 -1205 467.5419616699219 0 -1
2853.3193359375 -1205 509.4327392578125 0 -1
3491.94384765625 -1205 527.6024169921875 0 -1
2511.226318359375 -1205 550.664306640625 0 -1
3609.64453125 -1205 468.4952697753906 0 -1
3305.88623046875 -1205 542.4337768554688 0 -1
3179.013916015625 -1205 470.5021057128906 0 -1
2420.148681640625 -1205 545.0094604492188 0 -1
3160.0888671875 -1205 512.90869140625 0 -1
3193.3232421875 -1205 535.2267456054688 0 -1
2989.3779296875 -1205 533.4423828125 0 -1
2047.9400634765625 -1205 598.5125732421875 0 -1
2631.285888671875 -1205 545.866943359375 0 -1
2927.550048828125 -1205 561.0491333007812 0 -1
3429.576904296875 -1205 474.13360595703125 0 -1
2712.00341796875 -1205 561.0234375 0 -1
3085.76318359375 -1205 496.47869873046875 0 -1
3251.82421875 -1205 545.5146484375 0 -1
2701.5810546875 -1205 527.6575927734375 0 -1
2847.69970703125 -1205 540.2495727539062 0 -1
2250.291015625 -1205 578.0506591796875 0 -1
2476.618408203125 -1205 558.64501953125 0 -1
2802.3486328125 -1205 523.00244140625 0 -1
3528.3291015625 -1205 444.4223937988281 0 -1
3361.266845703125 -1205 537.3590087890625 0 -1
2740.72265625 -1205 531.0098266601562 0 -1
2233.146484375 -1205 604.52197265625 0 -1
3035.18017578125 -1205 616.28076171875 0 -1
3104.567138671875 -1205 593.8116455078125 0 -1
3711.831787109375 -1205 563.0589599609375 0 -1
2483.67626953125 -1205 615.2453002929688 0 -1
2688.78076171875 -1205 579.322265625 0 -1
2354.132080078125 -1205 609.1682739257812 0 -1
3574.05810546875 -1205 571.4014892578125 0 -1
2624.66552734375 -1205 610.6590576171875 0 -1
1991.7548828125 -1205 617.625 0 -1
3155.339599609375 -1205 587.696533203125 0 -1
2760.084716796875 -1205 599.26513671875 0 -1
2849.72705078125 -1205 579.0613403320312 0 -1
2790.2265625 -1205 590.0127563476562 0 -1
3419.693603515625 -1205 568.0813598632812 0 -1
3334.96044921875 -1205 556.790283203125 0 -1
2119.742919921875 -1205 614.6199951171875 0 -1
3114.761962890625 -1205 559.7864379882812 0 -1
2872.873046875 -1205 610.4249267578125 0 -1
3361.035888671875 -1205 592.4716186523438 0 -1
2561.24365234375 -1205 600.18017578125 0 -1
2653.974609375 -1205 617.8029174804688 0 -1
3753.51318359375 -1205 540.2086181640625 0 -1
3403.269287109375 -1205 595.4720458984375 0 -1
3189.624755859375 -1205 581.7125244140625 0 -1
2265.181396484375 -1205 607.9978637695312 0 -1
2959.004150390625 -1205 579.8157348632812 0 -1
2537.042236328125 -1205 618.078857421875 0 -1
3455.708984375 -1205 566.1965942382812 0 -1
2931.623046875 -1205 615.2664794921875 0 -1
2418.3017578125 -1205 606.9784545898438 0 -1
2586.2587890625 -1205 613.8802490234375 0 -1
3291.316650390625 -1205 595.868408203125 0 -1
2907.722900390625 -1205 591.0979614257812 0 -1
2718.43115234375 -1205 603.4863891601562 0 -1
3014.693115234375 -1205 580.2847900390625 0 -1
2816.1142578125 -1205 604.246826171875 0 -1
2149.927734375 -1205 607.923583984375 0 -1
3718.230224609375 -1205 453.9908752441406 0 -1
3675.648681640625 -1205 439.3536071777344 0 -1
3734.673095703125 -1205 485.27545166015625 0 -1
3819.34765625 -1216.858642578125 528.0960083007812 0 -1
3811.2451171875 -1205 503.62506103515625 0 -1
3786.02392578125 -1230 472.98272705078125 0 -1
3830.04736328125 -1230 489.9708251953125 0 -1
3869.258544921875 -1229.3935546875 499.0856018066406 0 -1
3810.093994140625 -1205 463.8525695800781 0 -1
3892.152587890625 -1211.078125 476.55706787109375 0 -1
3849.35888671875 -1205 463.1372375488281 0 -1
3831.3955078125 -1230 456.5243225097656 0 -1
3910.470458984375 -1229.090087890625 450.7067565917969 0 -1
3821.605224609375 -1164.1470947265625 527.2142944335938 0 -1
3648.36767578125 -1145 554.48486328125 0 -1
3573.6982421875 -1145 558.841552734375 0 -1
3755.722900390625 -1145 548.2754516601562 0 -1
3337.571044921875 -1145 561.652099609375 0 -1
3542.429443359375 -1145 566.8912963867188 0 -1
3478.432861328125 -1145 562.267333984375 0 -1
3411.098876953125 -1145 582.8153686523438 0 -1
3372.47998046875 -1145 564.6849975585938 0 -1
3504.54736328125 -1145 570.884765625 0 -1
3443.246337890625 -1145 573.8359375 0 -1
3765.724609375 -1171.2257080078125 547.7760620117188 0 -1
3714.578369140625 -1155.077392578125 566.51953125 0 -1
3796.217529296875 -1180.4979248046875 536.6013793945312 0 -1
3731.374267578125 -1183.0860595703125 560.3643188476562 0 -1
3628.748291015625 -1178.0089111328125 597.9735107421875 0 -1
3591.115234375 -1183.586669921875 611.7648315429688 0 -1
3683.888671875 -1191.4813232421875 577.7662963867188 0 -1
3665.159912109375 -1165.4388427734375 584.6298217773438 0 -1
3555.5478515625 -1179.28076171875 623.306640625 0 -1
3393.724609375 -1145 605.4541625976562 0 -1
3429.971923828125 -1145 621.9601440429688 0 -1
3274.695068359375 -1145 607.5189208984375 0 -1
3293.220703125 -1145 585.2308349609375 0 -1
3321.223388671875 -1145 619.9247436523438 0 -1
3360.369384765625 -1145 624.1992797851562 0 -1
3357.5869140625 -1145 596.55078125 0 -1
3463.20166015625 -1145 618.7252807617188 0 -1
3491.6328125 -1149.12548828125 625 0 -1
3407.730712890625 -1168.3651123046875 625 0 -1
3533.5986328125 -1151.40625 625 0 -1
3274.7666015625 -1193.4039306640625 622.8196411132812 0 -1
3528.465087890625 -1194.6241455078125 621.3653564453125 0 -1
3342.137451171875 -1177.30615234375 625 0 -1
3471.378662109375 -1187.0743408203125 625 0 -1
3374.099365234375 -1182.7548828125 625 0 -1
3292.5830078125 -1161.80419921875 625 0 -1
3253.427001953125 -1163.455810546875 625 0 -1
3242.5732421875 -1164.3265380859375 596.3082885742188 0 -1
3239.155029296875 -1152.448974609375 565 0 -1
3219.89990234375 -1194.0472412109375 594.8040771484375 0 -1
3219.89990234375 -1149.7723388671875 468.7341613769531 0 -1
3219.89990234375 -1183.856689453125 553.7676391601562 0 -1
3219.89990234375 -1169.5458984375 522.0467529296875 0 -1
3219.89990234375 -1181.896484375 490.95684814453125 0 -1
3219.89990234375 -1167.479736328125 423.1066589355469 0 -1
3219.89990234375 -1192.2899169921875 450.87841796875 0 -1
3219.89990234375 -1189.5416259765625 386.1669921875 0 -1
3283.12451171875 -1205 433.2445373535156 0 -1
3276.622314453125 -1205 515.476806640625 0 -1
3279.214599609375 -1205 467.1312255859375 0 -1
3446.5048828125 -1205 602.7715454101562 0 -1
3249.59423828125 -1205 404.8121032714844 0 -1
3345.5009765625 -1205 468.21319580078125 0 -1
3480.13427734375 -1205 597.6176147460938 0 -1
3262.330078125 -1205 580.7730712890625 0 -1
3245.989501953125 -1205 488.72637939453125 0 -1
3229.6484375 -1205 521.2141723632812 0 -1
3366.416748046875 -1205 497.17626953125 0 -1
3329.170166015625 -1205 605.3334350585938 0 -1
3549.912841796875 -1205 524.7542724609375 0 -1
3417.305419921875 -1205 431.3261413574219 0 -1
3575.710693359375 -1205 493.8114929199219 0 -1
3524.87890625 -1205 588.7388305664062 0 -1
3500.236572265625 -1205 499.327392578125 0 -1
3479.56005859375 -1205 421.19964599609375 0 -1
3488.03369140625 -1205 569.2156372070312 0 -1
3603.24462890625 -1205 434.2447509765625 0 -1
3577.23974609375 -1205 540.8480834960938 0 -1
3346.1943359375 -1205 407.1024169921875 0 -1
3534.583984375 -1205 489.3219299316406 0 -1
3641.97705078125 -1205 431.4086608886719 0 -1
3458.369140625 -1205 529.8611450195312 0 -1
3544.021728515625 -1205 558.16845703125 0 -1
3565.754150390625 -1205 424.0503234863281 0 -1
3401.3095703125 -1205 463.0364990234375 0 -1
3321.54296875 -1205 435.74188232421875 0 -1
3495.699462890625 -1205 446.35601806640625 0 -1
3609.863525390625 -1205 503.7882385253906 0 -1
3582.485107421875 -1205 459.6876220703125 0 -1
3585.33154296875 -1205 391.26824951171875 0 -1
3644.432861328125 -1205 395.17791748046875 0 -1
3468.2802734375 -1205 367.58648681640625 0 -1
3230.413818359375 -1145 374.04693603515625 0 -1
3517.97509765625 -1145 359.7831115722656 0 -1
3544.48583984375 -1205 353.57720947265625 0 -1
3586.640869140625 -1205 350.54150390625 0 -1
3369.435791015625 -1145 356.3116760253906 0 -1
3610.32373046875 -1145 351.0411376953125 0 -1
3216.961181640625 -1177.5069580078125 358.1313781738281 0 -1
3443.138916015625 -1205 347.38592529296875 0 -1
3301.2138671875 -1145 352.170654296875 0 -1
3331.842041015625 -1145 352.1759033203125 0 -1
3260.880126953125 -1145 350.0714416503906 0 -1
3514.1923828125 -1205 339.9230651855469 0 -1
3218.08740234375 -1145 348.5152587890625 0 -1
3464.5654296875 -1145 339.0242614746094 0 -1
3608.612548828125 -1205 327.0206298828125 0 -1
3414.692138671875 -1205 333.84710693359375 0 -1
3584.689697265625 -1145 328.9872741699219 0 -1
3255.114990234375 -1205 333.3660583496094 0 -1
3411.94921875 -1145 324.23114013671875 0 -1
3354.003662109375 -1145 328.85650634765625 0 -1
3679.56103515625 -1230 318.2976989746094 0 -1
3643.580322265625 -1230 323.86431884765625 0 -1
3675.00830078125 -1221.0577392578125 353.691650390625 0 -1
3615 -1220.40478515625 362.30462646484375 0 -1
3643.618408203125 -1230 375.0718688964844 0 -1
3675.456787109375 -1230 386.29681396484375 0 -1
3640.223876953125 -1205 347.859130859375 0 -1
3685.85791015625 -1173.106201171875 319.2681579589844 0 -1
3691.33349609375 -1130.538330078125 311.1560974121094 0 -1
3642.543701171875 -1085 238.6491241455078 0 -1
3621.086181640625 -1085 220.42816162109375 0 -1
3571.718017578125 -1145 156.71932983398438 0 -1
3532.385498046875 -1145 181.5454864501953 0 -1
3637.1982421875 -1145 325.94122314453125 0 -1
3566.436279296875 -1145 250.6671600341797 0 -1
3548.661865234375 -1145 331.237548828125 0 -1
3615.521484375 -1145 283.1617126464844 0 -1
3585.709228515625 -1145 276.9783630371094 0 -1
3530.329833984375 -1145 143.83685302734375 0 -1
3512.815185546875 -1145 322.96209716796875 0 -1
3612.7333984375 -1145 251.45396423339844 0 -1
3582.50048828125 -1145 191.10647583007812 0 -1
3578.51806640625 -1145 366.3597412109375 0 -1
3545.59326171875 -1145 275.6670837402344 0 -1
3622.33203125 -1085 323.0111083984375 0 -1
3610.531494140625 -1085 358.87744140625 0 -1
3590.214599609375 -1085 204.57493591308594 0 -1
3574.462646484375 -1085 378.34771728515625 0 -1
3643.80078125 -1085 300.90576171875 0 -1
3559.434814453125 -1085 191.21270751953125 0 -1
3570.793701171875 -1085 291.6321105957031 0 -1
3620.146484375 -1085 272.2776184082031 0 -1
3592.470947265625 -1085 310.0361633300781 0 -1
3670.814208984375 -1085 317.32000732421875 0 -1
3515.07666015625 -1085 331.9793701171875 0 -1
3586.761474609375 -1085 248.67359924316406 0 -1
3544.467529296875 -1085 309.6045837402344 0 -1
3678.891845703125 -1139.2645263671875 334.57574462890625 0 -1
3677.9814453125 -1198.9803466796875 337.4645080566406 0 -1
3570.494384765625 -1145 398.5777587890625 0 -1
3645.832275390625 -1085 356.3140869140625 0 -1
3561.288818359375 -1085 404.8293762207031 0 -1
3676.02783203125 -1090.732177734375 345.7857360839844 0 -1
3598.12646484375 -1085 473.3005065917969 0 -1
3564.45263671875 -1085 588.827392578125 0 -1
3642.56201171875 -1085 394.347412109375 0 -1
3590.3779296875 -1085 555.635498046875 0 -1
3646.59814453125 -1085 429.4335632324219 0 -1
3618.203125 -1085 414.5292663574219 0 -1
3599.480224609375 -1085 441.2983703613281 0 -1
3634.85595703125 -1085 465.0356140136719 0 -1
3674.68994140625 -1085 381.2625732421875 0 -1
3678.39453125 -1126.8607177734375 383.8778991699219 0 -1
3684.943359375 -1085 427.7568054199219 0 -1
3619.85546875 -1085 539.6928100585938 0 -1
3667.4775390625 -1085 468.48419189453125 0 -1
3652.512939453125 -1085 506.281005859375 0 -1
3718.278564453125 -1085 446.8975524902344 0 -1
3689.28466796875 -1085 507.0279235839844 0 -1
3625.087646484375 -1085 579.63720703125 0 -1
3704.574462890625 -1085 473.2735290527344 0 -1
3713.74169921875 -1085 542.9675903320312 0 -1
3763.57958984375 -1085 474.737548828125 0 -1
3732.5390625 -1085 485.4471435546875 0 -1
3681.51123046875 -1085 571.4292602539062 0 -1
3652.837890625 -1085 561.925537109375 0 -1
3755.25927734375 -1085 522.3915405273438 0 -1
3784.5224609375 -1085 512.7080078125 0 -1
3743.075927734375 -1112.6181640625 439.35162353515625 0 -1
3754.89453125 -1085.8577880859375 440.24835205078125 0 -1
3775.74365234375 -1114.7401123046875 437.5137023925781 0 -1
3801.234375 -1085 459.9856262207031 0 -1
3753.981689453125 -1088.671875 552.0794067382812 0 -1
3789.392578125 -1107.3441162109375 539.1025390625 0 -1
3699.24365234375 -1117.0196533203125 572.1392211914062 0 -1
3624.51611328125 -1104.2259521484375 599.5244750976562 0 -1
3667.49951171875 -1113.6136474609375 583.7723999023438 0 -1
3735.8349609375 -1119.730224609375 558.7296142578125 0 -1
3592.400634765625 -1089.4705810546875 611.2937622070312 0 -1
3601.632080078125 -1127.977294921875 607.9107666015625 0 -1
3635.59423828125 -1138.818603515625 584.1399536132812 0 -1
3513.618408203125 -1145 601.660400390625 0 -1
3575.43408203125 -1145 588.2553100585938 0 -1
3828.888671875 -1114.1229248046875 524.125 0 -1
3685.685546875 -1145 544.5675048828125 0 -1
3827.5830078125 -1085 499.6216125488281 0 -1
3817.980712890625 -1086.9107666015625 409.7215881347656 0 -1
3826.5517578125 -1085 440.9497985839844 0 -1
3824.25341796875 -1117.5611572265625 400.5367126464844 0 -1
3831.28515625 -1092.022216796875 384.9071350097656 0 -1
3849.28857421875 -1085 463.7381286621094 0 -1
3874.889892578125 -1085 492.9832763671875 0 -1
3866.405517578125 -1085 435.0503234863281 0 -1
3878.63525390625 -1085 342.680419921875 0 -1
3838.56689453125 -1085 354.6747131347656 0 -1
3868.565673828125 -1085 309.0529479980469 0 -1
3884.5947265625 -1085 272.8659362792969 0 -1
3880.9189453125 -1133.8970947265625 481.8507995605469 0 -1
3490.562255859375 -1145 514.4752807617188 0 -1
3682.123046875 -1145 486.07513427734375 0 -1
3648.700927734375 -1145 475.7625427246094 0 -1
3766.658447265625 -1145 476.91973876953125 0 -1
3491.568359375 -1145 484.85760498046875 0 -1
3667.012451171875 -1145 511.1703796386719 0 -1
3614.6376953125 -1145 523.4196166992188 0 -1
3549.416748046875 -1145 516.8339233398438 0 -1
3523.039794921875 -1145 493.7372131347656 0 -1
3554.70556640625 -1145 479.43572998046875 0 -1
3863.521240234375 -1120.739501953125 503.6044006347656 0 -1
3788.54296875 -1145 510.865234375 0 -1
3721.94287109375 -1145 533.0000610351562 0 -1
3519.7666015625 -1116.665283203125 625 0 -1
3521.467529296875 -1085 530.600830078125 0 -1
3505.878662109375 -1085 496.9390563964844 0 -1
3513.037353515625 -1085 620.6838989257812 0 -1
3484.708251953125 -1105.2916259765625 623.2825317382812 0 -1
3471.431884765625 -1118.5682373046875 593.2775268554688 0 -1
3497.35888671875 -1092.64111328125 575.7319946289062 0 -1
3489.585693359375 -1085 524.4662475585938 0 -1
3465 -1089.49609375 558.0722045898438 0 -1
3465 -1087.017822265625 504.7107238769531 0 -1
3465 -1118.2462158203125 534.046630859375 0 -1
3465 -1124.477783203125 492.8887023925781 0 -1
3474.554443359375 -1096.755859375 465.4454650878906 0 -1
3550.962646484375 -1085 618.2787475585938 0 -1
3500.465087890625 -1108.9620361328125 439.534912109375 0 -1
3505 -1112.945556640625 273.13873291015625 0 -1
3505 -1093.1251220703125 299.737548828125 0 -1
3505 -1112.0250244140625 411.88714599609375 0 -1
3505 -1116.5751953125 347.9207458496094 0 -1
3505 -1090.09228515625 222.57424926757812 0 -1
3505 -1100.61767578125 380.6989440917969 0 -1
3564.646484375 -1133.175048828125 617.0985717773438 0 -1
3505 -1125.2369384765625 136.45687866210938 0 -1
3505 -1111.730224609375 60.07636642456055 0 -1
3505 -1133.7286376953125 164.41722106933594 0 -1
3505 -1126.0982666015625 241.20928955078125 0 -1
3505 -1104.1658935546875 167.5754852294922 0 -1
3505 -1105.1278076171875 100.30561065673828 0 -1
3505 -1117.6649169921875 210.46304321289062 0 -1
3533.585693359375 -1145 455.109130859375 0 -1
3567.98486328125 -1145 452.552734375 0 -1
3505.0263671875 -1145 458.4502868652344 0 -1
3550.690185546875 -1145 423.5208740234375 0 -1
3595.370849609375 -1145 415.3514404296875 0 -1
3655.994873046875 -1145 362.708984375 0 -1
3675.24951171875 -1185.236328125 368.84991455078125 0 -1
3469.213623046875 -1145 375.3396301269531 0 -1
3435.7490234375 -1145 379.5570373535156 0 -1
3542.104248046875 -1145 382.2806701660156 0 -1
3494.609130859375 -1145 384.8014831542969 0 -1
3393.18017578125 -1145 384.3677978515625 0 -1
3688.99072265625 -1174.3616943359375 405.6252746582031 0 -1
3342.9423828125 -1145 503.0810852050781 0 -1
3340.900390625 -1145 384.53045654296875 0 -1
3444.88916015625 -1145 422.85888671875 0 -1
3626.75341796875 -1145 405.728759765625 0 -1
3522.45361328125 -1145 420.435546875 0 -1
3328.263427734375 -1145 416.0797424316406 0 -1
3234.151611328125 -1145 435.9289855957031 0 -1
3410.307373046875 -1145 424.7494201660156 0 -1
3472.3544921875 -1145 412.3381042480469 0 -1
3371.085693359375 -1145 453.1546630859375 0 -1
3435.358154296875 -1145 464.6439514160156 0 -1
3472.63330078125 -1145 447.36492919921875 0 -1
3306.00390625 -1145 513.2833862304688 0 -1
3400.68115234375 -1145 459.1985168457031 0 -1
3657.573974609375 -1145 404.8171081542969 0 -1
3240.23046875 -1145 533.4799194335938 0 -1
3289.0205078125 -1145 540.3372802734375 0 -1
3265.856201171875 -1145 516.4511108398438 0 -1
3317.25048828125 -1145 477.2931823730469 0 -1
3377.425537109375 -1145 419.6158142089844 0 -1
3296.68310546875 -1145 402.9441223144531 0 -1
3297.160888671875 -1145 434.35296630859375 0 -1
3418.214599609375 -1145 497.98980712890625 0 -1
3634.756591796875 -1145 438.03057861328125 0 -1
3700.571044921875 -1145 419.2685546875 0 -1
3376.4306640625 -1145 519.2819213867188 0 -1
3713.0966796875 -1185.2496337890625 428.4293212890625 0 -1
3448.010009765625 -1145 503.3820495605469 0 -1
3665.103271484375 -1145 441.1654968261719 0 -1
3603.2958984375 -1145 452.1401062011719 0 -1
3451.31103515625 -1145 535.4259033203125 0 -1
3409.9716796875 -1145 530.8872680664062 0 -1
3814.012451171875 -1145 498.5449523925781 0 -1
3723.55712890625 -1145 449.92333984375 0 -1
3594.311279296875 -1145 493.50811767578125 0 -1
3718.669921875 -1145 496.22613525390625 0 -1
3752.7333984375 -1145 444.4561462402344 0 -1
3741.500732421875 -1174.018310546875 439.0970458984375 0 -1
3748.2353515625 -1205 441.1734313964844 0 -1
3699.18603515625 -1205 484.6318359375 0 -1
3729.3984375 -1205 516.6826171875 0 -1
3645.502685546875 -1205 546.24658203125 0 -1
3682.570068359375 -1205 548.0214233398438 0 -1
3653.30322265625 -1230 439.40679931640625 0 -1
3790.035400390625 -1230 511.9878845214844 0 -1
3750.360107421875 -1230 457.39068603515625 0 -1
3719.7568359375 -1230 434.4761047363281 0 -1
3610.741455078125 -1205 555.9871215820312 0 -1
3695.89111328125 -1206.23779296875 414.26544189453125 0 -1
3619.5625 -1230 405.39996337890625 0 -1
3655.989990234375 -1205 465.62640380859375 0 -1
3639.667724609375 -1205 507.6986999511719 0 -1
3583.748046875 -1217.336669921875 614.4647216796875 0 -1
3021.906494140625 -1230 565.5725708007812 0 -1
3474.78076171875 -1230 555.4218139648438 0 -1
2814.89794921875 -1230 579.7548828125 0 -1
3345.52734375 -1230 570.4089965820312 0 -1
3078.2509765625 -1230 593.0181884765625 0 -1
3385.367919921875 -1230 552.289794921875 0 -1
3214.59716796875 -1230 559.4319458007812 0 -1
1922.250732421875 -1230 618.2559814453125 0 -1
2916.010986328125 -1230 605.510986328125 0 -1
3428.408203125 -1230 552.6119995117188 0 -1
1834.73193359375 -1230 617.5433349609375 0 -1
2882.08447265625 -1230 585.9024658203125 0 -1
2328.9990234375 -1230 609.2611694335938 0 -1
3555.6083984375 -1230 559.7845458984375 0 -1
3517.44091796875 -1230 609.7630004882812 0 -1
2716.0869140625 -1230 583.2525634765625 0 -1
2944.23876953125 -1230 580.7735595703125 0 -1
2598.391357421875 -1230 586.1455688476562 0 -1
3104.46923828125 -1230 565.7013549804688 0 -1
3649.973388671875 -1230 588.82470703125 0 -1
3457.928466796875 -1230 587.343017578125 0 -1
3664.994140625 -1230 561.6085205078125 0 -1
