VERSION .7
FIELDS x y z label object
SIZE 4 4 4 4 4
TYPE F F F I I
COUNT 1 1 1 1 1
WIDTH 1048
HEIGHT 1
POINTS 1048
VIEWPOINT 0 0 0 1 0 0 0
DATA ascii
2552.28955078125 149 66.61669921875 1 -1
2607.954345703125 149 114.90632629394531 0 -1
2575.755126953125 149 84.73832702636719 0 -1
2644.06103515625 149 146.95745849609375 0 -1
2572.09521484375 149 67.92596435546875 0 -1
2604.1494140625 149 126.14881896972656 0 -1
2566.95166015625 149 94.84584045410156 0 -1
2590.955322265625 149 134.10922241210938 0 -1
2615.8896484375 149 125.89171600341797 0 -1
2735.48486328125 163.9417266845703 132.9575653076172 0 -1
2761.359619140625 154.4677734375 126.29717254638672 0 -1
2748.285888671875 152.23696899414062 129.66244506835938 0 -1
2703.16796875 149.83285522460938 141.27621459960938 0 -1
2688.711669921875 153.78102111816406 144.9974365234375 0 -1
2555.09912109375 164 25.337085723876953 1 -1
2620.352294921875 164 52.53924560546875 0 -1
2676.626953125 164 89.46389770507812 0 -1
2664.650634765625 164 77.39891052246094 0 -1
2615.705322265625 164 81.69938659667969 0 -1
2670.642333984375 164 120.29154205322266 0 -1
2657.612548828125 164 112.77155303955078 0 -1
2698.55078125 164 119.90904235839844 0 -1
2575.233642578125 164 44.459293365478516 0 -1
2728.443359375 164 120.91278839111328 0 -1
2601.77685546875 164 62.43624496459961 0 -1
2645.919677734375 164 82.7884750366211 0 -1
2653.598388671875 164 68.37743377685547 0 -1
2709.768310546875 164 107.33258056640625 0 -1
2665.761474609375 164 103.49667358398438 0 -1
2635.013671875 164 92.93049621582031 0 -1
2713.6376953125 164 137.6404571533203 0 -1
2732.6826171875 164 106.08263397216797 0 -1
2781.214599609375 164 118.31836700439453 0 -1
2618.62646484375 164 93.77271270751953 0 -1
2646.931396484375 164 125.33386993408203 0 -1
2720.2568359375 164 101.76470184326172 0 -1
2636.6494140625 164 63.118621826171875 0 -1
2626.650390625 164 74.97967529296875 0 -1
2686.7587890625 164 101.02000427246094 0 -1
2714.214599609375 164 120.53020477294922 0 -1
2643.356689453125 164 103.4798812866211 0 -1
2616.083984375 164 64.84169006347656 0 -1
2594.995361328125 164 50.807369232177734 0 -1
2606.697265625 164 51.10166931152344 0 -1
2686.1669921875 164 117.66242980957031 0 -1
2664.363037109375 164 133.43447875976562 0 -1
2677.931396484375 164 108.72199249267578 0 -1
2696.01123046875 164 133.19302368164062 0 -1
2697.851318359375 164 96.44439697265625 0 -1
2571.04052734375 164 31.523178100585938 0 -1
2655.0810546875 164 94.42951965332031 0 -1
2679.647705078125 164 145.68701171875 0 -1
2681.51220703125 164 132.2711639404297 0 -1
2715.418212890625 164 90.37646484375 0 -1
2587.56005859375 164 38.048377990722656 0 -1
2744.74755859375 164 115.47007751464844 0 -1
2678.962646484375 164 72.85994720458984 0 -1
2768.052978515625 164 120.17313385009766 0 -1
2552.845703125 149 20.087604522705078 1 -1
2695.544677734375 149 89.7309799194336 0 -1
2663.718017578125 149 117.03839874267578 0 -1
2726.120361328125 149 127.12358856201172 0 -1
2674.7822265625 149 106.18791961669922 0 -1
2624.891845703125 149 66.70670318603516 0 -1
2614.779541015625 149 55.437713623046875 0 -1
2771.57177734375 149 112.42030334472656 0 -1
2721.0224609375 149 98.4034194946289 0 -1
2621.212646484375 149 92.94493865966797 0 -1
2631.1416015625 149 84.91039276123047 0 -1
2584.03564453125 149 50.75604248046875 0 -1
2639.10400390625 149 97.30165100097656 0 -1
2735.198486328125 149 101.85055541992188 0 -1
2678.05810546875 149 87.16442108154297 0 -1
2782.7109375 149 120.15164947509766 0 -1
2647.091064453125 149 111.89387512207031 0 -1
2743.3515625 149 115.96231079101562 0 -1
2637.5224609375 149 63.500328063964844 0 -1
2646.76953125 149 72.98804473876953 0 -1
2597.81201171875 149 46.094844818115234 0 -1
2713.438720703125 149 132.01821899414062 0 -1
2700.964599609375 149 125.57940673828125 0 -1
2643.191162109375 149 85.93523406982422 0 -1
2567.11474609375 149 29.049833297729492 0 -1
2655.510498046875 149 127.75640869140625 0 -1
2678.462646484375 149 126.75897216796875 0 -1
2723.052490234375 149 111.44001770019531 0 -1
2754.94091796875 149 113.67156219482422 0 -1
2675.422607421875 149 74.71766662597656 0 -1
2580.797119140625 149 34.30955505371094 0 -1
2631.845947265625 149 108.53030395507812 0 -1
2658.24609375 149 81.6025390625 0 -1
2608.169677734375 149 68.81539154052734 0 -1
2593.727294921875 149 58.4162712097168 0 -1
2617.216552734375 149 79.14335632324219 0 -1
2709.741943359375 149 103.00700378417969 0 -1
2697.360107421875 149 105.60968780517578 0 -1
2654.99560546875 149 94.63416290283203 0 -1
2665.968017578125 149 92.29347229003906 0 -1
2670.5029296875 149 140.17884826660156 0 -1
2713.6591796875 149 118.49517059326172 0 -1
2684.78857421875 149 115.97683715820312 0 -1
2634.73291015625 149 51.20022201538086 0 -1
2715.414794921875 149 86.16622924804688 0 -1
2602.4833984375 164 36.54973602294922 0 -1
2757.97412109375 164 102.62821197509766 0 -1
2797.224365234375 150.36090087890625 118.63410949707031 0 -1
2667.50439453125 149 63.71781539916992 0 -1
2733.689453125 164 90.7220458984375 0 -1
2755.320068359375 149 99.1005859375 0 -1
2700.58837890625 164 75.90895080566406 0 -1
2702.361328125 149 76.02713012695312 0 -1
2795.443359375 164 112.70428466796875 0 -1
2650.614013671875 164 54.028560638427734 0 -1
2733.2861328125 149 86.87187194824219 0 -1
2745.636962890625 164 90.88844299316406 0 -1
2657.24853515625 149 56.13595199584961 0 -1
2689.995849609375 149 68.8734130859375 0 -1
2766.2373046875 149 69.72154235839844 0 -1
2746.347412109375 149 89.78107452392578 0 -1
2724.66845703125 149 74.8221206665039 0 -1
2604.69873046875 149 31.113126754760742 0 -1
2671.83984375 149 41.940635681152344 0 -1
2619.5068359375 149 40.38188934326172 0 -1
2771.83740234375 149 94.87742614746094 0 -1
2816.8974609375 149 74.69004821777344 0 -1
2803.17626953125 149 85.51128387451172 0 -1
2807.0400390625 149 110.61868286132812 0 -1
2592.40380859375 149 21.81393814086914 1 -1
2683.19775390625 149 46.00739669799805 0 -1
2759.884765625 149 80.40936279296875 0 -1
2787.658203125 149 77.94705200195312 0 -1
2812.64306640625 149 97.40336608886719 0 -1
2645.81494140625 149 37.450748443603516 0 -1
2773.491455078125 149 79.6068344116211 0 -1
2705.610107421875 149 57.61589050292969 0 -1
2790.510009765625 149 94.33259582519531 0 -1
2678.215576171875 149 59.526580810546875 0 -1
2821.124755859375 149 89.39353942871094 0 -1
2691.72021484375 149 54.49465560913086 0 -1
2730.055419921875 149 57.87334442138672 0 -1
2714.713623046875 149 66.5738754272461 0 -1
2833.787841796875 149 80.90401458740234 0 -1
2629.63623046875 149 31.25705909729004 0 -1
2741.61962890625 149 75.5286865234375 0 -1
2778.406494140625 149 68.95442962646484 0 -1
2820.26806640625 149 107.41336059570312 0 -1
2819.08984375 164 110.67369842529297 0 -1
2833.099853515625 163.5913848876953 99.27974700927734 0 -1
2835.59375 149.41226196289062 96.27603149414062 0 -1
2842.266357421875 161.43002319335938 85.41537475585938 0 -1
2621.336669921875 164 33.80914306640625 0 -1
2712.992431640625 164 51.08305358886719 0 -1
2663.915283203125 164 56.57725524902344 0 -1
2634.62109375 164 45.92840576171875 0 -1
2743.875732421875 164 76.60819244384766 0 -1
2793.1630859375 164 86.10905456542969 0 -1
2805.31396484375 164 79.3493881225586 0 -1
2767.728515625 164 63.91991424560547 0 -1
2701.015380859375 164 59.10993194580078 0 -1
2580.012451171875 164 22.233137130737305 1 -1
2688.047119140625 164 66.635009765625 0 -1
2663.1474609375 164 36.63818359375 0 -1
2781.8076171875 164 83.04484558105469 0 -1
2827.85009765625 164 88.31678771972656 0 -1
2717.534912109375 164 64.61701965332031 0 -1
2729.47900390625 164 63.73598861694336 0 -1
2785.193359375 164 105.32771301269531 0 -1
2817.89697265625 164 98.42953491210938 0 -1
2566.494384765625 164 15.649407386779785 1 -1
2651.14404296875 164 39.35598373413086 0 -1
2769.69287109375 164 95.0638656616211 0 -1
2690.750244140625 164 43.43879699707031 0 -1
2805.9833984375 164 107.71827697753906 0 -1
2720.929931640625 164 79.71729278564453 0 -1
2756.384033203125 164 85.37060546875 0 -1
2637.750244140625 164 32.82438278198242 0 -1
2591.254150390625 164 25.37965965270996 0 -1
2813.4716796875 164 86.91370391845703 0 -1
2763.95556640625 164 75.67013549804688 0 -1
2677.02294921875 164 55.027191162109375 0 -1
2785.915283203125 164 66.96839904785156 0 -1
2837.292724609375 164 72.55683898925781 0 -1
2819.423828125 164 68.67119598388672 0 -1
2747.109375 149 53.39664840698242 0 -1
2760.212646484375 149 56.35321807861328 0 -1
2844.898681640625 149 72.79685974121094 0 -1
2798.060791015625 149 61.18128967285156 0 -1
2714.648681640625 149 45.370792388916016 0 -1
2617.503662109375 149 24.23286247253418 1 -1
2728.461181640625 149 44.87897872924805 0 -1
2700.511962890625 149 40.348594665527344 0 -1
2846.816650390625 164 65.5999984741211 0 -1
2808.19873046875 164 57.49372100830078 0 -1
2747.243408203125 164 47.3632926940918 0 -1
2819.28369140625 149 60.33283615112305 0 -1
2832.75732421875 149 62.333465576171875 0 -1
2785.163330078125 149 53.87485885620117 0 -1
2759.5693359375 164 47.49811935424805 0 -1
2791.470458984375 164 53.368778228759766 0 -1
2710.509765625 164 39.34128189086914 0 -1
2734.939208984375 164 42.870182037353516 0 -1
2847.3193359375 149 60.57131576538086 0 -1
2667.267822265625 149 31.059663772583008 0 -1
2581.25830078125 159.68759155273438 10 1 -1
2736.0400390625 162.0351104736328 10 0 -1
2812.545166015625 150.2410125732422 10 0 -1
2702.182373046875 153.4859619140625 10 0 -1
2755.534912109375 151.6063995361328 10 0 -1
2732.003662109375 149 26.670499801635742 1 -1
2747.463623046875 149 42.12631607055664 0 -1
2760.434326171875 149 42.64345932006836 0 -1
2840.083740234375 149 47.572776794433594 0 -1
2809.935546875 149 23.870763778686523 1 -1
2649.26025390625 149 20.692668914794922 1 -1
2781.17822265625 149 39.46944046020508 0 -1
2765.84765625 149 17.028085708618164 1 -1
2835.7138671875 149 18.73024559020996 1 -1
2701.947021484375 149 22.454444885253906 1 -1
2746.07275390625 149 28.73880386352539 0 -1
2685.6943359375 149 32.78105926513672 0 -1
2691.208740234375 149 17.316631317138672 1 -1
2825.602783203125 149 12.355765342712402 0 -1
2797.95703125 149 15.891600608825684 1 -1
2812.143798828125 149 50.24016189575195 0 -1
2714.46728515625 149 23.86911964416504 1 -1
2822.0341796875 149 39.31201171875 0 -1
2809.224365234375 149 37.640567779541016 0 -1
2781.020751953125 149 14.408510208129883 1 -1
2789.34326171875 149 26.95018768310547 1 -1
2771.766357421875 149 33.00539779663086 0 -1
2757.44873046875 149 29.699228286743164 0 -1
2826.802734375 149 27.42753028869629 1 -1
2672.86669921875 149 19.813016891479492 1 -1
2732.8427734375 164 31.176815032958984 0 -1
2702.970703125 164 19.326141357421875 1 -1
2817.198974609375 164 16.437883377075195 1 -1
2760.314453125 164 11.242676734924316 0 -1
2772.95751953125 164 46.592185974121094 0 -1
2811.9521484375 164 44.76689910888672 0 -1
2662.81591796875 164 21.625532150268555 1 -1
2826.072265625 164 48.78190612792969 0 -1
2800.93798828125 164 31.337261199951172 0 -1
2837.315185546875 164 55.10322952270508 0 -1
2824.7529296875 164 35.78676223754883 0 -1
2699.96923828125 164 31.280223846435547 0 -1
2722.66259765625 164 37.939491271972656 0 -1
2649.399658203125 164 19.248918533325195 1 -1
2802.95654296875 164 17.833328247070312 1 -1
2687.11572265625 164 27.050493240356445 0 -1
2789.046142578125 164 29.661922454833984 0 -1
2796.993896484375 164 42.7800178527832 0 -1
2847.16845703125 164 24.50769805908203 1 -1
2847.48779296875 164 47.445552825927734 0 -1
2839.8525390625 164 36.28325271606445 0 -1
2788.50830078125 164 10.831923484802246 0 -1
2742.888916015625 164 22.220827102661133 1 -1
2716.8076171875 164 27.429508209228516 0 -1
2775.028076171875 164 32.84201431274414 0 -1
2614.990234375 164 12.954132080078125 1 -1
2771.19970703125 164 18.52566909790039 1 -1
2831.101318359375 164 14.16977310180664 0 -1
2635.629638671875 164 19.75603675842285 1 -1
2602.161376953125 164 18.200658798217773 1 -1
2759.046630859375 164 26.81085968017578 1 -1
2848 150.55482482910156 36.465152740478516 0 -1
2848 153.69871520996094 14.968178749084473 0 -1
1542 -82.99423217773438 -20.204504013061523 0 -1
1496.4183349609375 -84.3798828125 -90 0 -1
1540.5555419921875 -85 -1.4874730110168457 0 -1
1522.9476318359375 -85 -29.299415588378906 0 -1
1510.7822265625 -85 -30.334638595581055 0 -1
1536.5579833984375 -85 -65.58757019042969 0 -1
1527.8438720703125 -85 -11.2875337600708 0 -1
1541.4334716796875 -85 -34.05793380737305 0 -1
1497.7109375 -85 -10.171538352966309 0 -1
1514.6165771484375 -85 -45.54290771484375 0 -1
1528.11865234375 -85 -40.764678955078125 0 -1
1499.6177978515625 -85 -24.510812759399414 0 -1
1490.7960205078125 -85 -37.06331253051758 0 -1
1488.3104248046875 -85 -68.47383880615234 0 -1
1486.5787353515625 -85 -48.196956634521484 0 -1
1506.6300048828125 -85 -69.5721435546875 0 -1
1518.9217529296875 -85 -78.38826751708984 0 -1
1497.458984375 -85 -57.817909240722656 0 -1
1512.725341796875 -79.85066986083984 -90 0 -1
1512.4990234375 -75 -74.4735336303711 0 -1
1498.166259765625 -75 -71.6467056274414 0 -1
1509.509033203125 -75 -62.13024139404297 0 -1
1521.8087158203125 -75 -50.32674026489258 0 -1
1532.6640625 -75 -31.599441528320312 0 -1
1538.09423828125 -75 -9.287497520446777 0 -1
1536.91259765625 -75 -48.68906784057617 0 -1
1521.4498291015625 -75 -63.446937561035156 0 -1
1485 -77.01869201660156 -14.118886947631836 0 -1
1485 -75.03510284423828 -63.795372009277344 0 -1
1511.579345703125 -79.90460205078125 0 0 -1
1502.1802978515625 -75 -17.54758071899414 0 -1
1486.35205078125 -75 -81.07430267333984 0 -1
1486.0694580078125 -75 -40.20721435546875 0 -1
1486.607666015625 -75 -26.36198616027832 0 -1
1515.5830078125 -75 -10.781094551086426 0 -1
1528.001953125 -75 -19.593509674072266 0 -1
1514.529052734375 -75 -25.3882999420166 0 -1
1507.5909423828125 -75 -36.86953353881836 0 -1
1503.0419921875 -75 -48.92112731933594 0 -1
1554.6689453125 85 -6.1793084144592285 0 -1
1576.4951171875 85 -45.381202697753906 0 -1
1571.99560546875 85 -27.420236587524414 0 -1
1588.9884033203125 85 -23.86115264892578 0 -1
1570.96728515625 85 -58.08689498901367 0 -1
1558.92529296875 85 -31.472448348999023 0 -1
1552 79.50125122070312 -77.00828552246094 0 -1
1603.64306640625 85 -26.786157608032227 0 -1
1593.236572265625 85 -58.29501724243164 0 -1
1607.1446533203125 85 -12.309995651245117 0 -1
1583.5126953125 85 -63.86649703979492 0 -1
1580.362548828125 85 -77.26779174804688 0 -1
1598.335205078125 85 -38.5859375 0 -1
1564.7835693359375 85 -71.4941177368164 0 -1
1595.8861083984375 75 -71.19400787353516 0 -1
1569.1810302734375 75 -37.22982406616211 0 -1
1602.576416015625 75 -80.8004379272461 0 -1
1581.0899658203125 75 -54.43865203857422 0 -1
1564.4742431640625 75 -53.868892669677734 0 -1
1552.385009765625 75 -25.034534454345703 0 -1
1557.0909423828125 75 -39.48991394042969 0 -1
1573.4735107421875 75 -70.40045928955078 0 -1
1584.8233642578125 75 -79.34907531738281 0 -1
1585.7138671875 75 -15.867326736450195 0 -1
1589.8968505859375 75 -45.60104751586914 0 -1
1569.7802734375 75 -13.133084297180176 0 -1
1607.1077880859375 75 -53.69354248046875 0 -1
1602.2825927734375 75 -19.638559341430664 0 -1
1590.4141845703125 75 -31.536165237426758 0 -1
1595.2891845703125 75 -5.868874549865723 0 -1
1609 81.33849334716797 -37.55926513671875 0 -1
1609 84.9637680053711 -76.9720458984375 0 -1
1609 77.29182434082031 -67.3177719116211 0 -1
1569.6544189453125 76.41585540771484 -90 0 -1
2265 213.56597900390625 -13.074082374572754 0 -1
2265 133.59072875976562 -24.775121688842773 1 -1
2265 152.83641052246094 -68.50200653076172 0 -1
2265 207.7951202392578 -26.34006118774414 0 -1
2265 149.73976135253906 -52.382999420166016 0 -1
2265 163.94773864746094 -56.23817825317383 0 -1
2265 140.3123321533203 -14.242691993713379 1 -1
2265 166.906005859375 -27.783979415893555 0 -1
2265 157.77197265625 -35.79683303833008 0 -1
2265 137.22250366210938 -51.61264419555664 1 -1
2265 163.7109375 -10.934296607971191 0 -1
2265 175.77276611328125 -49.5669059753418 0 -1
2265 145.48448181152344 -29.64808464050293 0 -1
2265 178.88455200195312 -32.89273452758789 0 -1
2265 191.93780517578125 -15.681686401367188 0 -1
2265 154.12965393066406 -18.173776626586914 0 -1
2262.694580078125 132.56419372558594 0 0 -1
2265 173.8932647705078 -64.75646209716797 0 -1
2265 228.54830932617188 -41.270484924316406 0 -1
2265 232.54820251464844 -70.67721557617188 0 -1
2265 219.14292907714844 -62.40589904785156 0 -1
2265 198.62152099609375 -38.266380310058594 0 -1
2265 204.8101806640625 -58.34226989746094 0 -1
2265 189.3228302001953 -45.816471099853516 0 -1
2265 238.0895233154297 -33.91249465942383 0 -1
2265 227.0265350341797 -12.982848167419434 0 -1
2265 157.76307678222656 -89.22911071777344 0 -1
2265 144.2114715576172 -79.2876968383789 1 -1
2265 212.77947998046875 -48.67612838745117 0 -1
2265 188.2160186767578 -61.52754592895508 0 -1
2265 167.60836791992188 -80.19542694091797 0 -1
2265 195.47422790527344 -76.43878936767578 0 -1
2265 239.043701171875 -81.69206237792969 0 -1
2265 239.5260772705078 -50.85511016845703 0 -1
2257.958251953125 187.0252227783203 -90 0 -1
2261.45166015625 222.23326110839844 -90 0 -1
2259.597412109375 240 -9.456730842590332 0 -1
2255 159.16615295410156 -22.301389694213867 0 -1
2255 171.99668884277344 -16.049890518188477 0 -1
2255 131.95640563964844 -10.7764892578125 1 -1
2255 139.65228271484375 -30.482166290283203 0 -1
2255 146.82452392578125 -44.04165267944336 0 -1
2255 141.25257873535156 -1.1038492918014526 0 -1
2255 156.89340209960938 -49.239315032958984 0 -1
2255 187.0951690673828 -35.00959396362305 0 -1
2255 143.62220764160156 -65.25932312011719 0 -1
2255 147.37921142578125 -19.7898006439209 0 -1
2255 184.2074432373047 -20.913005828857422 0 -1
2255 132.08827209472656 -76.28528594970703 1 -1
2255 200.8571319580078 -31.909257888793945 0 -1
2255 199.530517578125 -19.78072738647461 0 -1
2255 171.30386352539062 -40.29519271850586 0 -1
2255 206.46981811523438 -49.415218353271484 0 -1
2255 223.667724609375 -47.06788635253906 0 -1
2255 212.7127685546875 -63.1338996887207 0 -1
2255 171.79574584960938 -73.60580444335938 0 -1
2255 200.4830322265625 -69.12203979492188 0 -1
2255 238.35995483398438 -40.10616683959961 0 -1
2255 176.79942321777344 -58.90949249267578 0 -1
2255 212.93824768066406 -36.15968704223633 0 -1
2255 184.25363159179688 -78.00800323486328 0 -1
2255 215.72789001464844 -76.99333953857422 0 -1
2255 233.4664764404297 -22.325292587280273 0 -1
2255 135.5561065673828 -87.2366714477539 1 -1
2255 224.75448608398438 -65.4485092163086 0 -1
2255 220.71705627441406 -26.44373893737793 0 -1
2255 187.09437561035156 -52.1202392578125 0 -1
2259.25927734375 240 -63.699893951416016 0 -1
2265 77.95574951171875 77.34262084960938 0 -1
2265 71.80660247802734 87.72076416015625 0 -1
2265 -59.523250579833984 39.41693115234375 0 -1
2265 87.89859008789062 126.37996673583984 0 -1
2265 29.321687698364258 85.44194793701172 0 -1
2265 21.299230575561523 19.55644416809082 0 -1
2265 70.397705078125 103.55310821533203 0 -1
2265 55.86055374145508 22.864683151245117 0 -1
2265 7.227515697479248 42.94671630859375 0 -1
2265 98.8058853149414 57.3470458984375 0 -1
2265 63.88237380981445 34.04465866088867 0 -1
2265 21.331872940063477 61.57845687866211 0 -1
2265 94.11936950683594 83.82286834716797 0 -1
2265 6.7758588790893555 58.559974670410156 0 -1
2265 52.45698928833008 95.29293060302734 0 -1
2265 81.43335723876953 48.930355072021484 0 -1
2265 68.88113403320312 57.67521286010742 0 -1
2265 31.871047973632812 50.62467575073242 0 -1
2265 85.73857116699219 93.12134552001953 0 -1
2265 42.497535705566406 79.56090545654297 0 -1
2265 -11.346540451049805 50.70176696777344 0 -1
2265 88.83613586425781 28.942764282226562 0 -1
2265 47.28897476196289 68.87715148925781 0 -1
2265 -42.65571594238281 43.91862869262695 0 -1
2265 -32.966766357421875 60.664466857910156 0 -1
2265 6.965880870819092 74.46263122558594 0 -1
2265 -48.36007308959961 34.195770263671875 0 -1
2265 90.83787536621094 67.19815826416016 0 -1
2265 -30.51407814025879 24.76318359375 0 -1
2265 -79.54873657226562 20.706253051757812 0 -1
2265 5.782995223999023 25.304410934448242 0 -1
2265 -17.270774841308594 15.394634246826172 0 -1
2265 105.7298583984375 127.21279907226562 0 -1
2265 -46.40230178833008 21.547595977783203 0 -1
2265 56.734535217285156 47.94805145263672 0 -1
2265 64.66851806640625 75.37991333007812 0 -1
2265 67.84593963623047 22.56747817993164 0 -1
2265 108.82970428466797 29.305042266845703 1 -1
2265 27.783008575439453 35.40419006347656 0 -1
2265 59.9510383605957 112.28579711914062 0 -1
2265 51.09587097167969 11.195882797241211 0 -1
2265 88.68718719482422 114.05921173095703 0 -1
2265 47.2504997253418 56.396217346191406 0 -1
2265 -64.97058868408203 25.021268844604492 0 -1
2265 104.71691131591797 43.74803924560547 0 -1
2265 43.02450180053711 102.6502914428711 0 -1
2265 44.277130126953125 27.653417587280273 0 -1
2265 78.32994079589844 36.173091888427734 0 -1
2265 30.285213470458984 71.36614227294922 0 -1
2265 111.25927734375 113.82972717285156 1 -1
2265 42.6247673034668 40.92554473876953 0 -1
2265 -7.32260799407959 65.62741088867188 0 -1
2265 107.22760772705078 72.16582489013672 1 -1
2265 93.16049194335938 40.9910774230957 0 -1
2265 -29.01866340637207 36.72209930419922 0 -1
2265 -77.6672134399414 41.989166259765625 0 -1
2265 -34.19089889526367 82.59929656982422 0 -1
2265 68.0716781616211 121.08687591552734 0 -1
2265 -115.25489044189453 149.0844268798828 1 -1
2265 -39.26789855957031 112.19735717773438 0 -1
2265 -83.54910278320312 124.22750091552734 0 -1
2265 -58.40130615234375 125.87458801269531 0 -1
2265 -85.79219055175781 31.867097854614258 0 -1
2265 57.689056396484375 149.15219116210938 0 -1
2265 20.976985931396484 124.07942199707031 0 -1
2265 -15.906929969787598 144.28073120117188 0 -1
2265 -43.42912673950195 74.23661041259766 0 -1
2265 -21.93902587890625 68.06490325927734 0 -1
2265 -1.7214287519454956 111.30403900146484 0 -1
2265 -78.07060241699219 84.05050659179688 0 -1
2265 -48.38843536376953 137.87451171875 0 -1
2265 -66.6573257446289 103.20755004882812 0 -1
2265 -98.1650390625 128.05352783203125 0 -1
2265 -51.633567810058594 104.37207794189453 0 -1
2265 -36.97114562988281 100.23878479003906 0 -1
2265 63.384796142578125 135.0246124267578 0 -1
2265 34.527748107910156 127.25010681152344 0 -1
2265 15.999922752380371 90.5740966796875 0 -1
2265 54.36627960205078 125.75794982910156 0 -1
2265 -10.88427448272705 126.23181915283203 0 -1
2265 -113.52632141113281 38.77766799926758 1 -1
2265 -55.39723587036133 54.84952926635742 0 -1
2265 -78.64864349365234 54.854461669921875 0 -1
2265 -101.46614837646484 27.840866088867188 0 -1
2265 -57.47577667236328 148.59274291992188 0 -1
2265 -78.7712173461914 106.83232879638672 0 -1
2265 -109.88189697265625 138.1486358642578 0 -1
2265 -94.99488067626953 61.911651611328125 0 -1
2265 5.58110237121582 131.60345458984375 0 -1
2265 -38.15337371826172 147.6615447998047 0 -1
2265 -101.42875671386719 86.82975769042969 0 -1
2265 -103.09754180908203 49.36355972290039 0 -1
2265 -94.53684997558594 112.15814208984375 0 -1
2265 -84.52062225341797 137.4088134765625 0 -1
2265 -22.87440299987793 131.2277374267578 0 -1
2265 0.2469303458929062 148.24578857421875 0 -1
2265 37.15195083618164 144.1132354736328 0 -1
2265 16.899675369262695 110.27557373046875 0 -1
2265 -67.12730407714844 61.266414642333984 0 -1
2265 -88.65567779541016 97.3318099975586 0 -1
2265 51.22533416748047 139.5608367919922 0 -1
2265 -70.29508209228516 127.7564926147461 0 -1
2265 30.570537567138672 109.62555694580078 0 -1
2265 -89.04188537597656 78.10814666748047 0 -1
2265 -21.700531005859375 114.44084930419922 0 -1
2265 -61.976287841796875 73.12974548339844 0 -1
2265 -68.98927307128906 149.6492462158203 0 -1
2265 14.85050106048584 148.7398223876953 0 -1
2265 -110.57794189453125 97.2353744506836 0 -1
2265 -102.25621795654297 71.06521606445312 0 -1
2265 -54.902286529541016 88.2109375 0 -1
2265 5.489978313446045 101.35284423828125 0 -1
2265 -13.671566009521484 80.84102630615234 0 -1
2265 -9.685479164123535 102.5815200805664 0 -1
2265 -111.31929016113281 109.17039489746094 0 -1
2265 -19.747541427612305 93.78600311279297 0 -1
2265 107.02157592773438 144.75733947753906 0 -1
2263.806396484375 70.6390151977539 150 0 -1
2263.32958984375 -93.00529479980469 150 0 -1
2263.713134765625 -27.104076385498047 150 0 -1
2256.170654296875 -76.859619140625 150 0 -1
2260.744140625 27.30937957763672 150 0 -1
2258.24560546875 -64.89797973632812 10 0 -1
2255 48.33822250366211 23.445253372192383 0 -1
2255 111.80679321289062 35.70659637451172 1 -1
2255 21.91659927368164 38.0855598449707 0 -1
2255 96.56710815429688 128.0746307373047 0 -1
2255 35.95062255859375 85.00496673583984 0 -1
2255 52.902870178222656 76.00984191894531 0 -1
2255 25.380128860473633 55.27574920654297 0 -1
2255 -12.709465980529785 61.8185920715332 0 -1
2255 119.15115356445312 113.25691223144531 1 -1
2255 13.067272186279297 22.369932174682617 0 -1
2255 75.6713638305664 60.40861511230469 0 -1
2255 103.17024993896484 50.5926513671875 0 -1
2255 -4.800032615661621 27.361541748046875 0 -1
2255 -39.596187591552734 53.94559860229492 0 -1
2255 82.07685852050781 101.19755554199219 0 -1
2255 68.20488739013672 29.53533172607422 0 -1
2255 48.98862838745117 48.48719787597656 0 -1
2255 -5.904472351074219 41.01019287109375 0 -1
2255 -6.541023254394531 11.923617362976074 0 -1
2255 -90.2367172241211 21.697118759155273 0 -1
2255 86.1358642578125 40.55521774291992 0 -1
2255 -32.39854049682617 19.66181182861328 0 -1
2255 16.580530166625977 67.79202270507812 0 -1
2255 -35.850040435791016 32.53205871582031 0 -1
2255 51.64311599731445 36.9189338684082 0 -1
2255 101.82513427734375 12.05420970916748 0 -1
2255 96.75525665283203 76.82614135742188 0 -1
2255 107.9915771484375 89.16051483154297 0 -1
2255 -25.560646057128906 56.65425109863281 0 -1
2255 -19.597591400146484 21.74915313720703 0 -1
2255 -53.22574996948242 47.79143524169922 0 -1
2255 -100.08287048339844 16.305173873901367 0 -1
2255 78.56490325927734 124.19359588623047 0 -1
2255 99.16474914550781 104.61068725585938 0 -1
2255 62.81377029418945 86.39617156982422 0 -1
2255 22.262996673583984 81.61673736572266 0 -1
2255 38.9941520690918 66.01903533935547 0 -1
2255 3.8506228923797607 48.30991744995117 0 -1
2255 35.54541778564453 32.8809700012207 0 -1
2255 91.21034240722656 18.85252571105957 0 -1
2255 -56.952552795410156 23.645973205566406 0 -1
2255 81.09310150146484 82.42862701416016 0 -1
2255 108.08869934082031 60.84063720703125 0 -1
2255 -29.304752349853516 44.15336990356445 0 -1
2255 -16.577714920043945 33.69032287597656 0 -1
2255 63.87778854370117 44.606082916259766 0 -1
2255 96.9207763671875 32.79494857788086 0 -1
2255 69.60008239746094 112.1490478515625 0 -1
2255 63.4115104675293 66.63539123535156 0 -1
2255 108.83051300048828 137.4641876220703 0 -1
2255 112.21527099609375 22.201732635498047 1 -1
2255 56.237701416015625 101.36489868164062 0 -1
2255 28.81559944152832 95.91004180908203 0 -1
2255 78.76634216308594 21.49275779724121 0 -1
2255 -70.14251708984375 30.009267807006836 0 -1
2255 106.1803207397461 121.0812759399414 0 -1
2255 -53.043460845947266 94.65145111083984 0 -1
2255 -105.87432098388672 130.66912841796875 0 -1
2255 -55.16451644897461 60.72976303100586 0 -1
2255 -98.4306411743164 118.59010314941406 0 -1
2255 -67.59632873535156 68.48831176757812 0 -1
2255 79.88816833496094 148.66195678710938 0 -1
2255 -70.20906829833984 46.53080749511719 0 -1
2255 -115.84270477294922 80.76915740966797 1 -1
2255 24.91989517211914 138.65736389160156 0 -1
2255 -40.34442138671875 128.86026000976562 0 -1
2255 -47.45248031616211 114.9350814819336 0 -1
2255 -35.01448440551758 71.78719329833984 0 -1
2255 6.014181137084961 91.20872497558594 0 -1
2255 -41.78591537475586 101.87757873535156 0 -1
2255 -105.9931640625 102.82026672363281 0 -1
2255 -89.86823272705078 87.85087585449219 0 -1
2255 -112.94622039794922 119.96784973144531 1 -1
2255 49.56132125854492 129.08584594726562 0 -1
2255 36.393287658691406 133.39089965820312 0 -1
2255 -10.889302253723145 85.24752807617188 0 -1
2255 98.38688659667969 148.44644165039062 0 -1
2255 -8.273810386657715 119.50282287597656 0 -1
2255 -1.3023625612258911 101.78205108642578 0 -1
2255 71.0741195678711 136.2388153076172 0 -1
2255 -109.35293579101562 59.2724609375 1 -1
2255 -88.5759506225586 108.00708770751953 0 -1
2255 -94.70586395263672 69.53411865234375 0 -1
2255 -91.41400909423828 41.444114685058594 0 -1
2255 -20.62215232849121 121.24955749511719 0 -1
2255 58.288265228271484 141.23248291015625 0 -1
2255 -65.42252349853516 119.77589416503906 0 -1
2255 -21.82111167907715 74.85354614257812 0 -1
2255 22.7354793548584 116.79322814941406 0 -1
2255 1.6713837385177612 141.20896911621094 0 -1
2255 -11.262443542480469 147.02650451660156 0 -1
2255 -49.672725677490234 149.4062957763672 0 -1
2255 5.7706618309021 121.02487182617188 0 -1
2255 -60.08585739135742 109.43238067626953 0 -1
2255 -95.53780364990234 55.281429290771484 0 -1
2255 40.684059143066406 118.4466323852539 0 -1
2255 -105.42884063720703 143.04649353027344 0 -1
2255 15.848176956176758 130.8304443359375 0 -1
2255 88.99066925048828 138.5726776123047 0 -1
2255 -70.12296295166016 89.48596954345703 0 -1
2255 -19.293004989624023 101.65626525878906 0 -1
2255 -53.788272857666016 80.90504455566406 0 -1
2255 -90.07034301757812 142.2183074951172 0 -1
2255 -40.98273849487305 87.2578125 0 -1
2255 -77.96305847167969 113.9276351928711 0 -1
2255 -67.17552185058594 135.09210205078125 0 -1
2255 -27.431386947631836 139.3203125 0 -1
2255 12.038631439208984 101.49668884277344 0 -1
2255 -84.31767272949219 63.042057037353516 0 -1
2255 -23.699533462524414 86.16451263427734 0 -1
2255 -78.12449645996094 73.4336929321289 0 -1
2255 -30.189544677734375 111.96206665039062 0 -1
2541 212.2871856689453 92.85547637939453 0 -1
2541 208.6593017578125 138.85079956054688 0 -1
2541 213.40419006347656 107.63790130615234 0 -1
2541 219.58566284179688 41.15064239501953 1 -1
2541 215.77035522460938 128.52316284179688 0 -1
2599.687744140625 219.8236083984375 150 0 -1
2574.3671875 213.78689575195312 150 0 -1
2547.04736328125 219.73776245117188 150 0 -1
2614.92529296875 219.91781616210938 150 0 -1
2573.015380859375 220 66.5220947265625 0 -1
2608.284423828125 220 90.25166320800781 0 -1
2552.0849609375 220 123.88020324707031 0 -1
2642.580078125 220 134.13531494140625 0 -1
2637.390869140625 220 147.96937561035156 0 -1
2592.24462890625 220 96.60896301269531 0 -1
2563.913818359375 220 143.56527709960938 0 -1
2553.282958984375 220 137.10328674316406 0 -1
2634.499267578125 220 124.87394714355469 0 -1
2574.170654296875 220 120.21208190917969 0 -1
2547.105712890625 220 26.482318878173828 1 -1
2587.310302734375 220 73.31834411621094 0 -1
2600.7236328125 220 121.70626831054688 0 -1
2570.446533203125 220 133.495361328125 0 -1
2552.698486328125 220 81.68890380859375 1 -1
2585.83203125 220 121.71174621582031 0 -1
2579.6494140625 220 91.74765014648438 0 -1
2602.617431640625 220 106.2396469116211 0 -1
2621.427001953125 220 137.66262817382812 0 -1
2556.491943359375 220 94.86277770996094 0 -1
2598.337158203125 220 81.52783203125 0 -1
2550.830078125 220 65.59886932373047 1 -1
2562.998291015625 220 77.10147094726562 0 -1
2581.316162109375 220 103.9383316040039 0 -1
2607.0478515625 220 136.88241577148438 0 -1
2569.214599609375 220 99.5465316772461 0 -1
2614.56591796875 220 102.83440399169922 0 -1
2556.239013671875 220 43.77632141113281 0 -1
2578.084228515625 220 55.437950134277344 0 -1
2591.927490234375 220 133.78582763671875 0 -1
2614.477294921875 220 118.1243896484375 0 -1
2583.412109375 220 141.83184814453125 0 -1
2552.094482421875 220 109.57817077636719 1 -1
2541 211.0769500732422 74.40296936035156 0 -1
2660.26025390625 216.09132385253906 150 0 -1
2563.021240234375 207.2968292236328 150 0 -1
2601.322998046875 206.16314697265625 150 0 -1
2645.70361328125 207.7477569580078 150 0 -1
2625.01025390625 211.01071166992188 150 0 -1
2585.669677734375 205 127.72150421142578 0 -1
2571.308837890625 205 133.09596252441406 0 -1
2560.327392578125 205 134.93063354492188 0 -1
2593.081298828125 205 119.3514404296875 0 -1
2625.254150390625 205 107.27527618408203 0 -1
2610.650634765625 205 102.9342269897461 0 -1
2578.6572265625 205 67.35476684570312 0 -1
2571.743408203125 205 102.8048095703125 0 -1
2556.250244140625 205 112.04069519042969 1 -1
2562.664794921875 205 92.37012481689453 0 -1
2566.15625 205 74.96167755126953 0 -1
2589.76953125 205 73.8116226196289 0 -1
2551.773681640625 205 79.8187026977539 1 -1
2571.7705078125 205 56.05717849731445 0 -1
2549.324951171875 205 125.04685974121094 1 -1
2588.994140625 205 92.5392837524414 0 -1
2598.2685546875 205 98.5380859375 0 -1
2561.9892578125 205 64.16617584228516 0 -1
2556.300537109375 205 50.80542755126953 1 -1
2604.89501953125 205 130.13853454589844 0 -1
2616.12255859375 205 140.2293243408203 0 -1
2590.0322265625 205 149.85232543945312 0 -1
2654.734130859375 205 138.18206787109375 0 -1
2568.6572265625 205 119.20525360107422 0 -1
2603.094482421875 205 84.15203094482422 0 -1
2638.8466796875 205 136.58169555664062 0 -1
2666.072998046875 205 146.7674560546875 0 -1
2565.979248046875 205 39.958438873291016 0 -1
2628.34326171875 205 118.51996612548828 0 -1
2582.31005859375 205 140.49542236328125 0 -1
2595.662353515625 205 137.1671600341797 0 -1
2614.6875 205 123.80828094482422 0 -1
2624.86328125 205 131.40911865234375 0 -1
2586.822998046875 205 108.86772918701172 0 -1
2702.640869140625 219.2519989013672 141.41189575195312 0 -1
2690.749267578125 219.5848388671875 144.47293090820312 0 -1
2778.589111328125 214.45941162109375 121.86209869384766 0 -1
2677.93505859375 207.40594482421875 147.7714385986328 0 -1
2760.23291015625 206.0679931640625 126.58715057373047 0 -1
2725.071044921875 205.86093139648438 135.63818359375 0 -1
2700.48681640625 220 110.8294906616211 0 -1
2613.740234375 220 46.440433502197266 0 -1
2659.497314453125 220 84.47389221191406 0 -1
2670.25537109375 220 144.16798400878906 0 -1
2683.123046875 220 82.5065689086914 0 -1
2731.65283203125 220 117.75154113769531 0 -1
2671.1640625 220 126.87317657470703 0 -1
2637.842041015625 220 82.73523712158203 0 -1
2719.27490234375 220 132.31300354003906 0 -1
2751.3662109375 220 128.42791748046875 0 -1
2635.508544921875 220 112.6002197265625 0 -1
2576.380615234375 220 41.25374984741211 0 -1
2650.369384765625 220 74.62755584716797 0 -1
2664.560546875 220 114.41405487060547 0 -1
2704.432373046875 220 128.51419067382812 0 -1
2702.6240234375 220 99.52946472167969 0 -1
2718.541748046875 220 116.70695495605469 0 -1
2659.199951171875 220 101.36502838134766 0 -1
2690.826904296875 220 130.0400848388672 0 -1
2651.388427734375 220 113.38895416259766 0 -1
2670.769775390625 220 93.19877624511719 0 -1
2629.16162109375 220 49.009273529052734 0 -1
2600.498779296875 220 69.0637435913086 0 -1
2733.65576171875 220 100.27645111083984 0 -1
2648.08154296875 220 58.017005920410156 0 -1
2589.983642578125 220 44.10187911987305 0 -1
2613.6044921875 220 77.45445251464844 0 -1
2721.52490234375 220 92.07994842529297 0 -1
2561.67919921875 220 21.36029624938965 1 -1
2687.144287109375 220 115.48501586914062 0 -1
2637.844482421875 220 65.15294647216797 0 -1
2764.87060546875 220 115.50257873535156 0 -1
2622.701171875 220 65.6333236694336 0 -1
2709.52734375 220 86.39252471923828 0 -1
2750.50439453125 220 116.11007690429688 0 -1
2575.093994140625 220 26.044246673583984 0 -1
2657.247314453125 220 128.8632049560547 0 -1
2600.56787109375 220 49.719825744628906 0 -1
2698.001220703125 220 79.63107299804688 0 -1
2629.830322265625 220 94.37425231933594 0 -1
2686.399169921875 220 99.98750305175781 0 -1
2737.4296875 220 131.787109375 0 -1
2698.019775390625 205 129.78651428222656 0 -1
2652.8173828125 205 108.47576904296875 0 -1
2649.751708984375 205 85.00010681152344 0 -1
2578.912109375 205 45.77090072631836 0 -1
2724.727783203125 205 107.67166137695312 0 -1
2673.509521484375 205 101.08678436279297 0 -1
2671.221435546875 205 134.76156616210938 0 -1
2594.840087890625 205 56.94683074951172 0 -1
2622.389892578125 205 81.47772979736328 0 -1
2568.35107421875 205 22.963741302490234 1 -1
2697.789306640625 205 117.50286102294922 0 -1
2711.7275390625 205 88.07926177978516 0 -1
2604.3271484375 205 40.25077819824219 0 -1
2709.513671875 205 137.27020263671875 0 -1
2668.7587890625 205 84.58821105957031 0 -1
2624.4296875 205 56.62970733642578 0 -1
2653.9501953125 205 97.53145599365234 0 -1
2700.2568359375 205 91.54263305664062 0 -1
2726.5908203125 205 92.18177795410156 0 -1
2637.3271484375 205 79.8464126586914 0 -1
2751.01220703125 205 115.98050689697266 0 -1
2686.5546875 205 107.42665100097656 0 -1
2626.90234375 205 69.03917694091797 0 -1
2652.647705078125 205 122.98685455322266 0 -1
2685.885009765625 205 84.64776611328125 0 -1
2745.420166015625 205 102.46681213378906 0 -1
2738.1005859375 205 112.9334487915039 0 -1
2622.65283203125 205 95.21005249023438 0 -1
2774.974609375 205 113.22309875488281 0 -1
2667.420166015625 205 115.55184936523438 0 -1
2611.46533203125 205 52.89573287963867 0 -1
2647.72412109375 205 70.78824615478516 0 -1
2578.338623046875 205 27.509355545043945 0 -1
2637.50439453125 205 93.669677734375 0 -1
2736.109375 205 124.694091796875 0 -1
2604.405029296875 205 68.846435546875 0 -1
2700.182373046875 205 105.23934936523438 0 -1
2686.0283203125 205 130.11798095703125 0 -1
2693.554443359375 205 143.6615753173828 0 -1
2638.561279296875 205 61.68305587768555 0 -1
2713.3505859375 205 118.59961700439453 0 -1
2748.164306640625 205 127.68013000488281 0 -1
2589.71484375 205 40.93418502807617 0 -1
2665.923583984375 205 69.62386322021484 0 -1
2711.8779296875 205 105.451171875 0 -1
2757.988037109375 205 104.8265380859375 0 -1
2748.274169921875 220 99.0734634399414 0 -1
2797.06689453125 218.84693908691406 118.65436553955078 0 -1
2669.728271484375 220 64.99070739746094 0 -1
2794.462890625 205 117.83670043945312 0 -1
2658.06103515625 205 59.142723083496094 0 -1
2680.593994140625 205 67.79046630859375 0 -1
2738.2177734375 205 91.88826751708984 0 -1
2687.865478515625 220 69.87564849853516 0 -1
2622.555908203125 205 43.29222106933594 0 -1
2773.04931640625 220 102.88023376464844 0 -1
2809.31201171875 217.08128356933594 115.55561065673828 0 -1
2752.82421875 205 93.31451416015625 0 -1
2786.160400390625 205 99.63811492919922 0 -1
2744.81298828125 205 72.40904998779297 0 -1
2636.883056640625 205 47.099483489990234 0 -1
2808.294921875 205 113.3946533203125 0 -1
2670.617431640625 205 44.42757797241211 0 -1
2616.540771484375 205 33.063499450683594 0 -1
2772.71728515625 205 98.47174835205078 0 -1
2711.11181640625 205 61.697357177734375 0 -1
2773.160400390625 205 86.0227279663086 0 -1
2779.565185546875 205 67.90851593017578 0 -1
2683.781005859375 205 51.690162658691406 0 -1
2753.16455078125 205 61.1870002746582 0 -1
2800.846435546875 205 90.9247817993164 0 -1
2723.51416015625 205 80.63420867919922 0 -1
2631.820068359375 205 35.29463577270508 0 -1
2812.3935546875 205 92.62206268310547 0 -1
2796.863525390625 205 104.35710144042969 0 -1
2817.499267578125 205 75.46795654296875 0 -1
2766.472900390625 205 65.28470611572266 0 -1
2786.05712890625 205 82.46768951416016 0 -1
2716.944580078125 205 50.008216857910156 0 -1
2758.84228515625 205 81.03994750976562 0 -1
2712.625 205 75.96477508544922 0 -1
2697.17431640625 205 67.24213409423828 0 -1
2651.251708984375 205 45.69748306274414 0 -1
2697.689453125 205 50.24727249145508 0 -1
2827.227783203125 205 84.22689056396484 0 -1
2670.9638671875 205 57.42374801635742 0 -1
2799.3525390625 205 74.7340087890625 0 -1
2602.66748046875 205 26.179855346679688 0 -1
2733.79443359375 205 58.61279296875 0 -1
2842.974853515625 205 83.44893646240234 0 -1
2822.43212890625 208.68991088867188 108.73069763183594 0 -1
2831.69775390625 219.97682189941406 100.80634307861328 0 -1
2836.42236328125 208.75755310058594 95.16629791259766 0 -1
2845.80517578125 214.16099548339844 75.94019317626953 0 -1
2589.9580078125 205 20.66670036315918 1 -1
2685.443603515625 220 56.7535514831543 0 -1
2697.4638671875 220 56.36983108520508 0 -1
2740.092041015625 220 70.26332092285156 0 -1
2802.306396484375 220 68.95530700683594 0 -1
2789.9404296875 220 103.86344146728516 0 -1
2730.92431640625 220 61.02560043334961 0 -1
2750.072509765625 220 64.76876068115234 0 -1
2817.890869140625 220 81.90760040283203 0 -1
2740.430419921875 220 85.97737884521484 0 -1
2773.314453125 220 80.32530975341797 0 -1
2612.349853515625 220 34.96919631958008 0 -1
2719.289794921875 220 73.82904052734375 0 -1
2804.025146484375 220 101.5263900756836 0 -1
2809.6318359375 220 90.09068298339844 0 -1
2820.439208984375 220 70.02202606201172 0 -1
2774.5439453125 220 63.66781997680664 0 -1
2815.38427734375 220 105.02899169921875 0 -1
2788.185546875 220 67.70773315429688 0 -1
2692.956298828125 220 45.857242584228516 0 -1
2796.48095703125 220 81.68131256103516 0 -1
2658.35546875 220 49.3768424987793 0 -1
2756.4814453125 220 82.64708709716797 0 -1
2642.007568359375 220 45.81833267211914 0 -1
2833.40234375 220 78.24214172363281 0 -1
2626.227783203125 220 34.97476577758789 0 -1
2701.364013671875 220 69.08763122558594 0 -1
2711.132568359375 220 54.18115234375 0 -1
2822.361572265625 220 94.74331665039062 0 -1
2669.835205078125 220 44.193721771240234 0 -1
2592.170166015625 220 25.478832244873047 0 -1
2768.819580078125 220 92.0011215209961 0 -1
2792.02587890625 205 63.20444869995117 0 -1
2683.343017578125 220 37.84709548950195 0 -1
2762.01904296875 220 52.74640655517578 0 -1
2705.71533203125 205 41.80104446411133 0 -1
2691.1806640625 205 39.79905319213867 0 -1
2679.381591796875 205 36.58683395385742 0 -1
2750.440673828125 220 49.40432357788086 0 -1
2786.556396484375 220 55.930999755859375 0 -1
2750.376220703125 205 48.829429626464844 0 -1
2842.82275390625 205 67.68182373046875 0 -1
2762.324462890625 205 52.062591552734375 0 -1
2801.581787109375 220 56.905948638916016 0 -1
2847.867431640625 218.34912109375 63.86342239379883 0 -1
2815.1337890625 220 57.742740631103516 0 -1
2836.291259765625 220 61.17399597167969 0 -1
2732.33056640625 220 42.43473434448242 0 -1
2614.14453125 220 22.270872116088867 1 -1
2785.22900390625 205 50.09065246582031 0 -1
2817.505859375 205 56.30978775024414 0 -1
2745.29345703125 218.37109375 10 0 -1
2639.71435546875 215.7494659423828 10 0 -1
2617.320556640625 210.91357421875 10 0 -1
2576.73583984375 214.48358154296875 10 1 -1
2786.147705078125 207.23931884765625 10 0 -1
2771.173583984375 210.45533752441406 10 0 -1
2812.919677734375 215.9732208251953 10 0 -1
2825.50390625 212.03955078125 10 0 -1
2752.147705078125 209.75534057617188 10 0 -1
2847.13232421875 219.3793182373047 10 0 -1
2717.35693359375 205 17.580585479736328 1 -1
2715.878662109375 205 35.692665100097656 0 -1
2768.0673828125 205 37.414642333984375 0 -1
2759.505126953125 205 23.391817092895508 1 -1
2739.163330078125 205 33.58985137939453 0 -1
2695.05517578125 205 27.618854522705078 0 -1
2806.15234375 205 25.997709274291992 1 -1
2811.028076171875 205 14.305379867553711 1 -1
2834.7783203125 205 11.632033348083496 0 -1
2830.41748046875 205 37.11994934082031 0 -1
2779.406982421875 205 31.86669921875 0 -1
2639.860107421875 205 25.313047409057617 1 -1
2657.655517578125 205 26.717458724975586 0 -1
2843.4658203125 205 48.57234573364258 0 -1
2771.245849609375 205 22.410497665405273 1 -1
2622.31396484375 205 20.040084838867188 1 -1
2822.214111328125 205 21.47041130065918 1 -1
2795.081787109375 205 32.831111907958984 0 -1
2727.445068359375 205 23.945451736450195 1 -1
2680.62353515625 205 23.35578155517578 1 -1
2805.038818359375 205 43.837547302246094 0 -1
2787.2998046875 205 22.540748596191406 1 -1
2727.94384765625 205 36.40265655517578 0 -1
2835.489990234375 205 24.671939849853516 1 -1
2753.06201171875 205 35.99516677856445 0 -1
2831.741943359375 205 54.861637115478516 0 -1
2695.548095703125 205 13.648443222045898 1 -1
2731.515625 220 22.09494972229004 1 -1
2742.710693359375 220 28.309324264526367 0 -1
2670.57763671875 220 29.092117309570312 0 -1
2827.074462890625 220 49.63719940185547 0 -1
2756.459716796875 220 29.71516227722168 0 -1
2793.35791015625 220 11.50820255279541 0 -1
2837.259033203125 220 17.673320770263672 1 -1
2684.15673828125 220 20.43502426147461 1 -1
2762.161865234375 220 11.931418418884277 0 -1
2630.670166015625 220 20.570905685424805 1 -1
2784.37158203125 220 42.231773376464844 0 -1
2644.622314453125 220 25.499820709228516 1 -1
2837.024169921875 220 41.03627395629883 0 -1
2814.493408203125 220 40.23475646972656 0 -1
2723.544921875 220 31.371389389038086 0 -1
2797.318115234375 220 35.29846954345703 0 -1
2822.1728515625 220 19.61882209777832 1 -1
2777.7548828125 220 10.283295631408691 0 -1
2698.40576171875 220 16.567970275878906 1 -1
2778.46875 220 26.62139129638672 1 -1
2839.005126953125 220 28.73989486694336 1 -1
2652.779541015625 220 13.880675315856934 1 -1
2709.593017578125 220 32.486236572265625 0 -1
2804.245849609375 220 23.328929901123047 1 -1
2696.64111328125 220 32.24104690551758 0 -1
2770.634765625 220 43.426841735839844 0 -1
2848 215.47325134277344 42.92621994018555 0 -1
2848 206.41319274902344 15.422759056091309 1 -1
2848 209.51712036132812 27.751007080078125 1 -1
2085 80.85963439941406 55.118019104003906 0 -1
2085 -56.60146713256836 42.902313232421875 0 -1
2085 -41.55275344848633 36.14690399169922 0 -1
2085 57.08757400512695 19.078615188598633 0 -1
2085 43.383323669433594 12.806120872497559 0 -1
2085 35.693973541259766 40.4366569519043 0 -1
2085 86.28885650634766 92.01219177246094 0 -1
2085 66.49915313720703 28.074687957763672 0 -1
2085 106.84846496582031 76.87171173095703 0 -1
2085 101.70993041992188 46.52685546875 0 -1
2085 7.712882041931152 61.03669357299805 0 -1
2085 4.503323078155518 30.00934600830078 0 -1
2085 84.5857925415039 20.343629837036133 0 -1
2085 -29.394779205322266 15.108924865722656 0 -1
2085 63.00374221801758 61.440277099609375 0 -1
2085 21.60042953491211 34.60788345336914 0 -1
2085 -61.81409454345703 26.645692825317383 0 -1
2085 103.23165893554688 90.19219970703125 0 -1
2085 -48.564964294433594 25.07210922241211 0 -1
2085 -45.620548248291016 51.67707061767578 0 -1
2085 -21.831396102905273 65.46868896484375 0 -1
2085 -27.17268180847168 38.77702713012695 0 -1
2085 44.70387268066406 61.0523796081543 0 -1
2085 55.05158233642578 101.96900939941406 0 -1
2085 77.55719757080078 32.498443603515625 0 -1
2085 24.250682830810547 68.00335693359375 0 -1
2085 79.5011978149414 111.04950714111328 0 -1
2085 10.88664722442627 43.962791442871094 0 -1
2085 63.96367645263672 73.4142837524414 0 -1
2085 28.42778968811035 11.348808288574219 0 -1
2085 39.70648956298828 94.13481140136719 0 -1
2085 60.92952346801758 48.11946105957031 0 -1
2085 93.20557403564453 72.47728729248047 0 -1
2085 104.69407653808594 105.42362976074219 0 -1
2085 77.59457397460938 77.60403442382812 0 -1
2085 7.609635353088379 77.86316680908203 0 -1
2085 114.8047866821289 89.02395629882812 1 -1
2085 51.05237579345703 31.882675170898438 0 -1
2085 25.665552139282227 87.49014282226562 0 -1
2085 76.9892807006836 123.6788330078125 0 -1
2085 71.42185974121094 97.31694030761719 0 -1
2085 102.58453369140625 123.24112701416016 0 -1
2085 25.158849716186523 49.23432540893555 0 -1
2085 96.02923583984375 24.226831436157227 0 -1
2085 39.151058197021484 25.623031616210938 0 -1
2085 89.24335479736328 37.34039306640625 0 -1
2085 101.74746704101562 34.696502685546875 0 -1
2085 -10.100847244262695 24.832988739013672 0 -1
2085 43.529502868652344 83.48460388183594 0 -1
2085 -70.70511627197266 13.233315467834473 0 -1
2085 35.64411544799805 70.95274353027344 0 -1
2085 -6.1735639572143555 42.29117965698242 0 -1
2085 0.3871334195137024 16.690475463867188 0 -1
2085 -32.57878112792969 27.052724838256836 0 -1
2085 50.115638732910156 73.06022644042969 0 -1
2085 -78.1629867553711 26.38861846923828 0 -1
2090.172607421875 120 69.50242614746094 0 -1
2086.4404296875 120 129.92967224121094 1 -1
2085 -93.28126525878906 26.80771827697754 0 -1
2085 -20.851299285888672 92.89021301269531 0 -1
2085 18.87160301208496 115.67003631591797 0 -1
2085 -13.475798606872559 74.82048797607422 0 -1
2085 -63.38273239135742 134.97210693359375 0 -1
2085 -94.73628234863281 81.22895050048828 0 -1
2085 -1.7042659521102905 114.04716491699219 0 -1
