VERSION .7
FIELDS x y z label object
SIZE 4 4 4 4 4
TYPE F F F I I
COUNT 1 1 1 1 1
WIDTH 974
HEIGHT 1
POINTS 974
VIEWPOINT 0 0 0 1 0 0 0
DATA ascii
220.9397735595703 287.31298828125 122 1 -1
297.4155578613281 1411.5872802734375 122 0 -1
321.7220764160156 1484.6092529296875 122 0 -1
317.85198974609375 539.9295043945312 122 1 -1
311.4151611328125 1123.89599609375 122 0 -1
270.37823486328125 70.45555877685547 122 1 -1
246.48797607421875 541.3861694335938 122 0 -1
290.48388671875 1147.3133544921875 122 0 -1
317.58807373046875 371.82110595703125 122 1 -1
314.0606689453125 1672.07421875 122 0 -1
233.92092895507812 134.8357696533203 122 1 -1
292.9079895019531 1354.021484375 122 0 -1
291.9750061035156 571.3778076171875 122 1 -1
249.67147827148438 94.11553955078125 122 1 -1
287.2688903808594 1220.109375 122 0 -1
317.9817810058594 170.1462860107422 122 1 -1
231.94607543945312 76.58770751953125 122 1 -1
309.4781799316406 448.4293518066406 122 1 -1
249.79547119140625 655.7588500976562 122 0 -1
313.637451171875 414.8814697265625 122 1 -1
229.11624145507812 351.7716064453125 122 1 -1
205.49549865722656 71.26069641113281 122 1 -1
273.7698059082031 1144.5001220703125 122 0 -1
246.3316650390625 465.9069519042969 122 1 -1
279.5981140136719 285.70233154296875 122 1 -1
322.0040283203125 1131.09716796875 122 0 -1
265.75994873046875 313.23297119140625 122 1 -1
291.3018493652344 812.2161254882812 122 0 -1
295.10693359375 154.57376098632812 122 1 -1
295.9537048339844 1281.33642578125 122 0 -1
287.22607421875 1076.3094482421875 122 0 -1
301.3416442871094 91.99017333984375 122 1 -1
314.2495422363281 1174.8714599609375 122 0 -1
308.693603515625 1920.20654296875 122 0 -1
298.9444580078125 1123.8258056640625 122 0 -1
275.9918212890625 194.75682067871094 122 1 -1
248.3612823486328 127.039794921875 122 1 -1
238.55348205566406 213.91793823242188 122 1 -1
321.8084411621094 1148.7117919921875 122 0 -1
309.2709655761719 490.8971252441406 122 1 -1
256.6244812011719 421.9015197753906 122 1 -1
323.2065124511719 1114.0780029296875 121.96871185302734 0 -1
323.223876953125 1318.3824462890625 121.96802520751953 0 -1
323.1435546875 1381.1373291015625 121.97118377685547 0 -1
323.31243896484375 1743.885498046875 121.96455383300781 0 -1
323.3048095703125 2070.21826171875 121.96485137939453 0 -1
322.46502685546875 1029.2261962890625 121.99784088134766 0 -1
322.6604919433594 1878.5931396484375 121.99015808105469 0 -1
322.9041748046875 572.37548828125 115.9740982055664 0 -1
322.6500244140625 1297.5313720703125 115.98741912841797 0 -1
322.53179931640625 2032.08251953125 115.99361419677734 0 -1
323.6437683105469 2187.177490234375 121.93208312988281 0 -1
323.94927978515625 1939.328857421875 121.89591979980469 0 -1
323.62359619140625 683.1351318359375 121.9344711303711 1 -1
323.8272399902344 1985.2569580078125 121.91036224365234 0 -1
323.463623046875 231.8650360107422 121.95340728759766 0 -1
323.9812316894531 2055.97314453125 121.89214324951172 0 -1
323.93463134765625 1861.5994873046875 121.89765930175781 0 -1
324.2745056152344 380.375732421875 121.85742950439453 0 -1
324.1430969238281 245.34934997558594 121.87297821044922 0 -1
324.3329162597656 394.1683044433594 121.85050964355469 0 -1
323.9393615722656 427.70440673828125 121.8970947265625 0 -1
323.5202941894531 803.6072998046875 115.89714813232422 0 -1
323.52508544921875 1785.6484375 115.8963851928711 0 -1
324.4197692871094 1901.134521484375 121.83699035644531 0 -1
324.70794677734375 947.590087890625 121.77965545654297 0 -1
324.5354309082031 832.4991455078125 121.81397247314453 0 -1
324.9735107421875 1731.811279296875 121.72682189941406 0 -1
324.6228332519531 1678.7525634765625 121.79659271240234 0 -1
324.6460266113281 276.86822509765625 121.7919692993164 0 -1
323.950927734375 877.7593383789062 115.81023406982422 0 -1
325.6756591796875 2153.427001953125 121.56000518798828 0 -1
325.8627014160156 1513.0596923828125 121.50726318359375 0 -1
325.8114318847656 1422.1229248046875 121.52172088623047 0 -1
325.9916687011719 1974.440185546875 121.47089385986328 0 -1
325.69049072265625 1448.0982666015625 121.55582427978516 0 -1
325.92938232421875 2098.37646484375 121.48845672607422 0 -1
325.37152099609375 346.85302734375 121.6457748413086 0 -1
325.87896728515625 1001.9916381835938 121.50267028808594 0 -1
326.0313720703125 1547.165771484375 121.4596939086914 0 -1
326.2373046875 1332.5186767578125 121.40161895751953 0 -1
324.63800048828125 1851.7569580078125 115.60395050048828 0 -1
324.7881164550781 1557.778564453125 115.54632568359375 0 -1
326.55450439453125 1169.7139892578125 121.29008483886719 0 -1
326.8376159667969 1581.1259765625 121.18563079833984 0 -1
326.5843811035156 905.7403564453125 121.27906036376953 0 -1
326.58258056640625 1065.3133544921875 121.27973175048828 0 -1
326.8375549316406 1959.844482421875 121.18566131591797 0 -1
326.5112609863281 595.7264404296875 121.30603790283203 0 -1
326.90496826171875 726.8320922851562 121.1607894897461 0 -1
326.6957092285156 142.23703002929688 121.23798370361328 0 -1
326.8692321777344 201.31973266601562 121.17396545410156 0 -1
326.41595458984375 96.6253890991211 121.34120178222656 0 -1
328.01898193359375 156.8170928955078 120.67698669433594 0 -1
327.8899230957031 843.7415161132812 120.73648834228516 0 -1
327.6293029785156 409.6773681640625 120.85662078857422 0 -1
327.7350769042969 1838.159912109375 120.80786895751953 0 -1
327.9151611328125 1912.913818359375 120.72484588623047 0 -1
327.7738342285156 2020.180419921875 120.79000091552734 0 -1
328.3419189453125 1595.1273193359375 120.50670623779297 0 -1
328.4046325683594 2044.1551513671875 120.47158813476562 0 -1
328.6306457519531 1652.0457763671875 120.34500885009766 0 -1
328.67242431640625 2117.647705078125 120.32161712646484 0 -1
328.90582275390625 933.6431884765625 120.19090270996094 0 -1
326.20623779296875 369.53173828125 114.79157257080078 0 -1
329.0889587402344 547.5707397460938 120.07744598388672 0 -1
329.0741271972656 311.13958740234375 120.08734893798828 0 -1
329.1072082519531 2167.32275390625 120.06525421142578 0 -1
329.63677978515625 188.24899291992188 119.71139526367188 0 -1
329.7292175292969 1639.9332275390625 119.64962005615234 0 -1
329.3905029296875 764.77587890625 119.8759536743164 0 -1
329.539306640625 534.954345703125 119.77651977539062 0 -1
326.3780517578125 1310.3326416015625 114.66483306884766 0 -1
326.5310974121094 2080.34912109375 114.5409164428711 0 -1
330.0284118652344 1082.5543212890625 119.42349243164062 0 -1
330.0773010253906 1190.2930908203125 119.38495635986328 0 -1
330.1357727050781 1667.7384033203125 119.3388671875 0 -1
329.9635925292969 471.0961608886719 119.47459411621094 0 -1
330.2384948730469 110.67061614990234 119.25790405273438 0 -1
330.35760498046875 920.4308471679688 119.16400909423828 0 -1
330.5339660644531 560.7672729492188 119.02499389648438 0 -1
330.2023620605469 255.11598205566406 119.28639221191406 0 -1
331.0166931152344 961.6030883789062 118.58595275878906 0 -1
331.028564453125 814.2454223632812 118.57496643066406 0 -1
330.79742431640625 662.5055541992188 118.78861999511719 0 -1
331.0639343261719 618.2449951171875 118.5422592163086 0 -1
331.0990905761719 1217.464599609375 118.5097885131836 0 -1
331.00347900390625 1923.9442138671875 118.59815216064453 0 -1
330.64239501953125 1275.9669189453125 118.93193817138672 0 -1
327.0604553222656 1347.3525390625 114.06645965576172 0 -1
331.5655822753906 1369.6392822265625 118.03868865966797 0 -1
331.3434753417969 693.3424072265625 118.27899932861328 0 -1
331.33905029296875 1611.349609375 118.28378295898438 0 -1
331.6600036621094 1872.665283203125 117.93656158447266 0 -1
331.5537109375 1689.54833984375 118.05156707763672 0 -1
331.6288757324219 1241.5478515625 117.9702377319336 0 -1
331.8103942871094 855.9717407226562 117.77387237548828 0 -1
331.565185546875 516.32421875 118.03913879394531 0 -1
331.89862060546875 170.79432678222656 117.67841339111328 0 -1
331.7999572753906 780.0117797851562 117.78514099121094 0 -1
331.9373474121094 1287.2921142578125 117.63653564453125 0 -1
332.01898193359375 1773.810302734375 117.54159545898438 0 -1
332.36236572265625 1891.459228515625 117.10596466064453 0 -1
332.3797607421875 1525.16748046875 117.08389282226562 0 -1
332.25299072265625 81.2122802734375 117.24470520019531 0 -1
332.4620361328125 1438.880859375 116.9795150756836 0 -1
332.4441833496094 741.41552734375 117.00215911865234 0 -1
332.43731689453125 980.2249755859375 117.01087188720703 0 -1
332.4376220703125 498.8885803222656 117.010498046875 0 -1
332.4048156738281 1489.826171875 117.0521011352539 0 -1
332.390625 1011.8463745117188 117.07012176513672 0 -1
328.04119873046875 1797.644775390625 112.82186889648438 0 -1
327.9131774902344 1454.618408203125 113.01898193359375 0 -1
332.7086181640625 1150.17236328125 116.6408920288086 0 -1
332.9184875488281 2146.5732421875 116.32684326171875 0 -1
332.874267578125 1393.33544921875 116.39302062988281 0 -1
332.8264465332031 638.3349609375 116.46456146240234 0 -1
332.7821960449219 714.3275146484375 116.53079223632812 0 -1
333.4854431152344 1126.018310546875 115.3799057006836 0 -1
333.5086975097656 122.79722595214844 115.33838653564453 0 -1
333.345458984375 423.27728271484375 115.62986755371094 0 -1
333.56103515625 1031.89208984375 115.24491882324219 0 -1
333.2032165527344 1827.5804443359375 115.88385772705078 0 -1
333.1703186035156 578.9009399414062 115.94255828857422 0 -1
333.21197509765625 2128.18310546875 115.86820220947266 0 -1
333.3478698730469 1626.002685546875 115.62554168701172 0 -1
328.20428466796875 606.4732055664062 112.533935546875 0 -1
328.2419738769531 326.80859375 112.4599380493164 0 -1
328.3921813964844 1701.1734619140625 112.16520690917969 0 -1
328.36334228515625 1500.726318359375 112.22180938720703 0 -1
332.87335205078125 2199 114.33345031738281 0 -1
333.9753723144531 1964.697265625 114.37169647216797 0 -1
333.7533264160156 896.7130126953125 114.8533706665039 0 -1
333.72271728515625 1568.6539306640625 114.91979217529297 0 -1
333.65673828125 1935.056396484375 115.06290435791016 0 -1
333.659912109375 2184.084228515625 115.05608367919922 0 -1
334.0185241699219 1115 114.27802276611328 0 -1
333.77923583984375 283.96966552734375 114.79718017578125 0 -1
333.88177490234375 69.30992126464844 114.57473754882812 0 -1
333.7781066894531 682.8212280273438 114.79961395263672 0 -1
334.08856201171875 1428.4130859375 114.1006851196289 0 -1
334.19573974609375 1948.250244140625 113.81018829345703 0 -1
334.0542907714844 910.3164672851562 114.1935806274414 0 -1
334.1955871582031 2067.59765625 113.81060791015625 0 -1
334.1770935058594 1254.7811279296875 113.86074829101562 0 -1
334.0794982910156 486.34906005859375 114.12525939941406 0 -1
334.31304931640625 1678.684326171875 113.49224090576172 0 -1
334.0821838378906 269.3612060546875 114.11801147460938 0 -1
334.1700439453125 399.7428283691406 113.87980651855469 0 -1
334.2898254394531 1055.321533203125 113.55520629882812 0 -1
334.25616455078125 223.6357879638672 113.64640045166016 0 -1
328.7545471191406 339.5739440917969 111.15874481201172 0 -1
328.7322998046875 296.18994140625 111.2418212890625 0 -1
328.8514099121094 1480.118896484375 110.7972183227539 0 -1
328.8545227050781 1902.73291015625 110.78559875488281 0 -1
334.3991394042969 1101.231201171875 113.24605560302734 0 -1
334.4664001464844 1202.2962646484375 113.00757598876953 0 -1
334.5149230957031 2003.9322509765625 112.8354721069336 0 -1
334.60791015625 796.4190673828125 112.50582122802734 0 -1
334.6440124511719 651.2660522460938 112.3777847290039 0 -1
334.54974365234375 200.73529052734375 112.71200561523438 0 -1
334.62603759765625 1807.534912109375 112.44146728515625 0 -1
334.7256774902344 828.3106689453125 111.979248046875 0 -1
334.8345642089844 2019.693603515625 111.43190002441406 0 -1
334.79620361328125 45.084434509277344 111.62482452392578 0 -1
334.79364013671875 1985.2099609375 111.63761138916016 0 -1
334.67657470703125 870.7276611328125 112.22600555419922 0 -1
334.6711120605469 385.7956848144531 112.25360870361328 0 -1
334.7991027832031 2101.314453125 111.6102523803711 0 -1
334.6632995605469 1852.5582275390625 112.29280853271484 0 -1
334.7247314453125 2157.515625 111.9839859008789 0 -1
328.89776611328125 1180.8489990234375 110.51630401611328 0 -1
334.8697814941406 1160.8668212890625 111.17008972167969 0 -1
334.8804016113281 316.50115966796875 111.08049774169922 0 -1
334.8911437988281 135.2410125732422 110.98977661132812 0 -1
328.9779052734375 102.8636474609375 109.83181762695312 0 -1
328.9873046875 476.3114929199219 109.65215301513672 0 -1
328.9737854003906 1763.87353515625 109.91044616699219 0 -1
328.98095703125 1602.0042724609375 109.77325439453125 0 -1
328.9729309082031 1725.8416748046875 109.92664337158203 0 -1
328.988525390625 1019.2723999023438 109.62866973876953 0 -1
334.97528076171875 968.9356689453125 110.03913879394531 0 -1
334.96917724609375 1535.799072265625 110.19497680664062 0 -1
334.9674377441406 1069.585693359375 110.23916625976562 0 -1
334.9668884277344 593.38037109375 110.25332641601562 0 -1
334.9733581542969 1587.6827392578125 110.08827209472656 0 -1
334.9746398925781 348.796875 110.0555191040039 0 -1
334.9811706542969 672.8238525390625 109.88961029052734 0 -1
334.99871826171875 553.63818359375 109.44264221191406 0 -1
334.9980163574219 258.79998779296875 109.46086120605469 0 -1
334.9991149902344 459.6476135253906 109.43219757080078 0 -1
330.9468994140625 44 98.92752075195312 0 -1
335 496.4373779296875 105.85836791992188 0 -1
335 1758.46826171875 103.11141204833984 1 -1
335 276.16534423828125 105.41503143310547 0 -1
335 1341.1588134765625 94.54073333740234 1 -1
335 521.5160522460938 102.79832458496094 0 -1
335 1902.7530517578125 102.32860565185547 1 -1
335 535.833740234375 106.24287414550781 0 -1
335 2031.69580078125 102.74414825439453 1 -1
335 1009.67431640625 88.87995147705078 1 -1
335 986.1240844726562 94.30427551269531 1 -1
335 924.985595703125 107.72848510742188 0 -1
335 1840.333984375 104.2761459350586 1 -1
335 1371.72509765625 92.8570556640625 1 -1
335 1519.4305419921875 107.11412048339844 0 -1
335 243.83546447753906 109.36023712158203 0 -1
335 1920.359130859375 106.60545349121094 1 -1
335 1312.905517578125 100.65855407714844 1 -1
335 849.5405883789062 98.21399688720703 0 -1
335 1464.0892333984375 104.73504638671875 0 -1
335 891.9149780273438 104.65789031982422 0 -1
335 1237.5589599609375 108.39421081542969 0 -1
335 795.1738891601562 97.1807632446289 0 -1
335 1125.0009765625 102.2365493774414 0 -1
335 1075.731201171875 97.52392578125 1 -1
335 1554.1702880859375 94.96861267089844 1 -1
335 1212.526123046875 107.09115600585938 0 -1
335 1415.830810546875 83.15787506103516 1 -1
335 1438.2625732421875 85.37935638427734 1 -1
335 1584.0364990234375 96.48464965820312 1 -1
335 1865.176025390625 109.30130767822266 0 -1
335 1084.2679443359375 106.79430389404297 0 -1
335 1631.1204833984375 87.76685333251953 1 -1
335 1521.6165771484375 91.66053009033203 1 -1
335 1509.1448974609375 86.0799331665039 1 -1
335 1876.7529296875 102.98956298828125 1 -1
335 1358.7127685546875 96.230224609375 1 -1
335 1199.992919921875 96.29228973388672 1 -1
335 1497.3165283203125 101.74411010742188 1 -1
335 1647.0308837890625 106.98609924316406 0 -1
335 1091.898681640625 95.71171569824219 1 -1
335 1372.8470458984375 105.78315734863281 0 -1
335 722.3665161132812 95.98588562011719 0 -1
335 1537.777099609375 90.30186462402344 1 -1
335 881.30908203125 108.76896667480469 0 -1
335 1290.4676513671875 89.87303924560547 1 -1
335 685.3872680664062 98.23855590820312 0 -1
335 836.31982421875 103.43556213378906 0 -1
335 1136.5345458984375 108.87606048583984 0 -1
335 1604.53076171875 101.23304748535156 1 -1
335 1790.2103271484375 105.29220581054688 1 -1
335 1476.381103515625 100.5557861328125 1 -1
335 1040.68115234375 102.70352935791016 0 -1
335 1688.97509765625 91.76307678222656 1 -1
335 1262.5394287109375 91.91069793701172 1 -1
335 363.3284606933594 105.15180969238281 0 -1
335 1269.4227294921875 108.4072494506836 0 -1
335 1389.98193359375 94.08911895751953 1 -1
335 1663.370361328125 105.0689468383789 1 -1
335 1316.3055419921875 88.64266967773438 1 -1
335 447.3168640136719 101.93327331542969 0 -1
335 1248.451416015625 97.4742660522461 1 -1
335 1114.6285400390625 94.17485046386719 1 -1
335 1733.319580078125 98.46727752685547 1 -1
335 1605.7508544921875 88.49287414550781 1 -1
335 1827.4761962890625 105.44335174560547 1 -1
335 1324.407958984375 107.07891082763672 0 -1
335 1180.79345703125 100.82691192626953 0 -1
335 668.9193725585938 98.32661437988281 0 -1
335 1737.978271484375 109.29655456542969 0 -1
335 612.8513793945312 104.81549835205078 0 -1
335 1973.055419921875 106.5786361694336 1 -1
335 1448.70166015625 106.36992645263672 0 -1
335 929.776611328125 96.1457748413086 0 -1
335 2045.509033203125 108.90043640136719 1 -1
335 1620.26220703125 92.82886505126953 1 -1
335 1190.58349609375 107.04927062988281 0 -1
335 849.1534423828125 108.66271209716797 0 -1
335 1274.0289306640625 96.69197845458984 1 -1
335 1959.8861083984375 102.39067077636719 1 -1
335 758.4339599609375 109.21992492675781 0 -1
335 1169.3870849609375 95.60884094238281 1 -1
335 729.677490234375 104.36186981201172 0 -1
335 1021.9664916992188 94.03372192382812 1 -1
335 289.096435546875 98.17840576171875 0 -1
335 403.3746032714844 87.17256927490234 1 -1
335 317.6278991699219 94.67919921875 0 -1
335 208.90008544921875 100.86581420898438 0 -1
335 295.35699462890625 78.25926208496094 1 -1
335 121.87090301513672 87.75446319580078 0 -1
335 181.36216735839844 98.19354248046875 0 -1
335 330.9298400878906 91.40107727050781 0 -1
335 104.48277282714844 84.2697525024414 1 -1
335 276.8433532714844 86.02513885498047 1 -1
335 162.7482452392578 83.63560485839844 1 -1
335 244.32774353027344 82.6182632446289 1 -1
335 146.6508331298828 97.04188537597656 0 -1
335 468.17919921875 87.40831756591797 1 -1
335 89.14569091796875 87.6038818359375 0 -1
335 235.00045776367188 90.70970916748047 0 -1
335 110.25405883789062 100.37218475341797 0 -1
335 198.30274963378906 88.09630584716797 0 -1
335 160.32778930664062 94.4820785522461 0 -1
335 258.8758544921875 97.42308807373047 0 -1
335 424.26007080078125 82.26829528808594 1 -1
335 653.235107421875 78.9154281616211 1 -1
335 122.69911193847656 99.65011596679688 0 -1
335 219.52183532714844 87.44602966308594 0 -1
335 602.4662475585938 83.45501708984375 1 -1
335 1055.518798828125 84.53762817382812 1 -1
335 333.7792663574219 102.07908630371094 0 -1
335 397.6894226074219 100.07280731201172 0 -1
335 351.84014892578125 98.60462951660156 0 -1
335 723.3656616210938 81.41598510742188 1 -1
335 513.828857421875 94.39813232421875 0 -1
335 783.6268310546875 87.39401245117188 1 -1
335 1260.04150390625 80.69723510742188 1 -1
335 802.9649658203125 87.3478012084961 1 -1
335 233.7474365234375 105.08727264404297 0 -1
335 494.4684753417969 91.89332580566406 0 -1
335 939.8438720703125 88.43301391601562 1 -1
335 1132.594970703125 79.67939758300781 1 -1
335 1018.8618774414062 79.83447265625 1 -1
335 693.9869384765625 90.90123748779297 1 -1
335 559.5586547851562 92.70466613769531 0 -1
335 526.4638671875 91.68241119384766 0 -1
335 1088.5491943359375 85.46305084228516 1 -1
335 480.555419921875 98.40589904785156 0 -1
335 639.6720581054688 93.8609619140625 0 -1
335 872.363037109375 89.87374114990234 1 -1
335 89.72964477539062 107.57345581054688 0 -1
335 746.1915283203125 91.0325927734375 1 -1
335 155.57870483398438 106.05425262451172 0 -1
335 829.5642700195312 90.33264923095703 1 -1
335 911.4624633789062 85.02384185791016 1 -1
335 431.408935546875 98.86698150634766 0 -1
335 769.0626220703125 80.57781219482422 1 -1
329 53.39234161376953 89.03717803955078 0 -1
329 65.24007415771484 84.22582244873047 1 -1
329 76.65056610107422 87.57491302490234 0 -1
329 98.8775634765625 74.80256652832031 1 -1
329 344.9664306640625 89.70441436767578 0 -1
329 150.93736267089844 83.2027587890625 1 -1
329 170.73101806640625 92.45105743408203 0 -1
329 448.34698486328125 79.06130981445312 1 -1
329 277.96337890625 95.7946548461914 0 -1
329 198.1747283935547 99.14579010009766 0 -1
329 440.51702880859375 91.72189331054688 0 -1
329 388.0380859375 90.34119415283203 0 -1
329 460.0984191894531 80.88178253173828 1 -1
329 99.03588104248047 92.24253845214844 0 -1
329 66.92057800292969 101.00663757324219 0 -1
329 286.1231689453125 83.16551971435547 1 -1
329 208.94717407226562 86.61414337158203 0 -1
329 246.30313110351562 97.0135726928711 0 -1
329 296.6931457519531 89.67391967773438 0 -1
329 362.3134460449219 91.89198303222656 0 -1
329 188.85861206054688 91.22146606445312 0 -1
329 308.07073974609375 89.8704833984375 0 -1
329 481.21795654296875 87.0472640991211 1 -1
329 410.7738342285156 93.25382995605469 0 -1
329 221.91363525390625 101.25350189208984 0 -1
329 135.7471160888672 89.05500793457031 0 -1
329 77.28397369384766 107.15775299072266 0 -1
329 568.9339599609375 85.69147491455078 1 -1
329 111.63372039794922 91.23944091796875 0 -1
329 509.994140625 82.4987564086914 1 -1
329 257.1016845703125 84.05766296386719 1 -1
329 542.8394775390625 78.33472442626953 1 -1
329 56.85620880126953 108.35174560546875 0 -1
329 83.66847229003906 97.3481674194336 0 -1
329.57867431640625 267.32415771484375 78 1 -1
332.6065979003906 333.2295227050781 78 1 -1
331.5816955566406 87.3017807006836 73 0 -1
329 689.0040283203125 81.85726165771484 1 -1
329 1634.596923828125 105.91494750976562 0 -1
329 1529.2467041015625 101.91596221923828 1 -1
329 505.1374206542969 96.87667083740234 0 -1
329 176.27572631835938 106.42573547363281 0 -1
329 1467.2802734375 93.34306335449219 1 -1
329 973.6624755859375 99.14682006835938 0 -1
329 1261.26025390625 102.97010040283203 0 -1
329 584.3347778320312 103.38928985595703 0 -1
329 1029.2213134765625 101.92507934570312 0 -1
329 743.643310546875 99.501953125 0 -1
329 986.9354248046875 105.60908508300781 0 -1
329 885.5381469726562 95.35511016845703 0 -1
329 898.0289916992188 89.52906799316406 1 -1
329 960.2581176757812 89.28634643554688 1 -1
329 627.1339111328125 102.68223571777344 0 -1
329 1077.8167724609375 88.09373474121094 1 -1
329 1685.8885498046875 107.08563232421875 0 -1
329 642.7567749023438 84.93818664550781 1 -1
329 998.5889892578125 109.13539123535156 0 -1
329 1093.825439453125 107.1452865600586 0 -1
329 904.381591796875 104.94110107421875 0 -1
329 598.7001342773438 98.52438354492188 0 -1
329 787.2780151367188 108.2833480834961 0 -1
329 1361.0928955078125 105.68367767333984 0 -1
329 679.7426147460938 88.75297546386719 1 -1
329 1224.452880859375 108.50267791748047 0 -1
329 1748.3406982421875 105.93608856201172 1 -1
329 542.2147827148438 91.20358276367188 0 -1
329 1157.7921142578125 88.25324249267578 1 -1
329 1996.2803955078125 106.85623168945312 1 -1
329 1104.9791259765625 99.07880401611328 0 -1
329 433.81304931640625 109.01213836669922 0 -1
329 1594.1138916015625 100.86140441894531 1 -1
329 948.1574096679688 106.72767639160156 0 -1
329 1327.5455322265625 98.47589111328125 1 -1
329 508.0484924316406 108.94194030761719 0 -1
329 266.3218688964844 102.14547729492188 0 -1
329 375.3075866699219 101.16819763183594 0 -1
329 1212.212890625 96.98682403564453 1 -1
329 1399.316650390625 105.1736068725586 0 -1
329 469.0760803222656 99.68763732910156 0 -1
329 702.1380004882812 84.84539794921875 1 -1
329 961.3718872070312 103.969970703125 0 -1
329 1236.606689453125 98.09840393066406 1 -1
329 1009.8262939453125 102.85913848876953 0 -1
329 453.7418212890625 94.24718475341797 0 -1
329 998.2627563476562 86.84384155273438 1 -1
329 1304.305908203125 105.08445739746094 0 -1
329 1058.6683349609375 103.19507598876953 0 -1
329 1146.7359619140625 86.80265045166016 1 -1
329 189.95394897460938 108.32931518554688 0 -1
329 803.994140625 102.2354736328125 0 -1
329 1137.2354736328125 99.23825073242188 0 -1
329 592.259521484375 87.15486907958984 1 -1
329 405.4869079589844 105.96880340576172 0 -1
329 563.6842651367188 105.55252838134766 0 -1
329 637.9979248046875 103.15723419189453 0 -1
329 774.2341918945312 103.68081665039062 0 -1
329 690.48193359375 106.47428131103516 0 -1
329 1455.0506591796875 95.80370330810547 1 -1
329 1125.7191162109375 90.7383804321289 1 -1
329 574.2569580078125 95.57202911376953 0 -1
329 1695.619140625 99.62844848632812 1 -1
329 1045.2803955078125 89.71528625488281 1 -1
329 1674.024169921875 99.90594482421875 1 -1
329 1151.0076904296875 102.78019714355469 0 -1
329 713.8744506835938 103.90201568603516 0 -1
329 731.2277221679688 91.83560180664062 1 -1
329 1292.5301513671875 100.98310089111328 0 -1
329 1709.227783203125 104.03453063964844 1 -1
329 881.7706298828125 81.99573516845703 1 -1
329 862.6847534179688 91.55780029296875 1 -1
329 389.32794189453125 102.3160171508789 0 -1
329 1656.0079345703125 97.86144256591797 1 -1
329 716.2697143554688 87.75279998779297 1 -1
329 826.0569458007812 101.70539093017578 0 -1
329 422.48724365234375 103.87017822265625 0 -1
329 1401.3349609375 93.47905731201172 1 -1
329 1577.6275634765625 109.27127075195312 0 -1
329 657.876708984375 103.03791046142578 0 -1
329 610.818603515625 93.8032455444336 0 -1
329 143.33815002441406 106.6164321899414 0 -1
329 659.2044677734375 86.25240325927734 1 -1
329 785.47802734375 97.38470458984375 0 -1
329 1413.6412353515625 106.8868179321289 0 -1
329 1065.730224609375 87.90247344970703 1 -1
329 909.2578735351562 95.81978607177734 0 -1
329 1413.95458984375 94.80413055419922 1 -1
329 1335.1904296875 108.81571960449219 0 -1
329 544.3436889648438 104.60884857177734 0 -1
329 860.9735717773438 106.94520568847656 0 -1
329 937.3462524414062 103.38397979736328 0 -1
329 843.4390869140625 88.11355590820312 1 -1
329 1543.2584228515625 102.0942153930664 1 -1
329 1281.7774658203125 104.82868957519531 0 -1
329 1443.714599609375 95.27883911132812 1 -1
329 1816.997314453125 106.69326782226562 1 -1
329 1186.3873291015625 91.08771514892578 1 -1
329 762.26806640625 93.6501235961914 1 -1
329 1383.2386474609375 99.8409423828125 1 -1
329 1429.1923828125 104.04967498779297 0 -1
329 1030.5169677734375 87.6059341430664 1 -1
329 1617.5101318359375 106.608642578125 0 -1
329 815.0699462890625 106.81245422363281 0 -1
329 622.9644775390625 90.54953002929688 1 -1
329 812.7706298828125 91.83177947998047 1 -1
329 923.9096069335938 89.03202056884766 1 -1
329 1349.7847900390625 90.7140884399414 1 -1
329 1508.0933837890625 96.14208984375 1 -1
329 1564.2589111328125 100.86295318603516 1 -1
329 2185.607421875 96.10446166992188 1 -1
329 2198.167236328125 90.28596496582031 1 -1
329 2144.346435546875 80.12503051757812 1 -1
329 2110.369873046875 93.75323486328125 1 -1
329 1835.0467529296875 81.04551696777344 1 -1
329 1922.4541015625 90.38660430908203 1 -1
329 1982.6368408203125 85.89971923828125 1 -1
329 1971.4910888671875 79.48792266845703 1 -1
329 1982.2021484375 98.87919616699219 1 -1
329 1727.4669189453125 80.69523620605469 1 -1
329 1818.61474609375 89.89124298095703 1 -1
329 1803.07763671875 85.63093566894531 1 -1
329 2163.368408203125 97.62809753417969 1 -1
329 2099.992919921875 101.59135437011719 1 -1
329 1777.7886962890625 83.45350646972656 1 -1
329 1950.5751953125 87.80919647216797 1 -1
329 1906.936767578125 83.2258071899414 1 -1
329 2061.096923828125 99.22078704833984 1 -1
329 2072.66455078125 103.04481506347656 1 -1
329 2045.535400390625 84.0379409790039 1 -1
329 1544.6279296875 78.37857055664062 1 -1
329 2120.472412109375 104.14396667480469 1 -1
329 2107.357666015625 80.48932647705078 1 -1
329 2092.06591796875 80.51095581054688 1 -1
329 1614.73388671875 83.54104614257812 1 -1
329 1639.372802734375 83.05673217773438 1 -1
329 1738.6248779296875 85.27059936523438 1 -1
329 1892.388671875 85.16749572753906 1 -1
329 2077.228515625 83.89041137695312 1 -1
329 2041.65185546875 98.56800842285156 1 -1
329 2143.9599609375 97.0799560546875 1 -1
329 2151.541748046875 89.95918273925781 1 -1
329 2124.753662109375 93.78397369384766 1 -1
329 1515.9573974609375 79.30717468261719 1 -1
329 1860.2110595703125 94.38902282714844 1 -1
329 2084.947021484375 103.73223114013672 1 -1
329 2002.5316162109375 83.99388122558594 1 -1
329 1665.352294921875 86.52626037597656 1 -1
329 1007.1885986328125 80.04415893554688 1 -1
329 1207.0189208984375 84.3373794555664 1 -1
329 1644.7296142578125 95.56094360351562 1 -1
329 2015.6370849609375 102.63323211669922 1 -1
329 1807.1881103515625 97.20507049560547 1 -1
329 1720.23291015625 98.49593353271484 1 -1
329 1380.7015380859375 85.12682342529297 1 -1
329 1769.1207275390625 98.41289520263672 1 -1
329 1112.5106201171875 82.85099029541016 1 -1
329 1947.7442626953125 102.06883239746094 1 -1
329 1931.2904052734375 101.20345306396484 1 -1
329 1219.8338623046875 87.5455551147461 1 -1
329 1594.39990234375 87.33454895019531 1 -1
329 1568.890380859375 86.98599243164062 1 -1
329 1401.8115234375 78.57425689697266 1 -1
329 1488.144775390625 92.26569366455078 1 -1
329 1477.2066650390625 81.58490753173828 1 -1
329 1427.28125 92.15884399414062 1 -1
329 1281.9361572265625 85.48308563232422 1 -1
329 1168.1837158203125 82.44149017333984 1 -1
329 1893.284423828125 97.74752807617188 1 -1
329 1301.3240966796875 87.77242279052734 1 -1
329 1712.2421875 90.95268249511719 1 -1
329 1782.375244140625 95.82650756835938 1 -1
329 1832.8924560546875 95.21521759033203 1 -1
329 951.19287109375 78.3455581665039 1 -1
329 2136.53369140625 107.63619232177734 1 -1
329 1235.1024169921875 86.96159362792969 1 -1
329 1847.5306396484375 96.37539672851562 1 -1
335 2174.112060546875 89.73360443115234 1 -1
335 2162.006591796875 86.20381164550781 1 -1
335 2179.45458984375 103.03148651123047 1 -1
335 2072.413818359375 92.12169647216797 1 -1
335 2003.78857421875 95.82695770263672 1 -1
335 2013.7987060546875 90.93862915039062 1 -1
335 2098.588623046875 90.64051055908203 1 -1
335 2086.830078125 88.5096435546875 1 -1
335 1965.948974609375 90.44680786132812 1 -1
335 1991.461181640625 89.51021575927734 1 -1
335 1934.481689453125 90.24864196777344 1 -1
335 1867.186767578125 82.88003540039062 1 -1
335 1911.6378173828125 92.3103256225586 1 -1
335 2034.0531005859375 90.72635650634766 1 -1
335 1751.437255859375 80.27696990966797 1 -1
335 1884.26025390625 94.5580062866211 1 -1
335 2136.2451171875 89.10863494873047 1 -1
335 1790.79443359375 88.39493560791016 1 -1
329.118408203125 1921.7783203125 78 1 -1
335 1677.4808349609375 86.9229507446289 1 -1
332.8692321777344 933.8388061523438 78 1 -1
330.8874206542969 1194.6102294921875 78 1 -1
334.03167724609375 794.7384643554688 78 1 -1
330.6737976074219 901.72021484375 78 1 -1
330.80743408203125 1245.093505859375 78 1 -1
329.5087890625 1225.1181640625 78 1 -1
336.31781005859375 2199 80.75798034667969 1 -1
335 2019.8287353515625 80.87985229492188 1 -1
340.4951477050781 1981.167724609375 78 1 -1
338.85345458984375 2170.3916015625 78 1 -1
337.0752868652344 2058.501708984375 81.58159637451172 1 -1
337.27740478515625 2182.52978515625 81.37948608398438 1 -1
339.5667419433594 2114.29638671875 79.09013366699219 1 -1
337.7894592285156 1958.5430908203125 80.86743927001953 1 -1
335.19921875 1825.560546875 83.45768737792969 1 -1
335 1880.103271484375 81.0992431640625 1 -1
340.0755920410156 2071.051513671875 78.58129119873047 1 -1
340.0146179199219 1936.7891845703125 78.64225769042969 1 -1
336.3030700683594 1813.32666015625 82.35382843017578 1 -1
339.35101318359375 2030.0179443359375 79.30587005615234 1 -1
414.29248046875 1711.69189453125 81.96500396728516 1 -1
372.4881286621094 1710 82.30083465576172 1 -1
347.4437255859375 1710 81.15060424804688 1 -1
514.322021484375 1710.789306640625 82.86759185791016 1 -1
458.531494140625 1714.9833984375 78.67350006103516 1 -1
431.88238525390625 1714.4588623046875 79.197998046875 1 -1
474.8700256347656 1713.12353515625 80.53340148925781 1 -1
444.8035583496094 1712.697021484375 80.95990753173828 1 -1
335 1712.575439453125 80.77717590332031 1 -1
385.88092041015625 1711.98828125 78 1 -1
330.7095947265625 1715.525634765625 118.86980438232422 0 -1
320.272216796875 1710.558349609375 127.09857940673828 0 -1
302.612548828125 1715.2509765625 122 0 -1
195.20655822753906 1710 126.67581176757812 0 -1
286.5049133300781 1710 126.8740463256836 0 -1
412.59759521484375 1710 137.30099487304688 0 -1
358.70770263671875 1710 133.8309326171875 0 -1
337.1445007324219 1710 131.010986328125 0 -1
373.1807556152344 1710 138.02635192871094 0 -1
101.81819152832031 1710 127.39652252197266 0 -1
296.32073974609375 1710 133.4616241455078 0 -1
179.33851623535156 1710 132.072021484375 0 -1
161.5800018310547 1710 125.0565185546875 0 -1
385.3381652832031 1710 138.3240966796875 0 -1
136.94839477539062 1710 132.3030548095703 0 -1
-32.66933822631836 1710 124.87355041503906 0 -1
214.3241729736328 1710 131.8557586669922 0 -1
244.15176391601562 1710 133.71641540527344 0 -1
255.31089782714844 1710 132.74337768554688 0 -1
17.60935401916504 1710 126.62261199951172 0 -1
-84.31079864501953 1710 122.61969757080078 0 -1
66.39466857910156 1710 129.40924072265625 0 -1
117.36011505126953 1710 125.7611312866211 0 -1
30.458072662353516 1710 121.3276596069336 0 -1
100.62129974365234 1710 108.11613464355469 0 -1
-103.63367462158203 1710 106.759521484375 0 -1
-71.60420227050781 1710 104.36858367919922 1 -1
-109.9559326171875 1710 91.08836364746094 1 -1
-92.20878601074219 1710 97.48262786865234 1 -1
-58.23664855957031 1710 99.44075775146484 1 -1
-36.13422775268555 1710 103.0480728149414 1 -1
-158.8965301513672 1710 91.61456298828125 1 -1
-146.52102661132812 1710 106.88936614990234 0 -1
-166.02389526367188 1710 105.7311019897461 1 -1
45.13752746582031 1710 103.39920043945312 1 -1
-132.77734375 1710 97.47764587402344 1 -1
-5.967127799987793 1710 107.23162078857422 0 -1
118.20557403564453 1710 108.67462158203125 0 -1
87.00727844238281 1710 90.37114715576172 1 -1
174.90185546875 1710 105.99694061279297 0 -1
-78.23596954345703 1710 91.2435302734375 1 -1
119.83332824707031 1710 92.97986602783203 1 -1
17.75937843322754 1710 88.39862060546875 1 -1
70.64664459228516 1710 101.89773559570312 1 -1
141.88209533691406 1710 87.07377624511719 1 -1
157.05992126464844 1710 96.5436782836914 1 -1
-98.37252044677734 1710 88.14012908935547 1 -1
106.70169830322266 1710 97.15033721923828 1 -1
-4.098099231719971 1710 91.62503051757812 1 -1
36.043556213378906 1710 89.95751190185547 1 -1
72.19420623779297 1710 89.34962463378906 1 -1
-18.90681266784668 1710 92.1162109375 1 -1
181.78094482421875 1710.5548095703125 83.1020278930664 1 -1
82.26521301269531 1714.505615234375 79.15120697021484 1 -1
100.22067260742188 1712.0262451171875 81.63069152832031 1 -1
47.97373962402344 1714.6217041015625 78 1 -1
168.71832275390625 1712.7672119140625 78 1 -1
-173.47732543945312 1711.46044921875 82.19648742675781 1 -1
-154.01547241210938 1714.2269287109375 79.42997741699219 1 -1
-89.42951965332031 1712.509033203125 81.14785766601562 1 -1
5.759596347808838 1710 82.79244995117188 1 -1
-53.449188232421875 1710 83.5487060546875 1 -1
-184.83013916015625 1811.277587890625 83.48704528808594 1 -1
-181.32481384277344 2174.9443359375 79.98171997070312 1 -1
-182.38414001464844 2012.653564453125 81.04104614257812 1 -1
-181.7615509033203 2158.854736328125 80.41845703125 1 -1
-183.6890869140625 2071.047607421875 82.34599304199219 1 -1
-179.90353393554688 1895.945556640625 78.56044006347656 1 -1
-180.8145751953125 1790.544921875 79.47147369384766 1 -1
-179.62283325195312 1820.8536376953125 78.27973175048828 1 -1
-182.74501037597656 1862.37109375 81.40190887451172 1 -1
-182.44699096679688 1909.0460205078125 81.10389709472656 1 -1
-181.3159942626953 2024.6055908203125 79.97289276123047 1 -1
-181.7784423828125 1976.7393798828125 80.43534851074219 1 -1
-185 1765.8212890625 80.99273681640625 1 -1
-185 2187.7958984375 79.9936752319336 1 -1
-185 2047.4234619140625 79.89035034179688 1 -1
-179.37338256835938 2059.7392578125 78 1 -1
-179.81788635253906 1836.6829833984375 78 1 -1
-182.0211639404297 2090.533203125 78 1 -1
-183.37631225585938 2143.2138671875 78 1 -1
-180.526123046875 1851.4395751953125 78 1 -1
-181.12234497070312 1722.704833984375 78 1 -1
-184.06617736816406 1713.460205078125 115.37140655517578 0 -1
-194.03848266601562 1713.5157470703125 123.70413970947266 0 -1
-287.28448486328125 1710.50341796875 127.15342712402344 0 -1
-275.8897399902344 1710.1712646484375 127.48561096191406 0 -1
-227.17605590820312 1710.8470458984375 126.80986785888672 0 -1
-300.2728576660156 1715.06298828125 122.59388732910156 0 -1
-252.14402770996094 1714.9130859375 122 0 -1
-332.2398681640625 1712.929931640625 121.14971160888672 0 -1
-335 1714.8292236328125 109.1023178100586 0 -1
-338.73187255859375 1711.925048828125 84.09642028808594 1 -1
-335.9364929199219 1997.524169921875 82.72039794921875 1 -1
-336.316650390625 1796.059814453125 82.34024810791016 1 -1
-339.5060729980469 1748.1005859375 79.15083312988281 1 -1
-339.5645446777344 1938.658935546875 79.09235382080078 1 -1
-340.2634582519531 1911.7342529296875 78.39342498779297 1 -1
-340.3939208984375 2030.37255859375 78.26297760009766 1 -1
-339.8662414550781 2138.955078125 78.79065704345703 1 -1
-339.7878112792969 1761.5828857421875 78 1 -1
-339.5793151855469 2007.05126953125 78 1 -1
-335 1924.4896240234375 82.310791015625 1 -1
-337.1387939453125 1953.9556884765625 78 1 -1
-335 1777.067626953125 78.20565795898438 1 -1
-335 2197.5029296875 107.59132385253906 1 -1
-331.8351745605469 2199 96.25850677490234 1 -1
-329 2196.279296875 82.98062896728516 1 -1
-329 2163.62939453125 81.40939331054688 1 -1
-329 2187.139892578125 88.43638610839844 1 -1
-329 2152.771484375 82.8555679321289 1 -1
-329 2173.317626953125 92.86983489990234 1 -1
-329 1985.195068359375 87.48221588134766 1 -1
-329 1693.160888671875 86.84798431396484 1 -1
-329 1871.0474853515625 93.99285125732422 1 -1
-329 1806.881103515625 80.65548706054688 1 -1
-329 1879.471923828125 84.81639099121094 1 -1
-329 2087.2109375 90.2846450805664 1 -1
-329 1929.3260498046875 93.42050170898438 1 -1
-329 2022.7490234375 88.75804138183594 1 -1
-329 1910.970458984375 86.30380249023438 1 -1
-329 1976.7000732421875 96.53099822998047 1 -1
-329 1568.2733154296875 81.73564910888672 1 -1
-329 2011.510986328125 90.15467834472656 1 -1
-329 2051.6240234375 101.66775512695312 1 -1
-329 1769.979248046875 89.1138687133789 1 -1
-329 2069.2021484375 80.51155090332031 1 -1
-329 2099.456298828125 86.4393310546875 1 -1
-329 1623.1737060546875 80.62632751464844 1 -1
-329 2076.83642578125 99.80718994140625 1 -1
-329 1853.56787109375 90.42345428466797 1 -1
-329 1866.579345703125 80.28052520751953 1 -1
-329 1970.05419921875 86.59210205078125 1 -1
-329 2141.433837890625 100.35353088378906 1 -1
-329 1840.5399169921875 81.94933319091797 1 -1
-329 1599.06640625 83.32058715820312 1 -1
-329 1958.86962890625 89.50198364257812 1 -1
-329 2095.473388671875 99.31612396240234 1 -1
-329 2106.49169921875 95.29608154296875 1 -1
-329 2035.9931640625 97.90998840332031 1 -1
-329 1756.810546875 87.71623229980469 1 -1
-329 2122.396728515625 89.06922912597656 1 -1
-329 2062.259765625 91.58926391601562 1 -1
-329 2111.841064453125 83.28195190429688 1 -1
-329 1705.5220947265625 87.52413177490234 1 -1
-329 1721.2060546875 83.05838012695312 1 -1
-329.02606201171875 2130.408447265625 78 1 -1
-335 2181.869140625 99.6977310180664 1 -1
-335 2165.20703125 100.70195770263672 1 -1
-335 1782.559814453125 89.51837158203125 1 -1
-335 2005.0125732421875 97.47064208984375 1 -1
-335 2074.519775390625 88.71959686279297 1 -1
-335 2116.573486328125 104.8291244506836 1 -1
-335 2066.314453125 103.0956802368164 1 -1
-335 1965.700927734375 96.21367645263672 1 -1
-335 1854.2806396484375 81.1906967163086 1 -1
-335 1737.1341552734375 83.90718078613281 1 -1
-335 2129.509521484375 94.5541000366211 1 -1
-335 1608.5008544921875 81.25129699707031 1 -1
-335 1897.036865234375 90.18930053710938 1 -1
-335 2151.69677734375 102.9928207397461 1 -1
-335 1945.178955078125 94.2791748046875 1 -1
-335 1843.8406982421875 92.52352142333984 1 -1
-335 2044.14111328125 91.4906997680664 1 -1
-335 1635.2186279296875 83.70866394042969 1 -1
-335 1991.90087890625 94.76011657714844 1 -1
-335 2145.9345703125 90.0323486328125 1 -1
-335 1824.85595703125 82.60098266601562 1 -1
-335 1806.6387939453125 92.37515258789062 1 -1
-330.1770324707031 1501.3201904296875 78 1 -1
-329 1647.078125 85.71460723876953 1 -1
-335 1728.52685546875 95.69046783447266 1 -1
-335 1559.8150634765625 85.55903625488281 1 -1
-335 2132.426513671875 106.85462188720703 1 -1
-335 1570.3291015625 93.56959533691406 1 -1
-335 1588.9432373046875 94.48866271972656 1 -1
-335 1653.9349365234375 94.92916107177734 1 -1
-335 1683.9150390625 92.05641174316406 1 -1
-335 2020.3590087890625 103.12574005126953 1 -1
-335 1147.749755859375 82.40139770507812 1 -1
-335 1820.7545166015625 94.69305419921875 1 -1
-335 1032.932373046875 81.96732330322266 1 -1
-335 1318.7652587890625 88.49262237548828 1 -1
-335 1467.927490234375 90.52503967285156 1 -1
-335 1406.7646484375 85.17576599121094 1 -1
-335 1626.693603515625 91.15155792236328 1 -1
-335 1920.7054443359375 101.82813262939453 1 -1
-331.7278747558594 869.3679809570312 78 1 -1
-332.013916015625 800.5205688476562 78 1 -1
-333.7369689941406 1115.9010009765625 78 1 -1
-331.05804443359375 847.7455444335938 78 1 -1
-334.99017333984375 1554.509765625 109.65991973876953 0 -1
-334.9975280761719 579.786376953125 109.47259521484375 0 -1
-334.9872131347656 1457.9029541015625 109.73566436767578 0 -1
-334.98455810546875 2092.16357421875 109.80294036865234 1 -1
-335 1333.1937255859375 108.67845916748047 0 -1
-335 1416.097412109375 102.323486328125 0 -1
-335 1016.6427612304688 99.37206268310547 0 -1
-335 1186.5106201171875 96.84222412109375 1 -1
-335 2032.2852783203125 106.15755462646484 1 -1
-335 1580.9232177734375 104.3989028930664 0 -1
-335 503.56365966796875 93.939453125 0 -1
-335 1332.1888427734375 95.94055938720703 1 -1
-335 427.50213623046875 108.5878677368164 0 -1
-335 775.5569458007812 104.93401336669922 0 -1
-335 1205.6751708984375 101.83152770996094 0 -1
-335 690.503662109375 85.8161849975586 1 -1
-335 1506.7330322265625 101.86751556396484 1 -1
-335 442.2227783203125 97.02324676513672 0 -1
-335 1280.96533203125 105.82821655273438 0 -1
-335 1256.0966796875 107.46002960205078 0 -1
-335 1751.57958984375 100.43985748291016 1 -1
-335 1951.8890380859375 104.33380126953125 1 -1
-335 610.145751953125 91.23243713378906 1 -1
-335 1189.9583740234375 108.89476013183594 0 -1
-335 1641.2491455078125 99.47312927246094 1 -1
-335 809.0039672851562 101.13713836669922 0 -1
-335 1679.451171875 107.32299041748047 0 -1
-335 177.50933837890625 108.55303192138672 0 -1
-335 771.796630859375 93.55574035644531 1 -1
-335 417.86578369140625 100.87744903564453 0 -1
-335 864.3573608398438 92.30276489257812 1 -1
-335 1116.5428466796875 101.8277816772461 0 -1
-335 1079.352783203125 89.61067962646484 1 -1
-335 1234.702880859375 93.80674743652344 1 -1
-335 821.162841796875 97.10002899169922 0 -1
-335 672.038330078125 100.28640747070312 0 -1
-335 985.852294921875 91.35043334960938 1 -1
-335 1600.986083984375 101.70207977294922 1 -1
-335 1140.0479736328125 101.5448226928711 0 -1
-335 1693.0086669921875 107.8089828491211 0 -1
-335 1283.2825927734375 91.56082916259766 1 -1
-335 1261.60986328125 91.1485366821289 1 -1
-335 1066.8741455078125 108.6523208618164 0 -1
-335 511.01666259765625 109.26809692382812 0 -1
-335 1616.9190673828125 104.1564712524414 1 -1
-335 1434.130126953125 99.2254409790039 1 -1
-335 1217.1343994140625 100.11630249023438 0 -1
-335 1246.2818603515625 98.9094009399414 1 -1
-335 248.63780212402344 108.31008911132812 0 -1
-335 477.9642639160156 96.61492919921875 0 -1
-335 1493.8131103515625 106.3055648803711 0 -1
-335 660.551025390625 93.16666412353516 0 -1
-335 760.4584350585938 100.44742584228516 0 -1
-335 1739.060302734375 100.83058166503906 1 -1
-335 649.6773071289062 102.72645568847656 0 -1
-335 383.2330627441406 98.5453872680664 0 -1
-335 938.6779174804688 86.78423309326172 1 -1
-335 785.9310302734375 81.25563049316406 1 -1
-335 915.0006103515625 108.68314361572266 0 -1
-335 903.870361328125 96.40413665771484 0 -1
-335 527.3939208984375 96.34750366210938 0 -1
-335 2104.34130859375 109.24880981445312 1 -1
-335 1000.552490234375 107.62110137939453 0 -1
-335 274.20294189453125 105.09326171875 0 -1
-335 1376.2059326171875 96.84909057617188 1 -1
-335 936.9927978515625 108.59541320800781 0 -1
-335 628.8948974609375 93.00982666015625 0 -1
-335 1105.9178466796875 97.61742401123047 1 -1
-335 1343.8524169921875 96.11251068115234 1 -1
-335 843.4520263671875 98.5909423828125 0 -1
-335 218.8857879638672 103.21195220947266 0 -1
-335 1175.5023193359375 89.51885986328125 1 -1
-335 893.4528198242188 88.32073211669922 1 -1
-335 888.2125244140625 98.8664779663086 0 -1
-335 909.2186279296875 84.86015319824219 1 -1
-335 592.93017578125 98.89214324951172 0 -1
-335 799.8855590820312 91.67005157470703 1 -1
-335 457.0517578125 108.4580078125 0 -1
-335 1037.1884765625 98.44959259033203 0 -1
-335 1394.84765625 106.11061096191406 0 -1
-335 1029.4283447265625 109.18891143798828 0 -1
-335 427.26678466796875 95.48332977294922 0 -1
-335 395.17047119140625 107.37744140625 0 -1
-335 879.2311401367188 109.0908432006836 0 -1
-335 554.1699829101562 100.44499969482422 0 -1
-335 1853.9925537109375 102.87012481689453 1 -1
-335 1932.1549072265625 107.28980255126953 1 -1
-335 330.89178466796875 105.8096694946289 0 -1
-335 1910.39794921875 108.0282974243164 1 -1
-335 1393.009765625 92.10177612304688 1 -1
-335 972.449462890625 92.71602630615234 1 -1
-335 1122.1064453125 90.42803192138672 1 -1
-335 689.9642333984375 105.35565185546875 0 -1
-335 1209.6329345703125 87.49662780761719 1 -1
-335 1767.5230712890625 104.15436553955078 1 -1
-335 1653.9857177734375 108.69033813476562 0 -1
-335 565.4187622070312 97.47044372558594 0 -1
-334.9750061035156 379.63458251953125 110.04642486572266 0 -1
-334.970947265625 1347.405517578125 110.14969635009766 0 -1
-334.98345947265625 208.7530517578125 109.83088684082031 0 -1
-334.96441650390625 1108.489501953125 110.31608581542969 0 -1
-334.9078674316406 2184.481201171875 110.84831237792969 1 -1
-334.9604797363281 565.7158203125 110.40387725830078 0 -1
-334.9348449707031 1375.585693359375 110.62045288085938 0 -1
-334.9597473144531 1538.5433349609375 110.41012573242188 0 -1
-329 869.018798828125 108.32073211669922 0 -1
-329 660.5655517578125 106.29286193847656 0 -1
-329 1229.473388671875 106.0355453491211 0 -1
-329 518.9373779296875 100.07158660888672 0 -1
-329 1163.0950927734375 102.73282623291016 0 -1
-329 786.7787475585938 95.58822631835938 0 -1
-329 1024.1400146484375 88.10905456542969 1 -1
-329 822.589111328125 107.53488159179688 0 -1
-329 1051.8026123046875 89.44203186035156 1 -1
-329 439.2742004394531 106.42616271972656 0 -1
-329 1885.207275390625 97.50177001953125 1 -1
-329 360.4513854980469 107.28438568115234 0 -1
-329 1616.7735595703125 89.88764953613281 1 -1
-329 543.2767944335938 104.8233413696289 0 -1
-329 1831.7227783203125 99.21624755859375 1 -1
-329 1139.4835205078125 90.0079116821289 1 -1
-329 629.9033203125 108.40108489990234 0 -1
-329 1366.09912109375 86.01615905761719 1 -1
-329 1480.936279296875 87.1286849975586 1 -1
-329 1354.66650390625 92.58332824707031 1 -1
-329 1272.7659912109375 96.0483627319336 1 -1
-329 1558.971923828125 98.65894317626953 1 -1
-329 1430.0394287109375 90.56226348876953 1 -1
-329 1528.05859375 103.78489685058594 0 -1
-329 897.46337890625 106.49346160888672 0 -1
-329 1151.5728759765625 93.28486633300781 1 -1
-329 1534.390625 82.21725463867188 1 -1
-329 1302.43701171875 88.67544555664062 1 -1
-329 971.1283569335938 103.6289291381836 0 -1
-329 1695.9337158203125 97.30387878417969 1 -1
-329 1794.611572265625 102.2271957397461 1 -1
-329 1640.766845703125 108.05526733398438 0 -1
-329 1522.1080322265625 82.60399627685547 1 -1
-329 500.3179626464844 102.55253601074219 0 -1
-329 1742.8897705078125 92.10579681396484 1 -1
-329 1093.4122314453125 106.3730239868164 0 -1
-329 1985.7861328125 105.89482879638672 1 -1
-329 1338.99267578125 85.74662017822266 1 -1
-329 725.6847534179688 105.74006652832031 0 -1
-329 854.5714111328125 102.6548080444336 0 -1
-329 1714.606201171875 98.58113861083984 1 -1
-329 1460.92431640625 99.75787353515625 1 -1
-329 1165.009033203125 89.4380111694336 1 -1
-329 1403.7410888671875 95.85469055175781 1 -1
-329 1579.001220703125 86.07496643066406 1 -1
