VERSION .7
FIELDS x y z label object
SIZE 4 4 4 4 4
TYPE F F F I I
COUNT 1 1 1 1 1
WIDTH 973
HEIGHT 1
POINTS 973
VIEWPOINT 0 0 0 1 0 0 0
DATA ascii
-185.88491821289062 1934.8460693359375 114.02881622314453 0 -1
-185.62863159179688 712.4905395507812 113.33422088623047 0 -1
-185.781982421875 480.96405029296875 113.74982452392578 0 -1
-185.93124389648438 70.137939453125 114.15438079833984 0 -1
-191.3182830810547 164.7010040283203 111.4306869506836 0 -1
-191.1570281982422 532.11181640625 110.82876586914062 0 -1
-191.1970672607422 815.302490234375 110.97821044921875 0 -1
-191.1951446533203 1491.9976806640625 110.97103118896484 0 -1
-185.57174682617188 1233.3011474609375 113.14288330078125 0 -1
-185.45223999023438 2071.59521484375 112.7190933227539 0 -1
-185.60162353515625 1171.1944580078125 113.24884796142578 0 -1
-185.5941619873047 519.8939819335938 113.22235870361328 0 -1
-185.45419311523438 1850.9359130859375 112.72602081298828 0 -1
-185.45790100097656 1688.5703125 112.7391586303711 0 -1
-185.40896606445312 639.7277221679688 112.56565856933594 0 -1
-185.50062561035156 343.9971008300781 112.89070129394531 0 -1
-185.328369140625 2128.94140625 112.25096130371094 0 -1
-185.24130249023438 1828.885009765625 111.81327819824219 0 -1
-185.2709197998047 1247.1300048828125 111.96218872070312 0 -1
-185.330078125 1027.7174072265625 112.2595443725586 0 -1
-185.32540893554688 1084.887939453125 112.23606872558594 0 -1
-185.20562744140625 376.9922790527344 111.63397979736328 0 -1
-185.16848754882812 1543.124755859375 111.44727325439453 0 -1
-185.18202209472656 1453.7156982421875 111.51531982421875 0 -1
-191.0935516357422 620.91552734375 110.46153259277344 0 -1
-185.14202880859375 1989.46630859375 111.2698974609375 0 -1
-185.13792419433594 1613.4273681640625 111.23522186279297 0 -1
-185.0757598876953 1867.46728515625 110.71003723144531 0 -1
-185.1262969970703 1039.7049560546875 111.13697052001953 0 -1
-185.04759216308594 83.36075592041016 110.47206115722656 0 -1
-185.0684051513672 1502.2806396484375 110.64789581298828 0 -1
-185.06988525390625 990.3983154296875 110.66036224365234 0 -1
-185.04823303222656 1878.680908203125 110.47748565673828 0 -1
-191.0224609375 324.84149169921875 109.83856964111328 0 -1
-191.0259552001953 355.0565490722656 109.90530395507812 0 -1
-191.000244140625 429.224853515625 109.41452026367188 0 -1
-191.03346252441406 2084.6474609375 110.04837036132812 0 -1
-185.0272979736328 1632.4791259765625 110.10509490966797 0 -1
-185.0380401611328 1599.28369140625 110.37818908691406 0 -1
-185.0189666748047 1660.0460205078125 109.89265441894531 0 -1
-185.03265380859375 1799.33837890625 110.24142456054688 0 -1
-185.0021514892578 677.1074829101562 109.46485900878906 0 -1
-185.00997924804688 129.61129760742188 109.66409301757812 0 -1
-189.3632049560547 44 96.56937408447266 0 -1
-186.20220947265625 44 109.155517578125 0 -1
-191 602.024658203125 90.48165130615234 0 -1
-191 60.8543815612793 108.39448547363281 0 -1
-191 374.9774475097656 99.4278564453125 0 -1
-191 1124.973388671875 101.98025512695312 0 -1
-191 1468.739013671875 104.98200988769531 0 -1
-191 403.57891845703125 90.0306396484375 0 -1
-191 648.8096313476562 87.83296966552734 1 -1
-191 138.45870971679688 87.07868194580078 0 -1
-191 301.5736083984375 83.43279266357422 1 -1
-191 1409.0958251953125 107.82992553710938 0 -1
-191 96.29231262207031 91.58255004882812 0 -1
-191 332.1542053222656 87.60608673095703 0 -1
-191 438.6819763183594 96.97716522216797 0 -1
-191 787.36181640625 106.77790069580078 0 -1
-191 1555.2574462890625 107.64269256591797 0 -1
-191 906.9051513671875 103.48053741455078 0 -1
-191 299.86431884765625 102.7985610961914 0 -1
-191 1000.2374877929688 99.52098846435547 0 -1
-191 627.7410888671875 87.57168579101562 1 -1
-191 947.573486328125 103.771484375 0 -1
-191 273.1816711425781 109.29169464111328 0 -1
-191 1209.717041015625 105.08234405517578 0 -1
-191 1856.0799560546875 104.52918243408203 0 -1
-191 600.0222778320312 109.1068344116211 0 -1
-191 1110.5523681640625 101.84721374511719 0 -1
-191 1533.957763671875 103.36113739013672 0 -1
-191 72.1961441040039 102.36109924316406 0 -1
-191 959.7169189453125 94.71443176269531 0 -1
-191 574.9656982421875 108.13116455078125 0 -1
-191 201.15203857421875 82.33697509765625 1 -1
-191 217.73776245117188 100.79072570800781 0 -1
-191 1169.072998046875 99.59071350097656 0 -1
-191 749.6368408203125 95.42784118652344 0 -1
-191 413.6468505859375 94.31555938720703 0 -1
-191 1713.8004150390625 102.83157348632812 0 -1
-191 562.2860107421875 108.81135559082031 0 -1
-191 1365.2943115234375 100.38214111328125 0 -1
-191 1570.3590087890625 108.78800201416016 0 -1
-191 336.864990234375 98.55546569824219 0 -1
-191 703.8193969726562 104.8760986328125 0 -1
-191 847.922119140625 92.46080780029297 1 -1
-191 526.531494140625 89.79798889160156 0 -1
-191 728.1126708984375 108.52886962890625 0 -1
-191 820.084716796875 95.88424682617188 0 -1
-191 1221.736083984375 105.02630615234375 0 -1
-191 86.77058410644531 101.2623519897461 0 -1
-191 1517.631591796875 100.0221939086914 1 -1
-191 181.10581970214844 87.95889282226562 0 -1
-191 1084.6817626953125 102.0931167602539 0 -1
-191 190.85195922851562 103.5184555053711 0 -1
-191 632.1650390625 101.49703216552734 0 -1
-191 1246.8421630859375 100.5448226928711 0 -1
-191 148.49952697753906 81.9284896850586 1 -1
-191 514.5697021484375 97.62359619140625 0 -1
-191 496.29193115234375 108.05751037597656 0 -1
-191 456.41845703125 99.1700439453125 0 -1
-191 57.24127960205078 96.08902740478516 0 -1
-191 313.9412841796875 82.34223175048828 1 -1
-191 738.6290283203125 101.41452026367188 0 -1
-191 558.5764770507812 95.83638000488281 0 -1
-191 834.3048706054688 97.71012115478516 0 -1
-191 617.7671508789062 92.48297882080078 0 -1
-191 78.25724029541016 82.39302062988281 1 -1
-191 227.06021118164062 89.87025451660156 0 -1
-191 65.609619140625 81.94305419921875 1 -1
-191 586.4765014648438 101.43705749511719 0 -1
-191 277.6571350097656 82.5896224975586 1 -1
-191 1322.62890625 106.55448150634766 0 -1
-191 1283.599609375 105.44561767578125 0 -1
-191 318.47137451171875 94.98001861572266 0 -1
-191 937.9555053710938 97.35794830322266 0 -1
-191 854.5377197265625 102.75387573242188 0 -1
-191 656.4207763671875 102.40406799316406 0 -1
-191 800.064453125 107.64067077636719 0 -1
-191 1498.59765625 100.9064712524414 0 -1
-191 424.7745666503906 91.36206817626953 0 -1
-191 2118.743408203125 109.2330093383789 0 -1
-191 1189.885498046875 104.25016784667969 0 -1
-191 508.8555908203125 87.41962432861328 1 -1
-191 1645.9449462890625 101.55902862548828 0 -1
-191 1301.5394287109375 105.86395263671875 0 -1
-191 681.613525390625 100.89542388916016 0 -1
-191 1393.087646484375 107.36468505859375 0 -1
-191 227.54112243652344 107.96257781982422 0 -1
-191 157.7384490966797 97.64227294921875 0 -1
-191 1682.3157958984375 103.06451416015625 0 -1
-191 1421.2069091796875 108.6494140625 0 -1
-191 2027.2979736328125 108.44239807128906 0 -1
-191 977.3106689453125 104.45931243896484 0 -1
-191 263.4302062988281 91.02942657470703 0 -1
-191 246.1100311279297 95.00553131103516 0 -1
-191 1484.222412109375 100.01325988769531 0 -1
-191 171.83981323242188 101.48726654052734 0 -1
-191 362.58123779296875 95.58304595947266 0 -1
-191 988.2822875976562 92.61358642578125 1 -1
-191 386.0811767578125 107.88385009765625 0 -1
-191 1775.4832763671875 106.29788970947266 0 -1
-191 897.20556640625 95.86223602294922 0 -1
-191 205.14137268066406 100.36331176757812 0 -1
-191 925.0527954101562 103.66456604003906 0 -1
-191 695.5316772460938 94.54676818847656 0 -1
-191 796.5924682617188 96.4631576538086 0 -1
-191 727.0677490234375 96.11666870117188 0 -1
-191 768.48193359375 96.13117980957031 0 -1
-191 1966.34130859375 109.0877685546875 0 -1
-191 1807.41748046875 105.92790222167969 0 -1
-191 144.214111328125 106.24847412109375 0 -1
-191 1024.1328125 101.51515197753906 0 -1
-191 1476.1212158203125 91.02822875976562 1 -1
-191 1635.8756103515625 86.28787994384766 1 -1
-191 2166.400634765625 107.1535415649414 1 -1
-191 2110.192626953125 91.67790985107422 1 -1
-191 1752.4754638671875 90.45060729980469 1 -1
-191 2053.7021484375 84.50700378417969 1 -1
-191 1093.7557373046875 88.48703002929688 1 -1
-191 1063.71875 89.29776763916016 1 -1
-191 1832.0067138671875 100.25659942626953 1 -1
-191 810.1495971679688 80.82806396484375 1 -1
-191 1605.3818359375 99.78719329833984 1 -1
-191 1888.7989501953125 96.78209686279297 1 -1
-191 1350.608154296875 89.12934112548828 1 -1
-191 1047.4244384765625 90.40248107910156 1 -1
-191 1078.010009765625 80.5219497680664 1 -1
-191 864.0292358398438 79.38412475585938 1 -1
-191 357.4366455078125 81.53707885742188 1 -1
-191 2014.2081298828125 86.80360412597656 1 -1
-191 1575.483642578125 98.27865600585938 1 -1
-191 919.703125 89.90554809570312 1 -1
-191 2037.82080078125 101.05319213867188 1 -1
-191 2074.927490234375 102.93121337890625 1 -1
-191 929.7493896484375 79.25546264648438 1 -1
-191 1274.5916748046875 95.61935424804688 1 -1
-191 2009.983642578125 99.98571014404297 1 -1
-191 1255.51220703125 88.58653259277344 1 -1
-191 1877.6865234375 79.32249450683594 1 -1
-191 2130.651123046875 101.24415588378906 1 -1
-191 1337.0277099609375 94.13142395019531 1 -1
-191 1830.0438232421875 82.34201049804688 1 -1
-191 1875.09521484375 100.4478759765625 1 -1
-191 1130.26904296875 89.52079010009766 1 -1
-191 1983.356689453125 89.71975708007812 1 -1
-191 1590.6866455078125 100.00045013427734 1 -1
-191 1457.3082275390625 89.15372467041016 1 -1
-191 1619.71826171875 84.13500213623047 1 -1
-191 1205.0516357421875 92.35041809082031 1 -1
-191 1409.877197265625 92.33439636230469 1 -1
-191 978.68505859375 86.64048767089844 1 -1
-191 2098.649658203125 85.50719451904297 1 -1
-191 1030.40283203125 86.81504821777344 1 -1
-191 1907.2657470703125 100.35366821289062 1 -1
-191 2058.046630859375 98.91453552246094 1 -1
-191 1170.8333740234375 85.21652221679688 1 -1
-191 1668.08642578125 94.04190826416016 1 -1
-191 1116.9429931640625 85.62110900878906 1 -1
-191 1241.1839599609375 90.12271881103516 1 -1
-191 1508.8668212890625 86.70657348632812 1 -1
-191 1495.056640625 81.7083969116211 1 -1
-191 1276.2691650390625 80.5358657836914 1 -1
-191 1947.995361328125 81.05238342285156 1 -1
-191 711.7238159179688 84.95478057861328 1 -1
-191 1548.829833984375 84.95063018798828 1 -1
-191 1807.4075927734375 93.33460998535156 1 -1
-191 2140.217529296875 81.020263671875 1 -1
-191 1731.597412109375 89.29483032226562 1 -1
-191 2028.5272216796875 90.58444213867188 1 -1
-191 1324.9044189453125 91.60054016113281 1 -1
-191 2183.19677734375 82.16968536376953 1 -1
-191 1933.18408203125 90.867919921875 1 -1
-191 1896.937255859375 87.56977081298828 1 -1
-191 550.2622680664062 83.46083068847656 1 -1
-191 1944.2181396484375 100.68275451660156 1 -1
-191 1691.4190673828125 92.33715057373047 1 -1
-191 886.66748046875 89.95643615722656 1 -1
-191 1823.6593017578125 93.20393371582031 1 -1
-191 1706.59375 83.21568298339844 1 -1
-191 902.4459228515625 85.43025970458984 1 -1
-191 2181.961669921875 95.6006088256836 1 -1
-191 1425.5732421875 87.08084869384766 1 -1
-191 1796.616455078125 97.52456665039062 1 -1
-191 1924.1488037109375 103.43850708007812 1 -1
-191 1855.4979248046875 84.73102569580078 1 -1
-191 1585.5557861328125 80.09325408935547 1 -1
-191 1739.217529296875 96.89952850341797 1 -1
-191 669.2985229492188 78.64994812011719 1 -1
-191 212.63311767578125 79.89498138427734 1 -1
-191 471.23858642578125 82.70777893066406 1 -1
-191 1704.5546875 97.30381774902344 1 -1
-191 2002.4456787109375 88.92058563232422 1 -1
-191 1191.1807861328125 92.78387451171875 1 -1
-191 2069.1708984375 88.470703125 1 -1
-191 1382.9716796875 88.05856323242188 1 -1
-191 1868.7091064453125 88.68499755859375 1 -1
-191 1646.6383056640625 82.14656066894531 1 -1
-191 1362.8382568359375 81.08191680908203 1 -1
-191 739.7109985351562 87.03034210205078 1 -1
-191 1955.0748291015625 104.5569839477539 1 -1
-191 417.1603088378906 81.47783660888672 1 -1
-191 963.51953125 81.02114868164062 1 -1
-191 582.3800048828125 83.4041519165039 1 -1
-191 1228.1719970703125 90.72932434082031 1 -1
-191 1775.3665771484375 85.10066223144531 1 -1
-191 1767.8909912109375 95.96884155273438 1 -1
-185 1391.7786865234375 97.80538177490234 1 -1
-185 1636.9896240234375 97.45232391357422 1 -1
-185 1821.1241455078125 104.4822998046875 0 -1
-185 647.3092041015625 101.18036651611328 0 -1
-185 1994.0830078125 97.5329818725586 1 -1
-185 759.77783203125 107.36966705322266 0 -1
-185 1922.082275390625 93.99954223632812 1 -1
-185 1448.4521484375 100.1377944946289 0 -1
-185 1838.8880615234375 92.75470733642578 1 -1
-185 1346.169189453125 99.53111267089844 0 -1
-185 1434.0682373046875 107.2190170288086 0 -1
-185 1614.86572265625 93.14490509033203 1 -1
-185 878.0385131835938 98.34318542480469 0 -1
-185 719.6424560546875 102.80262756347656 0 -1
-185 1980.146484375 100.07586669921875 1 -1
-185 1956.9078369140625 83.1417007446289 1 -1
-185 2107.192626953125 103.923828125 1 -1
-185 843.9435424804688 100.46660614013672 0 -1
-185 1490.8992919921875 91.64627075195312 1 -1
-185 2019.9482421875 96.96228790283203 1 -1
-185 1074.0633544921875 107.48037719726562 0 -1
-185 1145.6978759765625 102.7148666381836 0 -1
-185 1540.8294677734375 91.37352752685547 1 -1
-185 1063.556640625 99.39862823486328 0 -1
-185 1234.135986328125 100.84613037109375 0 -1
-185 609.9124755859375 105.65482330322266 0 -1
-185 2151.05029296875 99.94981384277344 1 -1
-185 1584.2930908203125 91.25932312011719 1 -1
-185 1036.6500244140625 100.02848815917969 0 -1
-185 1274.203369140625 107.82117462158203 0 -1
-185 1680.0897216796875 94.60330963134766 1 -1
-185 1915.3287353515625 108.26805877685547 0 -1
-185 1746.8084716796875 107.03229522705078 0 -1
-185 1728.8624267578125 99.98631286621094 1 -1
-185 1972.7490234375 91.14437866210938 1 -1
-185 1159.2686767578125 95.5970458984375 1 -1
-185 1933.8253173828125 100.61768341064453 1 -1
-185 968.4261474609375 100.06155395507812 0 -1
-185 1117.349609375 95.66545104980469 0 -1
-185 1780.6832275390625 95.24625396728516 1 -1
-185 1102.5169677734375 107.91358947753906 0 -1
-185 1360.556640625 91.61798858642578 1 -1
-185 692.3909301757812 103.85591888427734 0 -1
-185 2047.75244140625 104.2068099975586 1 -1
-185 1377.0809326171875 99.86512756347656 0 -1
-185 1216.2384033203125 92.80421447753906 1 -1
-185 1656.7152099609375 94.4190902709961 1 -1
-185 826.88427734375 107.3979263305664 0 -1
-185 1881.1826171875 91.00146484375 1 -1
-185 1506.2978515625 96.36875915527344 1 -1
-185 243.21853637695312 109.36124420166016 0 -1
-185 1795.84423828125 87.89832305908203 1 -1
-185 1561.62451171875 89.18875885009766 1 -1
-185 1466.28759765625 96.65918731689453 1 -1
-185 1132.7010498046875 106.5245132446289 0 -1
-185 367.4875183105469 104.89952087402344 0 -1
-185 1953.212646484375 93.95862579345703 1 -1
-185 2016.3143310546875 107.92324829101562 0 -1
-185 1855.7677001953125 93.76519775390625 1 -1
-185 2198.71826171875 107.88111114501953 0 -1
-185 1259.2369384765625 99.83135986328125 0 -1
-185 773.9307250976562 106.33368682861328 0 -1
-185 1524.3519287109375 88.71279907226562 1 -1
-185 439.99847412109375 107.83983612060547 0 -1
-185 1761.0391845703125 84.47076416015625 1 -1
-185 467.7172546386719 107.3307876586914 0 -1
-185 1582.4893798828125 105.12456512451172 0 -1
-185 1911.4984130859375 88.64652252197266 1 -1
-185 2196.423583984375 90.14331817626953 1 -1
-185 1623.8631591796875 99.1852798461914 1 -1
-185 2097.144775390625 96.33531188964844 1 -1
-185 1786.7520751953125 107.9068832397461 0 -1
-185 894.8133544921875 107.16191864013672 0 -1
-185 2040.970703125 89.91161346435547 1 -1
-185 1421.763671875 95.52104949951172 1 -1
-185 1719.059814453125 91.3169174194336 1 -1
-185 1007.6905517578125 104.63249969482422 0 -1
-185 862.3668212890625 107.14131164550781 0 -1
-185 1478.449462890625 108.5335693359375 0 -1
-185 1671.2027587890625 107.14033508300781 0 -1
-185 2140.88623046875 91.1357192993164 1 -1
-185 1292.59619140625 101.50263214111328 0 -1
-185 1757.860107421875 103.31414794921875 0 -1
-185 409.6326599121094 108.95762634277344 0 -1
-185 508.6186828613281 108.35650634765625 0 -1
-185 936.1600952148438 107.25562286376953 0 -1
-185 2128.06396484375 91.00960540771484 1 -1
-185 2078.819580078125 88.8211669921875 1 -1
-185 2173.468994140625 88.73522186279297 1 -1
-185 2162.662353515625 94.1234359741211 1 -1
-185 1902.3458251953125 109.36866760253906 0 -1
-185 1181.124267578125 96.10310363769531 1 -1
-185 1333.4642333984375 105.79679107666016 0 -1
-185 1159.93408203125 107.48101043701172 0 -1
-185 1049.9073486328125 100.89706420898438 0 -1
-185 2113.398681640625 81.28377532958984 1 -1
-185 748.052490234375 108.99996948242188 0 -1
-185 1551.2943115234375 98.90072631835938 1 -1
-185 1438.51416015625 92.27989959716797 1 -1
-185 1783.330810546875 78.05351257324219 1 -1
-179.9414520263672 1841.1378173828125 78 1 -1
-183.16954040527344 2042.6038818359375 78 1 -1
-182.62850952148438 2070.114013671875 78 1 -1
-181.08436584472656 1968.80908203125 78 1 -1
-183.0511932373047 1992.2127685546875 81.70809173583984 1 -1
-182.78753662109375 1929.968994140625 81.4444351196289 1 -1
-183.6201629638672 1888.5892333984375 82.27705383300781 1 -1
-182.84097290039062 1902.653076171875 81.49787139892578 1 -1
-183.05003356933594 2091.51171875 81.70693969726562 1 -1
-181.81658935546875 2159.383056640625 80.47349548339844 1 -1
-185 1739.48681640625 82.9361801147461 1 -1
-185 1818.8658447265625 81.90515899658203 1 -1
-181.2580108642578 2014.9339599609375 79.91492462158203 1 -1
-179.94337463378906 2103.38623046875 78.60028076171875 1 -1
-180.0966339111328 1914.77294921875 78.7535400390625 1 -1
-181.18739318847656 1853.8626708984375 79.84429931640625 1 -1
-163.35296630859375 1713.496826171875 80.16002655029297 1 -1
83.62388610839844 1710.8399658203125 82.81696319580078 1 -1
-65.60018157958984 1713.1378173828125 80.51908111572266 1 -1
-53.47116470336914 1711.9647216796875 81.69220733642578 1 -1
-107.2607650756836 1710 83.57996368408203 1 -1
-27.217517852783203 1710 81.00545501708984 1 -1
61.10703659057617 1713.0089111328125 80.64795684814453 1 -1
33.58336639404297 1712.716796875 80.94003295898438 1 -1
44.98539733886719 1714.2862548828125 79.37055206298828 1 -1
72.06238555908203 1714.2501220703125 78 1 -1
133.9794921875 1714.0733642578125 78 1 -1
117.77261352539062 1713.1353759765625 78 1 -1
-87.47504425048828 1710 93.87767028808594 1 -1
-33.134910583496094 1710 99.03897094726562 1 -1
-101.09630584716797 1710 99.54783630371094 1 -1
-78.83381652832031 1710 104.3658447265625 0 -1
-141.67779541015625 1710 96.51644897460938 1 -1
-165.37631225585938 1710 107.96337890625 0 -1
-53.576637268066406 1710 106.77278900146484 0 -1
4.360095977783203 1710 105.48516845703125 0 -1
-67.00768280029297 1710 100.55610656738281 1 -1
91.0058364868164 1710 105.8414306640625 0 -1
-158.40684509277344 1710 95.9256820678711 1 -1
130.48721313476562 1710 106.62213897705078 0 -1
110.38927459716797 1710 89.9964599609375 1 -1
93.91443634033203 1710 90.66087341308594 1 -1
142.23065185546875 1710 90.59109497070312 1 -1
15.396746635437012 1710 92.75896453857422 1 -1
45.935150146484375 1710 100.14879608154297 1 -1
129.92709350585938 1710 93.28242492675781 1 -1
80.04563903808594 1710 95.66250610351562 1 -1
146.69061279296875 1710 105.16693115234375 0 -1
69.69174194335938 1710 88.24525451660156 1 -1
154.06764221191406 1710 90.3035888671875 1 -1
170.19012451171875 1710 94.93955993652344 1 -1
-16.798227310180664 1710 89.093994140625 1 -1
19.065372467041016 1710 80.65441131591797 1 -1
182.37408447265625 1713.031005859375 100.37682342529297 1 -1
182.819580078125 1790.2017822265625 81.47647857666016 1 -1
183.7971649169922 1754.7210693359375 82.45406341552734 1 -1
182.65927124023438 1775.392822265625 81.31617736816406 1 -1
185 1962.0245361328125 82.5829849243164 1 -1
180.8965606689453 2060.836669921875 78 1 -1
179.5594024658203 1851.766845703125 78 1 -1
183.21859741210938 1991.243896484375 78 1 -1
180.92880249023438 2009.4376220703125 79.58570861816406 1 -1
181.60882568359375 1939.017578125 80.26573181152344 1 -1
180.57452392578125 1838.863037109375 79.2314224243164 1 -1
182.19052124023438 2071.519775390625 80.84741973876953 1 -1
179.51043701171875 2022.8858642578125 78.16734313964844 1 -1
179.4710693359375 1745.460693359375 78.12796783447266 1 -1
180.28643798828125 2085.4599609375 78.94334411621094 1 -1
180.78012084960938 2184.85009765625 79.43702697753906 1 -1
182.58299255371094 2035.15478515625 81.2398910522461 1 -1
182.1294403076172 2197.046630859375 80.78634643554688 1 -1
185 1638.2548828125 100.3942642211914 1 -1
185 482.123291015625 81.8254165649414 1 -1
185 2120.70654296875 103.42510223388672 1 -1
185 929.3414916992188 89.6462173461914 1 -1
185 1752.42724609375 97.96709442138672 1 -1
185 1492.232666015625 87.50382232666016 1 -1
185 2046.7542724609375 80.18311309814453 1 -1
185 295.6916198730469 79.37322235107422 1 -1
185 776.3665771484375 88.09288024902344 1 -1
185 2162.177978515625 97.21894073486328 1 -1
185 1691.847900390625 90.33137512207031 1 -1
185 1858.9466552734375 101.37090301513672 1 -1
185 2110.67822265625 96.15939331054688 1 -1
185 2088.14306640625 95.2815933227539 1 -1
185 1764.7528076171875 92.36149597167969 1 -1
185 1998.490234375 88.83329010009766 1 -1
185 1983.891845703125 93.47871398925781 1 -1
185 1732.8944091796875 95.44889068603516 1 -1
185 1247.404296875 80.82278442382812 1 -1
185 749.6821899414062 84.25040435791016 1 -1
185 1335.287841796875 95.38105010986328 1 -1
185 1046.35986328125 83.219482421875 1 -1
185 1034.718994140625 88.58128356933594 1 -1
185 1776.465087890625 102.26488494873047 1 -1
185 2145.754638671875 81.07784271240234 1 -1
185 2071.3447265625 92.10760498046875 1 -1
185 1554.52685546875 96.36454010009766 1 -1
185 1732.476806640625 82.88426208496094 1 -1
185 1379.84130859375 88.80270385742188 1 -1
185 1664.1466064453125 89.4081802368164 1 -1
185 1131.7703857421875 82.82022094726562 1 -1
185 1506.3768310546875 90.72196960449219 1 -1
185 1528.5040283203125 91.30833435058594 1 -1
185 2029.744873046875 102.01368713378906 1 -1
185 1783.366943359375 93.60595703125 1 -1
185 1947.5140380859375 95.04597473144531 1 -1
185 2045.91552734375 95.5094223022461 1 -1
185 795.09423828125 83.79644775390625 1 -1
185 2198.029052734375 99.60237884521484 1 -1
185 1446.250732421875 97.3095703125 1 -1
185 2177.434326171875 97.10881042480469 1 -1
185 1477.433349609375 90.2373046875 1 -1
185 2014.9814453125 100.07784271240234 1 -1
185 1824.5062255859375 79.02474212646484 1 -1
185 1423.18701171875 95.07301330566406 1 -1
185 1902.32763671875 97.64740753173828 1 -1
185 2060.42724609375 94.4947509765625 1 -1
185 1100.049560546875 88.59786987304688 1 -1
185 1161.1685791015625 82.35810852050781 1 -1
185 1122.927490234375 90.20620727539062 1 -1
185 1678.6407470703125 81.94712829589844 1 -1
185 633.0159301757812 82.82512664794922 1 -1
185 2170.253173828125 87.2943344116211 1 -1
185 1814.406982421875 84.69488525390625 1 -1
185 1173.44970703125 89.66584777832031 1 -1
185 1344.868408203125 85.4862060546875 1 -1
185 152.731689453125 78.07166290283203 1 -1
185 1578.5513916015625 93.92636108398438 1 -1
185 712.019287109375 86.61296844482422 1 -1
185 547.6568603515625 81.57850646972656 1 -1
185 2188.4951171875 92.93448638916016 1 -1
185 827.4402465820312 81.62410736083984 1 -1
185 1877.91552734375 92.86395263671875 1 -1
185 559.6177978515625 83.68571472167969 1 -1
185 130.44528198242188 79.2289810180664 1 -1
185 861.9710693359375 88.16348266601562 1 -1
185 1812.311279296875 95.960205078125 1 -1
185 383.8460388183594 79.81793975830078 1 -1
185 1618.2447509765625 92.75678253173828 1 -1
185 2128.802001953125 91.31050872802734 1 -1
185 1069.6209716796875 81.36744689941406 1 -1
186.25733947753906 1355.3763427734375 78 1 -1
187.7410430908203 87.20457458496094 78 1 -1
190.303955078125 207.52066040039062 78 1 -1
190.18618774414062 310.0890808105469 78 1 -1
187.5432586669922 179.85372924804688 78 1 -1
190.97608947753906 1584.227783203125 78 1 -1
189.4664764404297 1800.421142578125 78 1 -1
190.8607635498047 818.94580078125 78 1 -1
190.4251708984375 783.5189208984375 78 1 -1
186.77349853515625 1878.5472412109375 78 1 -1
185 1024.422119140625 93.35628509521484 1 -1
185 190.6566162109375 94.07341003417969 0 -1
185 1652.7001953125 104.11956024169922 0 -1
185 198.6738739013672 84.51884460449219 1 -1
185 165.04051208496094 82.18114471435547 1 -1
185 581.7698364257812 88.26054382324219 1 -1
185 726.4952392578125 104.53854370117188 0 -1
185 1202.24462890625 96.12410736083984 1 -1
185 1358.489990234375 108.27822875976562 0 -1
185 251.9977569580078 94.02301025390625 0 -1
185 972.5172729492188 93.85379791259766 1 -1
185 624.511474609375 108.53312683105469 0 -1
185 1181.9432373046875 98.67036437988281 0 -1
185 366.97235107421875 101.48316192626953 0 -1
185 107.99676513671875 83.95282745361328 1 -1
185 457.921875 95.81002044677734 0 -1
185 210.97361755371094 90.13487243652344 0 -1
185 1164.967529296875 99.67180633544922 0 -1
185 229.6769561767578 83.14260864257812 1 -1
185 1463.8299560546875 105.84955596923828 0 -1
185 1144.4376220703125 100.514404296875 0 -1
185 568.6194458007812 95.83123016357422 0 -1
185 404.066650390625 103.70369720458984 0 -1
185 654.3004150390625 90.59901428222656 0 -1
185 695.1649780273438 89.78346252441406 1 -1
185 803.7490234375 100.91093444824219 0 -1
185 114.36788177490234 95.9975814819336 0 -1
185 73.10960388183594 109.0628433227539 0 -1
185 1402.7218017578125 101.50604248046875 0 -1
185 583.96044921875 105.30535125732422 0 -1
185 464.1855773925781 85.29386138916016 1 -1
185 1235.759765625 98.92237854003906 0 -1
185 345.0389709472656 98.1455078125 0 -1
185 998.9447021484375 103.85784149169922 0 -1
185 222.7135772705078 102.451904296875 0 -1
185 149.63258361816406 102.94982147216797 0 -1
185 327.6312561035156 109.3491439819336 0 -1
185 1493.14404296875 102.0743179321289 0 -1
185 1012.4231567382812 102.60376739501953 0 -1
185 1925.3695068359375 105.90192413330078 0 -1
185 63.99932098388672 98.97893524169922 0 -1
185 509.71673583984375 98.38224792480469 0 -1
185 694.1167602539062 101.2337417602539 0 -1
185 1759.572265625 107.80554962158203 0 -1
185 601.6553344726562 95.24602508544922 0 -1
185 1324.7977294921875 108.51559448242188 0 -1
185 1195.4566650390625 106.84256744384766 0 -1
185 894.2636108398438 102.96157836914062 0 -1
185 279.58551025390625 102.72225952148438 0 -1
185 1884.1553955078125 104.82112884521484 0 -1
185 331.5133972167969 82.27525329589844 1 -1
185 532.4883422851562 97.35193634033203 0 -1
185 313.180908203125 106.51812744140625 0 -1
185 357.4964599609375 89.3073501586914 0 -1
185 264.1107482910156 106.42000579833984 0 -1
185 939.0531005859375 102.427001953125 0 -1
185 292.6308898925781 93.82149505615234 0 -1
185 625.0370483398438 92.46570587158203 0 -1
185 1680.3592529296875 105.04218292236328 0 -1
185 112.30689239501953 107.28025817871094 0 -1
185 243.2420654296875 81.04857635498047 1 -1
185 1512.5577392578125 105.8432388305664 0 -1
185 1247.245361328125 106.82034301757812 0 -1
185 482.0500793457031 93.24508666992188 0 -1
185 1997.1029052734375 107.27204132080078 0 -1
185 1482.169921875 105.60240173339844 0 -1
185 389.7141418457031 107.87853240966797 0 -1
185 1259.6395263671875 101.33084869384766 0 -1
185 188.76206970214844 108.526123046875 0 -1
185 91.51016998291016 100.33737182617188 0 -1
185 639.3151245117188 107.98126983642578 0 -1
185 346.5315246582031 85.06011199951172 1 -1
185 909.8630981445312 103.67456817626953 0 -1
185 1047.0302734375 99.6319808959961 0 -1
185 126.63233184814453 104.24636840820312 0 -1
185 438.0655517578125 98.95915985107422 0 -1
185 988.8598022460938 93.97257995605469 1 -1
185 418.34149169921875 107.61568450927734 0 -1
185 835.7579956054688 96.11031341552734 0 -1
185 1973.68701171875 106.82019805908203 0 -1
185 853.2042236328125 102.27210998535156 0 -1
185 1057.314453125 107.5049057006836 0 -1
185 1286.19482421875 102.84078979492188 0 -1
185 561.7733764648438 105.77059936523438 0 -1
185 177.1228485107422 88.48741912841797 0 -1
185 323.3100891113281 95.5230941772461 0 -1
185 1662.8428955078125 109.39391326904297 0 -1
185 543.2521362304688 99.05967712402344 0 -1
185 814.1726684570312 91.73089599609375 1 -1
185 497.9481506347656 99.67708587646484 0 -1
185 477.66156005859375 105.32835388183594 0 -1
185 1336.4508056640625 109.22534942626953 0 -1
185 961.8079833984375 97.2621078491211 0 -1
185 911.3526611328125 90.66016387939453 1 -1
185 1080.5113525390625 99.05145263671875 0 -1
185 71.01245880126953 79.61495208740234 1 -1
185 395.24163818359375 86.86456298828125 1 -1
185 1546.5372314453125 105.7570571899414 0 -1
185 670.2589721679688 107.73938751220703 0 -1
185 264.9786682128906 87.05439758300781 0 -1
185 786.0907592773438 105.28584289550781 0 -1
190.94003295898438 44 108.38570404052734 0 -1
185.00698852539062 525.8753051757812 109.58771514892578 0 -1
185.03102111816406 1961.9290771484375 110.19975280761719 0 -1
185.00799560546875 1128.8016357421875 109.6134262084961 0 -1
185.01214599609375 1812.663330078125 109.71912384033203 0 -1
185.00523376464844 1605.828125 109.54330444335938 0 -1
185.00799560546875 1798.0927734375 109.61344146728516 0 -1
190.79893493652344 2199 87.96804809570312 1 -1
191 212.9269561767578 102.83892822265625 0 -1
191 406.9144287109375 91.56253051757812 0 -1
191 1087.786376953125 86.2484130859375 1 -1
191 836.7571411132812 85.77155303955078 1 -1
191 643.3875732421875 89.14899444580078 1 -1
191 1702.95458984375 84.9103775024414 1 -1
191 1289.3125 85.6298599243164 1 -1
191 847.4425659179688 91.84004211425781 1 -1
191 949.7133178710938 91.18580627441406 1 -1
191 257.183349609375 81.10298156738281 1 -1
191 1468.345458984375 85.53421783447266 1 -1
191 322.8275146484375 85.40501403808594 1 -1
191 1076.2301025390625 88.42765045166016 1 -1
191 1171.8360595703125 78.34125518798828 1 -1
191 885.8677978515625 86.85356903076172 1 -1
191 553.9818725585938 90.64108276367188 0 -1
191 367.149658203125 89.12322998046875 0 -1
191 381.58673095703125 89.7828140258789 0 -1
191 1447.857666015625 88.0997085571289 1 -1
191 672.63916015625 87.77265167236328 1 -1
191 763.3062744140625 94.64482116699219 0 -1
191 275.07867431640625 95.08786010742188 0 -1
191 1327.59033203125 85.33448028564453 1 -1
191 1265.7637939453125 80.5103530883789 1 -1
191 1502.468505859375 78.26358032226562 1 -1
191 198.2290802001953 103.00557708740234 0 -1
191 646.6239624023438 100.4332504272461 0 -1
191 48.81193542480469 82.03544616699219 1 -1
191 632.873046875 98.87662506103516 0 -1
191 432.2139892578125 90.58882141113281 0 -1
191 1107.91162109375 93.33162689208984 1 -1
191 145.67843627929688 89.48920440673828 0 -1
191 751.59912109375 97.50922393798828 0 -1
191 419.8694152832031 83.48965454101562 1 -1
191 975.5687255859375 83.93939971923828 1 -1
191 1006.4317016601562 92.83415222167969 1 -1
191 1515.8001708984375 85.67024230957031 1 -1
191 335.9690856933594 94.49436950683594 0 -1
191 939.3240966796875 85.11864471435547 1 -1
191 1480.7879638671875 80.710205078125 1 -1
191 660.39111328125 79.52729034423828 1 -1
191 313.1636657714844 94.59036254882812 0 -1
191 394.7821960449219 98.97917175292969 0 -1
191 1364.9710693359375 81.04444122314453 1 -1
191 83.21534729003906 92.99527740478516 0 -1
191 158.5721435546875 95.31111145019531 0 -1
191 1139.51904296875 92.70780944824219 1 -1
191 218.16957092285156 84.93053436279297 1 -1
191 52.30941390991211 95.33049011230469 0 -1
191 121.52296447753906 86.5025634765625 0 -1
191 613.3176879882812 80.71488189697266 1 -1
191 182.6381378173828 97.40225982666016 0 -1
191 739.1635131835938 99.25855255126953 0 -1
191 448.5736999511719 99.02394104003906 0 -1
191 721.7494506835938 90.5615463256836 1 -1
191 1242.1787109375 91.54901885986328 1 -1
191 486.8028869628906 102.14420318603516 0 -1
191 766.8779907226562 82.75802612304688 1 -1
191 739.068115234375 83.18892669677734 1 -1
191 62.89921188354492 89.15587615966797 0 -1
191 1151.5533447265625 87.11863708496094 1 -1
191 491.7779846191406 86.9286880493164 1 -1
191 590.9883422851562 83.0430679321289 1 -1
191 805.1771850585938 91.16604614257812 1 -1
191 425.38934326171875 100.01448059082031 0 -1
191 471.8428039550781 96.23786926269531 0 -1
191 787.7133178710938 95.10755157470703 0 -1
191 902.1022338867188 83.39127349853516 1 -1
191 1741.2735595703125 84.40958404541016 1 -1
191 590.8919677734375 96.58109283447266 0 -1
191 683.95703125 94.47352600097656 0 -1
191 276.7453308105469 82.88690948486328 1 -1
191 612.259033203125 93.51940155029297 0 -1
191 1057.129638671875 86.56320190429688 1 -1
191 922.6598510742188 82.49639129638672 1 -1
191 94.87439727783203 90.11986541748047 0 -1
191 171.05322265625 101.54769897460938 0 -1
191 54.501529693603516 106.60707092285156 0 -1
191 1309.2720947265625 82.90410614013672 1 -1
191 137.76463317871094 101.94783020019531 0 -1
191 1391.1033935546875 88.36536407470703 1 -1
191 1258.2462158203125 89.9685287475586 1 -1
191 1428.1793212890625 87.47595977783203 1 -1
191 354.033935546875 97.96489715576172 0 -1
191 872.1337890625 85.80817413330078 1 -1
191 852.4398803710938 78.54843139648438 1 -1
191 962.256591796875 85.72298431396484 1 -1
191 101.2038803100586 103.03491973876953 0 -1
191 896.4505004882812 93.60011291503906 0 -1
191 1531.5928955078125 82.5550308227539 1 -1
191 1206.5469970703125 84.48895263671875 1 -1
191 2022.5938720703125 90.28941345214844 1 -1
191 2136.70751953125 99.7550277709961 1 -1
191 2057.35205078125 86.1730728149414 1 -1
191 1908.0904541015625 89.81336212158203 1 -1
191 1378.9951171875 101.7693862915039 0 -1
191 2131.582275390625 79.35513305664062 1 -1
191 1682.42919921875 90.24195098876953 1 -1
191 1824.583251953125 93.99917602539062 1 -1
191 1853.6962890625 90.76820373535156 1 -1
191 1935.935302734375 99.85871887207031 1 -1
191 1520.8253173828125 99.16732025146484 1 -1
191 1800.248046875 100.2677001953125 1 -1
191 378.79461669921875 105.5409927368164 0 -1
191 611.6771240234375 105.50843811035156 0 -1
191 1026.4154052734375 107.9588394165039 0 -1
191 1962.4683837890625 94.71942901611328 1 -1
191 1561.9395751953125 104.42020416259766 0 -1
191 1717.81884765625 91.4942626953125 1 -1
191 1224.8153076171875 94.86690521240234 1 -1
191 1608.1297607421875 99.042236328125 1 -1
191 1925.8155517578125 83.72476959228516 1 -1
191 1706.9605712890625 95.79950714111328 1 -1
191 1643.5406494140625 86.31930541992188 1 -1
191 813.160888671875 105.62963104248047 0 -1
191 975.3494262695312 105.1126937866211 0 -1
191 1595.504638671875 98.71625518798828 1 -1
191 1530.4642333984375 109.40248107910156 0 -1
191 1149.134765625 109.26475524902344 0 -1
191 2109.559814453125 104.90484619140625 1 -1
191 2167.7802734375 107.65947723388672 0 -1
191 681.5711059570312 105.71283721923828 0 -1
191 1630.873291015625 89.74666595458984 1 -1
191 549.74267578125 106.02495574951172 0 -1
191 1093.491943359375 96.99092102050781 0 -1
191 1061.9097900390625 97.66879272460938 0 -1
191 1311.80859375 102.84454345703125 0 -1
191 1116.9283447265625 108.62952423095703 0 -1
191 1216.7855224609375 103.28231811523438 0 -1
191 2157.822021484375 79.48900604248047 1 -1
191 1618.927001953125 105.44298553466797 0 -1
191 2087.370849609375 107.1712417602539 0 -1
191 1276.820556640625 106.34098815917969 0 -1
191 2042.802490234375 105.87266540527344 1 -1
191 2009.40625 90.2455062866211 1 -1
191 1580.1533203125 105.39807891845703 0 -1
191 1553.0946044921875 87.45140075683594 1 -1
191 2151.399658203125 105.82477569580078 1 -1
191 823.6593017578125 101.16004180908203 0 -1
191 2092.10986328125 84.3524169921875 1 -1
191 950.724853515625 104.16490936279297 0 -1
191 1101.6961669921875 105.53462219238281 0 -1
191 517.8698120117188 103.83736419677734 0 -1
191 1537.8433837890625 97.95242309570312 1 -1
191 1412.450927734375 90.74346160888672 1 -1
191 1920.5264892578125 93.67224884033203 1 -1
191 1567.6046142578125 89.57430267333984 1 -1
191 1787.239013671875 106.56267547607422 0 -1
191 1912.3238525390625 104.59814453125 0 -1
191 1277.524658203125 93.07563781738281 1 -1
191 1174.335693359375 108.37554931640625 0 -1
191 703.8197021484375 104.16685485839844 0 -1
191 1302.8731689453125 95.3622055053711 1 -1
191 1950.3438720703125 103.54833221435547 1 -1
191 2036.2188720703125 93.22156524658203 1 -1
191 2180.302001953125 83.05955505371094 1 -1
191 1839.852294921875 88.3035659790039 1 -1
191 986.9798583984375 105.40511322021484 0 -1
191 2119.093994140625 84.34893035888672 1 -1
191 2055.27587890625 105.11119842529297 1 -1
191 796.8724365234375 108.9737548828125 0 -1
191 1393.4776611328125 99.38971710205078 0 -1
191 1874.266357421875 105.17620086669922 0 -1
191 1456.7283935546875 98.2103500366211 1 -1
191 920.1265258789062 98.84095764160156 0 -1
191 1847.982666015625 103.35038757324219 1 -1
191 1323.280517578125 96.53933715820312 1 -1
191 1774.1527099609375 90.50105285644531 1 -1
191 839.9124755859375 107.5183334350586 0 -1
191 1670.5672607421875 100.30433654785156 1 -1
191 1694.178955078125 104.98273468017578 0 -1
191 1743.07421875 103.16162109375 0 -1
191 2070.676513671875 108.33051300048828 0 -1
191 1128.30419921875 98.63323974609375 0 -1
191 1160.721923828125 108.99929809570312 0 -1
191 1071.810302734375 105.36579895019531 0 -1
191 774.5780639648438 100.7203140258789 0 -1
191 1434.59033203125 100.70481872558594 0 -1
191 2183.641357421875 103.77667236328125 1 -1
191 1592.052490234375 88.17896270751953 1 -1
191 2151.236572265625 92.35662841796875 1 -1
191 1368.017578125 92.94148254394531 1 -1
191 1611.3116455078125 87.4239273071289 1 -1
191 1893.43603515625 90.79034423828125 1 -1
191 1971.723388671875 87.39505004882812 1 -1
191 2102.418212890625 85.75518798828125 1 -1
191 1866.2166748046875 95.28714752197266 1 -1
191 1952.7454833984375 86.69570922851562 1 -1
191 572.0883178710938 107.22212219238281 0 -1
191 1824.8399658203125 105.14533996582031 0 -1
191 1837.140869140625 100.99884033203125 1 -1
191 1408.639404296875 108.2526626586914 0 -1
191 1191.4576416015625 94.21410369873047 1 -1
191 1895.8460693359375 106.37019348144531 0 -1
191 1350.69873046875 96.44115447998047 1 -1
191 882.2293090820312 101.87992858886719 0 -1
191 715.0274047851562 101.75398254394531 0 -1
191 1472.4993896484375 98.69767761230469 1 -1
191 871.0531005859375 101.90880584716797 0 -1
191 1652.53759765625 94.28976440429688 1 -1
191 1989.1373291015625 102.688232421875 1 -1
191.00833129882812 1629.8382568359375 109.56900787353516 0 -1
191.00552368164062 86.50579071044922 109.51532745361328 0 -1
185.03651428222656 236.5122833251953 110.33956146240234 0 -1
185.02940368652344 251.0009002685547 110.15840148925781 0 -1
185.02565002441406 755.5706176757812 110.0627670288086 0 -1
185.12721252441406 2159.53515625 111.14469146728516 0 -1
185.0486297607422 1389.5257568359375 110.48081970214844 0 -1
185.1057891845703 1233.6212158203125 110.9637451171875 0 -1
185.09043884277344 968.6929321289062 110.83411407470703 0 -1
185.1255645751953 453.0162658691406 111.13085174560547 0 -1
191.12405395507812 1715.512939453125 110.65415954589844 0 -1
191.2090606689453 469.28125 111.02294158935547 0 -1
185.2651824951172 1047.1474609375 111.93335723876953 0 -1
185.3001251220703 919.6351928710938 112.10897064208984 0 -1
185.33802795410156 355.83673095703125 112.29945373535156 0 -1
185.2024688720703 510.4621887207031 111.61811828613281 0 -1
185.30520629882812 1642.28125 112.13453674316406 0 -1
185.2933349609375 1500.9656982421875 112.07481384277344 0 -1
185.46466064453125 2132.928466796875 112.7631607055664 0 -1
185.40203857421875 1431.0693359375 112.54109954833984 0 -1
185.45204162597656 2199 112.56805419921875 0 -1
191.1986846923828 2027.3453369140625 110.98421478271484 0 -1
191.31056213378906 650.10888671875 111.40188598632812 0 -1
185.5108642578125 1218.891357421875 112.92696380615234 0 -1
185.57032775878906 875.6719360351562 113.13786315917969 0 -1
185.55291748046875 1473.9793701171875 113.07612609863281 0 -1
185.5351104736328 497.6159362792969 113.0129623413086 0 -1
185.37062072753906 206.65914916992188 112.4296646118164 0 -1
185.4989471435547 1084.279052734375 112.88470458984375 0 -1
185.75213623046875 2103.551025390625 113.6689224243164 0 -1
185.7205352783203 1771.6502685546875 113.58330535888672 0 -1
185.62599182128906 338.8512878417969 113.32705688476562 0 -1
185.84609985351562 2012.4359130859375 113.92362976074219 0 -1
191.4765167236328 1442.9892578125 111.84764862060547 0 -1
191.56805419921875 1732.8123779296875 112.08612060546875 0 -1
191.47874450683594 1455.3912353515625 111.85345458984375 0 -1
191.7540283203125 165.40911865234375 112.45211029052734 0 -1
186.1605224609375 291.6375427246094 114.66647338867188 0 -1
186.29588317871094 886.2183227539062 114.96014404296875 0 -1
186.2255096435547 544.715087890625 114.80746459960938 0 -1
186.263671875 1005.4924926757812 114.89027404785156 0 -1
186.3210906982422 1590.173828125 115.01483154296875 0 -1
186.212890625 2118.63134765625 114.78010559082031 0 -1
186.22311401367188 1987.2091064453125 114.8022689819336 0 -1
186.1183319091797 1948.92724609375 114.57494354248047 0 -1
186.05625915527344 1291.7181396484375 114.44029998779297 0 -1
185.8922882080078 721.1563110351562 114.04881286621094 0 -1
185.7022247314453 438.551025390625 113.53364562988281 0 -1
185.94546508789062 1688.71728515625 114.19294738769531 0 -1
191.96620178222656 900.4119262695312 112.833251953125 0 -1
192.09930419921875 731.8713989257812 113.03821563720703 0 -1
186.75262451171875 1263.5823974609375 115.80497741699219 0 -1
186.43316650390625 779.83837890625 115.23455810546875 0 -1
186.3764190673828 277.8840026855469 115.13324737548828 0 -1
186.42172241210938 1036.2752685546875 115.21414184570312 0 -1
192.1534423828125 1368.67236328125 113.12158203125 0 -1
192.29844665527344 425.9380187988281 113.33270263671875 0 -1
192.33023071289062 148.67433166503906 113.37195587158203 0 -1
187.1460418701172 596.8745727539062 116.42340850830078 0 -1
187.1558380126953 943.1537475585938 116.43807220458984 0 -1
187.38668823242188 125.19364166259766 116.78355407714844 0 -1
187.08743286132812 2189.489990234375 116.33570098876953 0 -1
187.22068786621094 1570.3809814453125 116.53512573242188 0 -1
187.13177490234375 1140.724853515625 116.40206146240234 0 -1
186.95391845703125 983.7205810546875 116.13589477539062 0 -1
186.8699493408203 175.58377075195312 116.01020812988281 0 -1
192.50921630859375 1317.3809814453125 113.5929946899414 0 -1
192.45639038085938 1674.1551513671875 113.52777099609375 0 -1
192.74557495117188 826.3121948242188 113.87247467041016 0 -1
192.9875030517578 1422.5447998046875 114.1144027709961 0 -1
188.2573699951172 1901.76171875 117.84717559814453 0 -1
188.13525390625 1098.8602294921875 117.71507263183594 0 -1
188.3631134033203 1844.7047119140625 117.96157836914062 0 -1
188.2030029296875 2000.2557373046875 117.78836059570312 0 -1
187.9949951171875 1519.82177734375 117.55933380126953 0 -1
187.9232940673828 688.80615234375 117.46836853027344 0 -1
187.91452026367188 1276.972900390625 117.45722961425781 0 -1
187.7733154296875 563.6654663085938 117.2780990600586 0 -1
187.60232543945312 2081.227783203125 117.06118774414062 0 -1
187.6254119873047 1621.22119140625 117.09046936035156 0 -1
187.608154296875 807.1646118164062 117.06857299804688 0 -1
188.53578186035156 1018.4271240234375 118.14836883544922 0 -1
188.3871307373047 1110.8275146484375 117.987548828125 0 -1
188.4463348388672 415.6814880371094 118.0516128540039 0 -1
188.55517578125 1545.2139892578125 118.16934967041016 0 -1
188.54066467285156 1185.3880615234375 118.1536636352539 0 -1
188.79559326171875 264.53369140625 118.41241455078125 0 -1
189.10177612304688 616.8944702148438 118.6954345703125 0 -1
189.15927124023438 48.74653625488281 118.74858856201172 0 -1
189.1846160888672 1074.7066650390625 118.77201843261719 0 -1
189.13023376464844 1352.65966796875 118.72174835205078 0 -1
189.1264190673828 1932.6658935546875 118.71822357177734 0 -1
188.98269653320312 1061.574462890625 118.58536529541016 0 -1
188.84640502929688 666.1489868164062 118.45938873291016 0 -1
188.8780517578125 1921.453857421875 118.48863983154297 0 -1
188.91004943847656 1653.1351318359375 118.51821899414062 0 -1
189.17654418945312 1556.3560791015625 118.76455688476562 0 -1
189.58590698242188 1832.8271484375 119.11946868896484 0 -1
189.92459106445312 1754.8465576171875 119.38644409179688 0 -1
189.66940307617188 1857.3143310546875 119.18529510498047 0 -1
189.43429565429688 847.7774658203125 118.99996948242188 0 -1
189.62326049804688 863.4563598632812 119.14891815185547 0 -1
189.5401153564453 2094.412109375 119.08338165283203 0 -1
190.0659942626953 1481.926513671875 119.49790954589844 0 -1
189.9022674560547 768.4760131835938 119.36884307861328 0 -1
190.14376831054688 576.463134765625 119.55921173095703 0 -1
190.0556640625 1599.843994140625 119.48975372314453 0 -1
189.86253356933594 229.0221405029297 119.3375244140625 0 -1
190.0376739501953 101.78128051757812 119.47557830810547 0 -1
194.15786743164062 195.86183166503906 115.02804565429688 0 -1
193.79757690429688 533.8324584960938 114.79405212402344 0 -1
193.96151733398438 1814.793701171875 114.90052032470703 0 -1
190.283935546875 1383.91650390625 119.65840148925781 0 -1
190.61195373535156 2167.12451171875 119.87757873535156 0 -1
190.43797302246094 1397.9696044921875 119.7613296508789 0 -1
190.48001098632812 2047.111328125 119.78941345214844 0 -1
190.28311157226562 392.25592041015625 119.65785217285156 0 -1
190.4697723388672 1155.6839599609375 119.78257751464844 0 -1
190.3633575439453 1201.001953125 119.71147155761719 0 -1
190.45989990234375 113.93911743164062 119.7759780883789 0 -1
190.57652282714844 641.5716552734375 119.8539047241211 0 -1
190.65603637695312 376.6661071777344 119.90703582763672 0 -1
191.55653381347656 136.30650329589844 120.4498291015625 0 -1
191.35101318359375 742.4199829101562 120.33473205566406 0 -1
191.4434814453125 2071.3076171875 120.38651275634766 0 -1
191.53321838378906 2109.90478515625 120.43677520751953 0 -1
191.26730346679688 966.3934326171875 120.28784942626953 0 -1
191.18702697753906 1508.728271484375 120.24288940429688 0 -1
191.11830139160156 363.9315490722656 120.20439910888672 0 -1
194.40103149414062 242.51498413085938 115.17113494873047 0 -1
194.7832489013672 1779.6644287109375 115.36591339111328 0 -1
192.4151611328125 1664.63330078125 120.87711334228516 0 -1
192.42579650878906 1973.892333984375 120.88201904296875 0 -1
191.989013671875 1341.5484619140625 120.68067932128906 0 -1
192.594482421875 2032.4617919921875 120.95977020263672 0 -1
191.97552490234375 214.26205444335938 120.6744613647461 0 -1
192.72496032714844 1413.316650390625 121.0199203491211 0 -1
191.96688842773438 75.51695251464844 120.67047882080078 0 -1
194.93841552734375 511.1805419921875 115.44135284423828 0 -1
195.3064422607422 1884.501953125 115.58262634277344 0 -1
195.42581176757812 928.803955078125 115.62844848632812 0 -1
193.1131591796875 1171.2109375 121.16747283935547 0 -1
193.43572998046875 2149.9931640625 121.28648376464844 0 -1
193.10919189453125 1121.068359375 121.16600799560547 0 -1
193.1761016845703 997.9447631835938 121.19068908691406 0 -1
193.40748596191406 499.2724304199219 121.27606201171875 0 -1
193.4116668701172 438.9556884765625 121.27760314941406 0 -1
193.4575653076172 405.641845703125 121.29454040527344 0 -1
193.5854034423828 1802.612548828125 121.34170532226562 0 -1
193.26480102539062 341.9287414550781 121.22341918945312 0 -1
193.65673828125 836.108154296875 121.36802673339844 0 -1
193.2825469970703 755.9489135742188 121.22996520996094 0 -1
193.1064910888672 627.2269287109375 121.16500854492188 0 -1
195.8746337890625 1910.421630859375 115.76350402832031 0 -1
193.93515014648438 605.4500122070312 121.45024871826172 0 -1
193.69998168945312 1236.43408203125 121.3839340209961 0 -1
193.86997985839844 2125.126953125 121.43187713623047 0 -1
193.80581665039062 1436.741455078125 121.41378021240234 0 -1
194.47213745117188 1464.788818359375 121.6016845703125 0 -1
194.64059448242188 468.0177917480469 121.6491928100586 0 -1
194.34158325195312 1214.26513671875 121.56487274169922 0 -1
194.24081420898438 912.074462890625 121.53645324707031 0 -1
194.16818237304688 892.8794555664062 121.5159683227539 0 -1
194.25889587402344 481.2312316894531 121.54154968261719 0 -1
