VERSION .7
FIELDS x y z label object
SIZE 4 4 4 4 4
TYPE F F F I I
COUNT 1 1 1 1 1
WIDTH 873
HEIGHT 1
POINTS 873
VIEWPOINT 0 0 0 1 0 0 0
DATA ascii
-7.335608005523682 -118.83270263671875 3 0 -1
-10.772361755371094 -146.662109375 3 0 -1
-7.249120712280273 -97.10430908203125 3 0 -1
-8.631519317626953 -142.6641387939453 3 0 -1
-7.254033088684082 -99.87567138671875 3 0 -1
-5.256661415100098 -110.63029479980469 3 0 -1
-4.30051851272583 -99.90704345703125 3 0 -1
-8.545419692993164 -106.22212982177734 3 1 -1
-7.076202392578125 -126.04032897949219 3 0 -1
-9.405656814575195 -119.52058410644531 3 0 -1
-8.647106170654297 -129.93092346191406 3 0 -1
-10.195369720458984 -135.32554626464844 3 0 -1
-11.640095710754395 -131.9934844970703 3 0 -1
-1.8369677066802979 -136.35714721679688 3 0 -1
-0.8229970335960388 -118.99465942382812 3 0 -1
-10.900245666503906 -137.89669799804688 3 0 -1
-1.3636059761047363 -130.82986450195312 3 0 -1
-9.366642951965332 -131.278076171875 3 0 -1
-2.1695992946624756 -132.6464385986328 3 0 -1
-7.993545055389404 -139.34974670410156 3 0 -1
-6.301114082336426 -98.55292510986328 3 0 -1
-9.261181831359863 -133.2147979736328 3 0 -1
0.5225086808204651 -132.6488800048828 3 0 -1
-1.0606473684310913 -120.49594116210938 3 0 -1
-10.45239543914795 -117.39705657958984 3 0 -1
-12.917709350585938 -151.24717712402344 3 0 -1
-3.6946403980255127 -123.97821807861328 3 0 -1
-4.626250743865967 -112.44622039794922 3 0 -1
-5.867511749267578 -135.96652221679688 3 0 -1
-4.6793904304504395 -113.9914321899414 3 0 -1
-9.113482475280762 -146.15711975097656 3 0 -1
-7.230197906494141 -117.0578842163086 3 0 -1
-3.927860736846924 -108.06231689453125 3 0 -1
-6.646191596984863 -140.16050720214844 3 0 -1
-10.685879707336426 -121.15116119384766 3 0 -1
-6.551883220672607 -95.82799530029297 3 0 -1
-11.982253074645996 -142.5201416015625 3 0 -1
-11.1771821975708 -128.59291076660156 3 0 -1
-8.636331558227539 -127.03778839111328 3 0 -1
-2.065816879272461 -113.9537582397461 3 0 -1
-8.335807800292969 -82.0296630859375 3 0 -1
-8.596867561340332 -83.74533081054688 3 0 -1
-9.132057189941406 -92.8497543334961 3 0 -1
-8.23228645324707 -78.96044158935547 0.6707184314727783 0 -1
-7.305768013000488 -81.55719757080078 0 0 -1
-4.522511959075928 -97.11724090576172 0 0 -1
-5.207019329071045 -93.3397216796875 0 0 -1
-5.698800086975098 -90.74359893798828 0 0 -1
-2.865420341491699 -105.81434631347656 0 0 -1
-6.520710468292236 -83.51266479492188 0 0 -1
0.049818284809589386 -120.58052825927734 0 0 -1
-7.405462265014648 -78.25611114501953 0 0 -1
-7.5587239265441895 -77.72267150878906 1.3102185726165771 0 -1
-5.39563512802124 -88.79911804199219 0 0 -1
-4.875495910644531 -91.84243774414062 0 0 -1
1.629521369934082 -128.97596740722656 0 0 -1
2.172106981277466 -131.69125366210938 0 0 -1
2.6401772499084473 -134.5318145751953 1.389157772064209 0 -1
-5.482604503631592 -86.94000244140625 0 0 -1
-4.071375846862793 -94.74093627929688 0 0 -1
-6.457417964935303 -80.52033996582031 0 0 -1
-7.129621505737305 -76.32331848144531 1.4732319116592407 0 -1
-6.363678932189941 -80.18063354492188 3 0 -1
-1.2759742736816406 -111.30299377441406 3 0 -1
-6.978312015533447 -76.07644653320312 3 0 -1
-4.772603988647461 -89.72621154785156 3 0 -1
-7.001163482666016 -74.94922637939453 1.486448884010315 0 -1
-7.135965347290039 -67.22176361083984 3 0 -1
-7.10891056060791 60.31339645385742 3 0 -1
-7.05751371383667 19.20905303955078 3 0 -1
-7.235348224639893 63.82864761352539 3 0 -1
-7.334568977355957 -57.520015716552734 3 0 -1
-7.239296913146973 -54.16775894165039 3 0 -1
-7.295660018920898 -7.069388389587402 3 0 -1
-7.231945037841797 26.039871215820312 3 0 -1
-7.319766521453857 -28.59638023376465 3 0 -1
-7.171358108520508 -1.137962818145752 3 0 -1
-7.214679718017578 -30.65593147277832 3 0 -1
-7.128607273101807 67.40240478515625 3 0 -1
-7.186694145202637 28.1060791015625 3 0 -1
-7.134391784667969 -73.64153289794922 1.1403496265411377 0 -1
-7.225139141082764 27.347627639770508 0 0 -1
-7.238949775695801 -24.07332420349121 0 0 -1
-7.2429938316345215 -43.40496826171875 0 0 -1
-7.247642993927002 1.3637666702270508 0 0 -1
-7.445067882537842 61.656028747558594 0 0 -1
-7.275543689727783 -27.10076904296875 0 0 -1
-7.279883861541748 -10.24843978881836 0 0 -1
-7.4574432373046875 63.42689895629883 0 0 -1
-7.3274736404418945 -54.04975891113281 0 0 -1
-7.360894203186035 -16.83758544921875 0 0 -1
-7.399379730224609 8.950732231140137 0 0 -1
-7.430531024932861 -3.332413673400879 0 0 -1
-7.511579513549805 -46.06004333496094 0 1 -1
-7.616521835327148 29.354820251464844 0 0 -1
-7.548122882843018 48.362308502197266 0 1 -1
-7.7002272605896 59.88359451293945 0 0 -1
-7.499204158782959 57.793304443359375 0 0 -1
-7.623605728149414 -52.662559509277344 0 0 -1
-7.704995632171631 31.125377655029297 0 0 -1
-7.626904010772705 -66.37242889404297 0 0 -1
-7.626621246337891 -58.65165328979492 0 0 -1
-7.682587146759033 -15.576726913452148 0 0 -1
-7.565450191497803 -72.2540054321289 0.9069488048553467 0 -1
-7.869309425354004 -30.43471908569336 0 0 -1
-7.904327869415283 50.51304626464844 0 1 -1
-7.842428207397461 -13.91732120513916 0 0 -1
-7.777770519256592 32.623653411865234 0 0 -1
-7.773979187011719 -1.547656536102295 0 0 -1
-7.823209762573242 -49.626731872558594 0 1 -1
-7.989485740661621 18.905475616455078 0 0 -1
-7.778642177581787 -57.10655975341797 0 0 -1
-7.967077255249023 44.4547233581543 0 0 -1
-7.823861598968506 65.430419921875 0 0 -1
-7.974776268005371 42.10390853881836 0 0 -1
-8.03646183013916 68.05965423583984 0 0 -1
-8.10009765625 -29.15218162536621 0 0 -1
-8.013518333435059 23.9505558013916 0 0 -1
-7.965103626251221 -32.76298904418945 0 0 -1
-8.113718032836914 52.69104766845703 0 0 -1
-7.9709978103637695 -39.8118782043457 0 0 -1
-7.850343227386475 -41.7825813293457 0 0 -1
-7.85499382019043 -61.46300506591797 0 0 -1
-8.028045654296875 -4.715819835662842 0 0 -1
-7.977286338806152 -12.623369216918945 0 0 -1
-8.055997848510742 37.88749694824219 0 0 -1
-8.084249496459961 4.4077677726745605 0 0 -1
-8.162890434265137 -71.13994598388672 1.6697237491607666 0 -1
-8.196417808532715 4.676009178161621 3 0 -1
-8.135053634643555 -52.88949203491211 3 0 -1
-8.238123893737793 -34.700557708740234 3 0 -1
-8.319185256958008 -43.03160095214844 3 0 -1
-8.182159423828125 -65.1110610961914 3 0 -1
-8.136222839355469 54.23751449584961 3 0 -1
-8.173595428466797 -37.609832763671875 3 0 -1
-8.307934761047363 -56.238319396972656 3 0 -1
-8.0472993850708 51.012733459472656 3 0 -1
-7.990777969360352 36.585670471191406 3 0 -1
-7.912227630615234 14.051498413085938 3 0 -1
-7.835472106933594 -60.91666030883789 3 0 -1
-7.970677375793457 -33.22854995727539 3 0 -1
-8.599189758300781 -31.898000717163086 3 0 -1
-8.430769920349121 1.9329019784927368 3 0 -1
-8.555854797363281 -63.019195556640625 3 0 -1
-8.589795112609863 -54.220947265625 3 0 -1
-8.442365646362305 45.35580062866211 3 1 -1
-8.571417808532715 9.34359073638916 3 0 -1
-8.485868453979492 12.665262222290039 3 0 -1
-8.623490333557129 -25.496854782104492 3 0 -1
-8.515215873718262 -9.242963790893555 3 0 -1
-8.376413345336914 18.324871063232422 3 0 -1
-8.354402542114258 61.850067138671875 3 0 -1
-8.385385513305664 67.92076873779297 3 0 -1
-8.321122169494629 28.997831344604492 3 0 -1
-8.142658233642578 55.64669418334961 3 0 -1
-8.363821029663086 33.234100341796875 3 0 -1
-8.395207405090332 -5.1233296394348145 3 0 -1
-8.891531944274902 -22.816789627075195 3 0 -1
-8.879319190979004 -30.39337158203125 3 0 -1
-8.930139541625977 -50.52761459350586 3 0 -1
-8.88438892364502 25.098358154296875 3 0 -1
-8.990218162536621 -38.9489860534668 3 0 -1
-8.841136932373047 -17.665252685546875 3 0 -1
-8.81712532043457 -26.95538902282715 3 0 -1
-8.921433448791504 -69.25729370117188 3 0 -1
-8.660255432128906 -14.376303672790527 3 0 -1
-8.516077995300293 60.4450798034668 3 0 -1
-8.652741432189941 31.19786262512207 3 0 -1
-8.660229682922363 6.412079811096191 3 0 -1
-8.6267728805542 23.783897399902344 3 0 -1
-8.857583999633789 64.37882995605469 3 0 -1
-8.902052879333496 39.42948913574219 3 0 -1
-8.958528518676758 3.323143720626831 3 0 -1
-9.028852462768555 41.02182388305664 3 0 -1
-9.026626586914062 20.243940353393555 3 0 -1
-9.078930854797363 -21.540040969848633 3 0 -1
-9.054801940917969 59.17829513549805 3 0 -1
-8.924620628356934 65.70936584472656 3 0 -1
-8.9619140625 22.38631248474121 3 0 -1
-9.007035255432129 26.510543823242188 3 0 -1
-9.090615272521973 16.046140670776367 3 0 -1
-9.026365280151367 7.759766101837158 3 0 -1
-8.834290504455566 70.27997589111328 2.9574403762817383 0 -1
-9.236398696899414 -59.70479965209961 3 0 -1
-9.308311462402344 -66.31746673583984 3 0 -1
-9.252439498901367 -12.804484367370605 3 0 -1
-9.379319190979004 -24.09331512451172 3 0 -1
-9.263983726501465 -10.446517944335938 3 0 -1
-9.193268775939941 -15.89378833770752 3 0 -1
-9.176401138305664 -48.34227752685547 3 0 -1
-9.234869003295898 -57.91294479370117 3 0 -1
-9.20849323272705 -3.4519424438476562 3 0 -1
-9.474905014038086 51.82611846923828 3 0 -1
-9.528449058532715 -8.488637924194336 3 0 -1
-9.344379425048828 56.30830001831055 3 0 -1
-9.477984428405762 -1.7455229759216309 3 0 -1
-9.425488471984863 62.7243766784668 3 0 -1
-9.414633750915527 49.78445816040039 3 0 -1
-9.439913749694824 44.24119567871094 3 1 -1
-9.477927207946777 57.80582809448242 3 0 -1
-9.282888412475586 37.00437927246094 3 0 -1
-9.289677619934082 53.30722427368164 3 0 -1
-9.534440040588379 5.480067253112793 3 0 -1
-9.562707901000977 -0.0969139114022255 3 0 -1
-9.398919105529785 47.66318130493164 3 1 -1
-8.648026466369629 56.83219909667969 0 0 -1
-8.616461753845215 46.290687561035156 0 1 -1
-8.71163272857666 -7.59907341003418 0 0 -1
-8.535311698913574 60.877708435058594 0 0 -1
-8.68058967590332 17.44952964782715 0 0 -1
-8.727487564086914 40.1268424987793 0 0 -1
-8.525155067443848 -64.4096450805664 0 0 -1
-8.523521423339844 66.84237670898438 0 0 -1
-8.801493644714355 30.269641876220703 0 0 -1
-8.672856330871582 25.549636840820312 0 0 -1
-8.628114700317383 -31.554140090942383 0 0 -1
-8.766526222229004 0.8916622996330261 0 0 -1
-8.937835693359375 -59.82897186279297 0 0 -1
-8.949100494384766 33.23080062866211 0 0 -1
-8.564375877380371 -62.7469596862793 0 0 -1
-8.703560829162598 -23.419811248779297 0 0 -1
-8.963262557983398 -26.366086959838867 0 0 -1
-8.702250480651855 -36.41870880126953 0 0 -1
-8.92690372467041 -16.922691345214844 0 0 -1
-8.946920394897461 -40.96725082397461 0 0 -1
-8.88588809967041 -42.901161193847656 0 0 -1
-9.387784004211426 62.333919525146484 0 0 -1
-9.206189155578613 13.08426284790039 0 0 -1
-9.095617294311523 11.40911865234375 0 0 -1
-9.045955657958984 -38.03227615356445 0 0 -1
-9.131717681884766 48.78860092163086 0 1 -1
-9.295599937438965 44.858131408691406 0 0 -1
-9.046548843383789 64.1973876953125 0 0 -1
-9.104531288146973 37.10707473754883 0 0 -1
-9.1258544921875 3.2767298221588135 0 0 -1
-9.264373779296875 19.339008331298828 0 0 -1
-8.991714477539062 69.00196075439453 0 0 -1
-9.300264358520508 42.600154876708984 0 0 -1
-9.111638069152832 59.43553924560547 0 0 -1
-9.391836166381836 69.73506164550781 1.340484380722046 0 -1
-9.35167121887207 27.392988204956055 0 0 -1
-9.194562911987305 -19.025850296020508 0 0 -1
-9.29891300201416 -2.5681354999542236 0 0 -1
-9.147961616516113 -35.21192169189453 0 0 -1
-9.479015350341797 6.019927978515625 0 0 -1
-9.271625518798828 8.954484939575195 0 0 -1
-9.462677001953125 55.532432556152344 0 0 -1
-9.594698905944824 67.75678253173828 0 0 -1
-9.660955429077148 50.298343658447266 0 1 -1
-9.49925422668457 -30.1026611328125 0 0 -1
-9.584562301635742 -15.699474334716797 0 0 -1
-9.504228591918945 51.84508514404297 0 0 -1
-9.808454513549805 14.337060928344727 0 0 -1
-9.72685432434082 15.746109008789062 0 0 -1
-9.66928768157959 4.779029369354248 0 0 -1
-9.716958045959473 21.744258880615234 0 0 -1
-9.507377624511719 -22.41025733947754 0 0 -1
-9.50497817993164 23.350465774536133 0 0 -1
-9.715636253356934 -12.270843505859375 0 0 -1
-9.761296272277832 47.41173553466797 0 1 -1
-9.52822494506836 -4.597155570983887 0 0 -1
-9.56035041809082 -6.677259922027588 0 0 -1
-9.873336791992188 34.49935531616211 0 0 -1
-9.594202041625977 53.660987854003906 0 0 -1
-9.677068710327148 -9.793524742126465 0 0 -1
-9.525644302368164 -44.68838882446289 0 0 -1
-9.568913459777832 -28.60711097717285 0 0 -1
-9.936844825744629 40.7205924987793 0 0 -1
-9.67248249053955 -65.75662994384766 0 0 -1
-9.847188949584961 -48.304931640625 0 1 -1
-10.011811256408691 -49.93914794921875 0 0 -1
-9.957401275634766 38.23535919189453 0 0 -1
-9.89676570892334 -53.54026794433594 0 0 -1
-9.573210716247559 -57.800926208496094 0 0 -1
-9.528985977172852 -67.0382308959961 0 0 -1
-9.790130615234375 -61.03530502319336 0 0 -1
-9.978120803833008 32.36732864379883 0 0 -1
-10.177043914794922 -14.448638916015625 0 0 -1
-10.371918678283691 60.86520767211914 0 0 -1
-10.09686279296875 24.845317840576172 0 0 -1
-10.07759952545166 -36.892723083496094 0 0 -1
-10.334222793579102 11.016950607299805 0 0 -1
-10.245200157165527 26.179622650146484 0 0 -1
-10.06160831451416 -41.60005187988281 0 0 -1
-10.582077980041504 63.29878616333008 0 0 -1
-10.276230812072754 57.613407135009766 0 0 -1
-10.412357330322266 18.368932723999023 0 0 -1
-10.186508178710938 0.03999440744519234 0 0 -1
-10.171113967895508 46.02210998535156 0 1 -1
-10.046114921569824 -32.86356735229492 0 0 -1
-10.494901657104492 68.94747161865234 0.05656323954463005 0 -1
-11.35086727142334 45.146060943603516 3 1 -1
-11.420101165771484 68.42137908935547 3 0 -1
-11.30948257446289 33.57352066040039 3 0 -1
-11.51308536529541 11.522833824157715 3 0 -1
-11.207942962646484 63.49810028076172 3 0 -1
-11.226846694946289 14.637895584106445 3 0 -1
-11.237716674804688 29.863666534423828 3 0 -1
-11.469526290893555 35.20130157470703 3 0 -1
-11.361152648925781 60.809913635253906 3 0 -1
-11.283432960510254 58.667335510253906 3 0 -1
-11.410819053649902 66.51464080810547 3 0 -1
-11.229090690612793 21.26622772216797 3 0 -1
-11.300987243652344 -1.5522841215133667 3 0 -1
-11.157220840454102 -10.883273124694824 3 0 -1
-11.168970108032227 19.229610443115234 3 0 -1
-11.218565940856934 -19.410741806030273 3 0 -1
-11.162970542907715 -63.091644287109375 3 0 -1
-11.34894847869873 -39.10634231567383 3 0 -1
-11.225172996520996 3.6504085063934326 3 0 -1
-11.079242706298828 -27.505203247070312 3 0 -1
-11.418231010437012 -61.4122428894043 3 0 -1
-11.059493064880371 -43.36003494262695 3 1 -1
-11.107254028320312 5.226015090942383 3 0 -1
-11.007400512695312 -6.495716094970703 3 0 -1
-11.045207023620605 -23.08856964111328 3 0 -1
-11.192679405212402 8.331093788146973 3 0 -1
-11.404458045959473 -57.78620529174805 3 0 -1
-11.125385284423828 -15.368711471557617 3 0 -1
-10.734338760375977 65.0768051147461 3 0 -1
-10.962337493896484 55.90491485595703 3 0 -1
-10.880688667297363 -33.77532196044922 3 0 -1
-10.766396522521973 25.62818145751953 3 0 -1
-10.815523147583008 1.602864384651184 3 0 -1
-10.623997688293457 39.271400451660156 3 0 -1
-10.847674369812012 53.774383544921875 3 0 -1
-10.782569885253906 57.36274719238281 3 0 -1
-12.323020935058594 59.540103912353516 3 0 -1
-12.276899337768555 55.41127014160156 3 0 -1
-12.594697952270508 -10.375205039978027 3 0 -1
-12.62157154083252 25.513832092285156 3 0 -1
-12.420388221740723 64.20276641845703 3 0 -1
-12.6279935836792 -46.786109924316406 3 1 -1
-12.338213920593262 47.718997955322266 3 0 -1
-12.377692222595215 4.571852684020996 3 0 -1
-12.402894973754883 -33.17625427246094 3 0 -1
-12.176259994506836 -56.652164459228516 3 0 -1
-12.275466918945312 -16.54579734802246 3 0 -1
-12.335211753845215 -50.612003326416016 3 0 -1
-12.12529182434082 51.93524169921875 3 0 -1
-12.111501693725586 -35.03385543823242 3 0 -1
-12.317667961120605 -6.414821147918701 3 0 -1
-12.232551574707031 1.9318324327468872 3 0 -1
-12.188068389892578 -25.218353271484375 3 0 -1
-12.097187042236328 -41.297698974609375 3 0 -1
-12.537396430969238 -60.351627349853516 3 0 -1
-12.052013397216797 36.90035629272461 3 0 -1
-12.03835391998291 39.04385757446289 3 0 -1
-11.914436340332031 13.4956636428833 3 0 -1
-12.025044441223145 -26.5477352142334 3 0 -1
-11.978175163269043 -31.582277297973633 3 0 -1
-11.988702774047852 43.20085906982422 3 0 -1
-11.944269180297852 26.625377655029297 3 0 -1
-11.842609405517578 16.972810745239258 3 0 -1
-12.03986930847168 32.21987533569336 3 0 -1
-12.029863357543945 20.2567195892334 3 0 -1
-11.985411643981934 24.225948333740234 3 0 -1
-11.798190116882324 49.706905364990234 3 0 -1
-11.760064125061035 28.081478118896484 3 0 -1
-11.87998104095459 9.801689147949219 3 0 -1
-11.889158248901367 -20.780715942382812 3 0 -1
-12.04479694366455 41.760467529296875 3 0 -1
-11.865188598632812 -3.493251323699951 3 0 -1
-11.994996070861816 68.29502868652344 0.5006413459777832 0 -1
-12.992932319641113 68.07595825195312 1.5498749017715454 0 -1
-13.693360328674316 8.133785247802734 3 0 -1
-13.722413063049316 60.17772674560547 3 0 -1
-13.283763885498047 57.19223403930664 3 0 -1
-13.75429630279541 66.71598052978516 3 0 -1
-13.635393142700195 -18.948097229003906 3 0 -1
-13.76280403137207 -31.105480194091797 3 0 -1
-13.536550521850586 49.23835754394531 3 0 -1
-13.778838157653809 33.717063903808594 3 0 -1
-13.344830513000488 50.91284942626953 3 0 -1
-13.774927139282227 5.183858871459961 3 0 -1
-13.573993682861328 36.356895446777344 3 0 -1
-13.286101341247559 -12.493210792541504 3 0 -1
-13.356850624084473 11.553393363952637 3 0 -1
-13.650545120239258 -41.60730743408203 3 0 -1
-13.430439949035645 -39.82505798339844 3 0 -1
-13.502798080444336 -14.48696231842041 3 0 -1
-13.67677116394043 -47.92036819458008 3 0 -1
-13.432839393615723 13.149593353271484 3 0 -1
-13.64664077758789 -45.236839294433594 3 1 -1
-13.449986457824707 -34.419761657714844 3 0 -1
-13.464914321899414 -56.913299560546875 3 0 -1
-13.638507843017578 -66.28309631347656 3 0 -1
-13.329572677612305 -26.978708267211914 3 0 -1
-13.589393615722656 -22.586301803588867 3 0 -1
-13.3272066116333 -24.358068466186523 3 0 -1
-13.006881713867188 68.06141662597656 3 0 -1
-13.11112117767334 15.87746524810791 3 0 -1
-12.922865867614746 62.33598709106445 3 0 -1
-12.960516929626465 -0.06803024560213089 3 0 -1
-13.116401672363281 44.04549789428711 3 0 -1
-13.038220405578613 14.480030059814453 3 0 -1
-12.987289428710938 -8.474262237548828 3 0 -1
-13.182774543762207 -21.193212509155273 3 0 -1
-13.17278003692627 31.01594352722168 3 0 -1
-12.905957221984863 53.71227264404297 3 0 -1
-13.127739906311035 46.67972183227539 3 0 -1
-13.099356651306152 18.46416473388672 3 0 -1
-13.215411186218262 28.58476448059082 3 0 -1
-13.87096118927002 -28.467531204223633 2.9993181228637695 0 -1
-13.872806549072266 38.43206024169922 2.999303102493286 0 -1
-13.858003616333008 20.33892059326172 2.9994235038757324 0 -1
-13.811635971069336 24.714536666870117 2.999800443649292 0 -1
-13.804817199707031 -9.57824420928955 2.9998559951782227 0 -1
-13.80826187133789 -53.48295211791992 2.9998278617858887 0 -1
-13.982146263122559 -63.109527587890625 2.996840238571167 0 -1
-13.931442260742188 55.21746063232422 2.9980781078338623 0 -1
-13.896599769592285 29.837480545043945 2.9989287853240967 0 -1
-13.903112411499023 9.572236061096191 2.998769760131836 0 -1
-13.997464179992676 41.315834045410156 2.996230125427246 0 -1
-14.004324913024902 -10.935221672058105 2.995943784713745 0 -1
-14.001582145690918 32.32292938232422 2.996058225631714 0 -1
-14.067150115966797 -32.51603317260742 2.993323564529419 0 -1
-14.130041122436523 42.66014862060547 2.9877912998199463 0 -1
-14.426220893859863 35.24778747558594 2.957465648651123 0 -1
-14.134509086608887 -5.366679668426514 2.9873340129852295 0 -1
-14.544610023498535 58.838680267333984 2.9453437328338623 0 -1
-14.421844482421875 26.4163818359375 2.957913637161255 0 -1
-14.160157203674316 -36.243988037109375 2.984707832336426 0 -1
-14.28210735321045 45.24266815185547 2.9722213745117188 0 -1
-14.287092208862305 52.1655387878418 2.9717109203338623 0 -1
-14.546221733093262 63.02519226074219 2.945178747177124 0 -1
-14.317610740661621 47.30089569091797 2.9685862064361572 0 -1
-14.29861831665039 22.94633674621582 2.9705307483673096 0 -1
-14.137860298156738 3.4693257808685303 2.9869906902313232 0 -1
-14.425257682800293 -0.8959389925003052 2.957564115524292 0 -1
-14.692411422729492 50.82878875732422 2.9302103519439697 0 -1
-14.352204322814941 -55.605255126953125 2.9650442600250244 0 -1
-14.62100601196289 -46.97658157348633 2.937521457672119 1 -1
-14.534659385681152 -8.022897720336914 2.9463624954223633 0 -1
-14.483403205871582 -50.262969970703125 2.951610803604126 0 -1
-14.251029014587402 -38.857078552246094 2.9754035472869873 0 -1
-14.58128547668457 -20.5459041595459 2.9415886402130127 0 -1
-14.391965866088867 -2.5757274627685547 2.960973024368286 0 -1
-14.525360107421875 1.5067963600158691 2.947314739227295 0 -1
-14.671191215515137 -52.452999114990234 2.9323830604553223 0 -1
-14.402652740478516 -16.664350509643555 2.95987868309021 0 -1
-14.191715240478516 -60.476810455322266 2.9814765453338623 0 -1
-14.593855857849121 -59.11888885498047 2.9403014183044434 0 -1
-15.174739837646484 56.79439163208008 2.830721139907837 0 -1
-15.212150573730469 60.917781829833984 2.822822332382202 0 -1
-15.002429008483887 64.51921844482422 2.8671021461486816 0 -1
-15.068718910217285 39.286041259765625 2.8531060218811035 0 -1
-14.734870910644531 -3.946216583251953 2.923593282699585 0 -1
-14.889725685119629 12.809293746948242 2.8908979892730713 0 -1
-14.715943336486816 -26.32420539855957 2.9275896549224854 0 -1
-15.141237258911133 48.659767150878906 2.837794780731201 0 -1
-15.188874244689941 -9.835671424865723 2.8277368545532227 0 -1
-15.222166061401367 -14.828486442565918 2.8207077980041504 0 -1
-15.312179565429688 -21.800622940063477 2.8017027378082275 0 -1
-14.895655632019043 -56.914772033691406 2.88964581489563 0 -1
-15.310742378234863 8.393030166625977 2.802006244659424 0 -1
-15.301898956298828 36.77347946166992 2.803873300552368 0 -1
-15.127740859985352 17.071313858032227 2.840644359588623 0 -1
-15.331564903259277 14.202872276306152 2.797609806060791 0 -1
-15.024962425231934 -61.45783615112305 2.862344741821289 0 -1
-14.838720321655273 -44.12422180175781 2.9016671180725098 1 -1
-15.227821350097656 44.36528015136719 2.8195137977600098 0 -1
-14.851719856262207 -40.79798126220703 2.8989222049713135 0 -1
-15.272948265075684 -30.4540958404541 2.809985876083374 0 -1
-15.204400062561035 -54.487857818603516 2.8244588375091553 0 -1
-15.082664489746094 -23.258676528930664 2.850161552429199 0 -1
-15.251147270202637 -19.137596130371094 2.814588785171509 0 -1
-15.18993854522705 -67.15325927734375 2.827512264251709 0 -1
-15.287140846252441 -6.650348663330078 2.8069894313812256 0 -1
-15.055046081542969 -34.89586639404297 2.8559927940368652 0 -1
-14.824036598205566 -64.22037506103516 2.9047672748565674 0 -1
-15.069844245910645 6.799363613128662 2.8528685569763184 0 -1
-15.28260326385498 10.450835227966309 2.8079473972320557 0 -1
-15.278589248657227 25.449777603149414 2.8087947368621826 0 -1
-15.78439998626709 47.10462951660156 2.650973320007324 0 -1
-15.360919952392578 67.48181915283203 2.7885117530822754 0 -1
-15.655529975891113 4.3599724769592285 2.6928279399871826 0 -1
-15.705299377441406 15.766010284423828 2.676663875579834 0 -1
-15.560397148132324 30.82927131652832 2.7237253189086914 0 -1
-15.33548355102539 54.383731842041016 2.7967727184295654 0 -1
-15.468745231628418 2.887223958969116 2.7534918785095215 0 -1
-15.466694831848145 23.831287384033203 2.7541580200195312 0 -1
-15.441564559936523 18.719430923461914 2.762319564819336 0 -1
-15.782575607299805 -25.146812438964844 2.6515660285949707 0 -1
-15.461501121520996 -42.650516510009766 2.755844831466675 0 -1
-15.934603691101074 62.60576248168945 2.6021902561187744 0 -1
-15.929171562194824 -36.7269172668457 2.603954315185547 0 -1
-15.87188720703125 -31.65239906311035 2.6225593090057373 0 -1
-15.658474922180176 -12.993051528930664 2.691871404647827 0 -1
-15.776933670043945 -33.598045349121094 2.653398275375366 0 -1
-15.89305305480957 -60.464935302734375 2.615684986114502 0 -1
-15.872190475463867 -47.6864013671875 2.6224608421325684 0 -1
-15.928608894348145 -46.08757781982422 2.6041371822357178 1 -1
-15.741415977478027 -38.288002014160156 2.664933681488037 0 -1
-16.182085037231445 41.267608642578125 2.4923155307769775 0 -1
-16.469594955444336 66.05459594726562 2.3639771938323975 0 -1
-16.285778045654297 28.899883270263672 2.4460289478302 0 -1
-16.330753326416016 50.35434341430664 2.425952911376953 0 -1
-15.940958023071289 -16.87457275390625 2.5999491214752197 0 -1
-16.05228042602539 35.764774322509766 2.5502569675445557 0 -1
-16.033525466918945 45.82020568847656 2.558629274368286 0 -1
-16.047853469848633 -1.8296222686767578 2.5522329807281494 0 -1
-16.350814819335938 33.35363006591797 2.4169974327087402 0 -1
-16.059484481811523 21.64358901977539 2.547041654586792 0 -1
-16.06255531311035 26.935394287109375 2.545670509338379 0 -1
-16.016088485717773 -41.262699127197266 2.5664122104644775 0 -1
-16.177446365356445 60.06488037109375 2.4943859577178955 0 -1
-16.265419006347656 -5.636563301086426 2.4551167488098145 0 -1
-16.344388961791992 -23.82966423034668 2.4198663234710693 0 -1
-16.4545955657959 38.7940673828125 2.3706727027893066 0 -1
-16.224515914916992 -66.064208984375 2.4733753204345703 0 -1
-16.462505340576172 -28.914505004882812 2.3671419620513916 0 -1
-16.495874404907227 -35.27765655517578 2.352246046066284 0 -1
-16.502744674682617 -19.959135055541992 2.349179744720459 0 -1
-16.292720794677734 -3.279860734939575 2.442929744720459 0 -1
-16.187488555908203 -26.78091049194336 2.489903211593628 0 -1
-16.306907653808594 -50.82417297363281 2.4365968704223633 0 -1
-16.27513313293457 -11.145915985107422 2.4507806301116943 0 -1
-16.417102813720703 -62.72840881347656 2.38740873336792 0 -1
-16.498409271240234 25.683509826660156 2.351114511489868 0 -1
-14.052021980285645 8.529046058654785 -0.018346261233091354 0 -1
-13.944792747497559 -8.797947883605957 -0.004880005493760109 0 -1
-14.141227722167969 -25.778779983520508 -0.029549065977334976 0 -1
-14.021831512451172 -51.81822204589844 -0.01455483678728342 0 -1
-14.316516876220703 -59.13059997558594 -0.05156249180436134 0 -1
-13.942947387695312 -48.52760696411133 -0.004648285917937756 1 -1
-14.226140975952148 -54.071197509765625 -0.04021279141306877 0 -1
-14.004231452941895 -44.08876419067383 -0.0123446024954319 0 -1
-14.257365226745605 -34.01497268676758 -0.04413402080535889 0 -1
-13.949355125427246 33.80046081542969 -0.005453024059534073 0 -1
-14.055066108703613 -15.714648246765137 -0.01872858591377735 0 -1
-14.09510612487793 24.444347381591797 -0.02375689521431923 0 -1
-14.326934814453125 45.234554290771484 -0.05287081375718117 0 -1
-14.213629722595215 -10.62936019897461 -0.038641557097435 0 -1
-14.17939567565918 -3.659813404083252 -0.03434236720204353 0 -1
-14.210694313049316 54.39033126831055 -0.03827296197414398 0 -1
-14.248992919921875 2.453214645385742 -0.043082546442747116 0 -1
-13.99474811553955 65.98576354980469 -0.011153679341077805 0 -1
-14.25504207611084 26.36075210571289 -0.04384231939911842 0 -1
-14.64166259765625 -13.26795482635498 -0.13295195996761322 0 -1
-14.415070533752441 -67.12301635742188 -0.06876058131456375 0 -1
-14.521994590759277 20.86346435546875 -0.0990511104464531 0 -1
-14.488831520080566 -38.19927215576172 -0.08965624868869781 0 -1
-14.426614761352539 22.156320571899414 -0.07203088700771332 0 -1
-14.56446647644043 -40.469825744628906 -0.11108292639255524 0 -1
-14.445460319519043 0.8823644518852234 -0.07736961543560028 0 -1
-14.498078346252441 -0.43795832991600037 -0.09227590262889862 0 -1
-14.485097885131836 -17.6444034576416 -0.08859868347644806 0 -1
-14.546345710754395 30.90689468383789 -0.10594949871301651 0 -1
-14.775142669677734 -35.657257080078125 -0.1707656979560852 0 -1
-14.743083000183105 11.950737953186035 -0.1616836041212082 0 -1
-14.513747215270996 43.26185989379883 -0.09671463817358017 0 -1
-14.721863746643066 59.0789909362793 -0.15567220747470856 0 -1
-14.54981803894043 35.05323791503906 -0.10693329572677612 0 -1
-14.679544448852539 -21.542926788330078 -0.1436835527420044 0 -1
-14.781706809997559 39.87910461425781 -0.17262540757656097 0 -1
-14.765671730041504 41.78273010253906 -0.16808266937732697 0 -1
-14.539972305297852 32.53743362426758 -0.10414405912160873 0 -1
-14.634958267211914 60.451175689697266 -0.13105274736881256 0 -1
-14.70095443725586 16.57500648498535 -0.1497487723827362 0 -1
-14.435526847839355 64.02186584472656 -0.07455555349588394 0 -1
-14.634627342224121 6.983729839324951 -0.13095888495445251 0 -1
-14.829190254211426 27.600296020507812 -0.18752209842205048 0 -1
-14.941332817077637 -7.795433044433594 -0.23860731720924377 0 -1
-14.914960861206055 9.671113014221191 -0.22659368813037872 0 -1
-14.856289863586426 -24.602176666259766 -0.19986681640148163 0 -1
-14.977317810058594 -55.918800354003906 -0.25499990582466125 0 -1
-14.991299629211426 -1.7623860836029053 -0.2613689601421356 0 -1
-15.002409934997559 4.296945095062256 -0.2664302587509155 0 -1
-15.12417221069336 -32.214942932128906 -0.3218975365161896 0 -1
-15.137924194335938 -50.21670150756836 -0.3281617760658264 0 -1
-15.100600242614746 -28.135177612304688 -0.311159610748291 0 -1
-14.866668701171875 14.04763126373291 -0.20459485054016113 0 -1
-15.222179412841797 -64.69514465332031 -0.3665434718132019 0 -1
-15.014055252075195 -45.98066329956055 -0.27173495292663574 1 -1
-15.112869262695312 -57.76753234863281 -0.31674855947494507 0 -1
-15.979568481445312 -68 1.506642460823059 0 -1
-13.89799976348877 -20.07181167602539 -0.00211220677010715 0 -1
-13.90650749206543 50.02504348754883 -0.002458036644384265 0 -1
-15.24851131439209 68 1.1464325189590454 0 -1
-15.195423126220703 5.711484432220459 -0.35435473918914795 0 -1
-15.000679016113281 62.000370025634766 -0.2656415104866028 0 -1
-15.066153526306152 -5.766993999481201 -0.29546767473220825 0 -1
-15.084546089172363 47.328887939453125 -0.3038462698459625 0 -1
-15.188700675964355 65.02667236328125 -0.3512926697731018 0 -1
-15.166389465332031 48.775577545166016 -0.3411290645599365 0 -1
-16.612733840942383 43.867801666259766 2.287600040435791 0 -1
-16.86180305480957 24.17803955078125 2.1430721282958984 0 -1
-16.86762046813965 31.84073257446289 2.1396961212158203 0 -1
-16.794023513793945 64.05504608154297 2.1824021339416504 0 -1
-16.564830780029297 -18.17140769958496 2.3153960704803467 0 -1
-16.680213928222656 6.1158061027526855 2.2484428882598877 0 -1
-16.550790786743164 0.33708271384239197 2.3235433101654053 0 -1
-16.679079055786133 9.281303405761719 2.2491018772125244 0 -1
-16.542818069458008 -22.465654373168945 2.32817006111145 0 -1
-16.566179275512695 -52.12689208984375 2.3146138191223145 0 -1
-16.808401107788086 18.65829086303711 2.174060106277466 0 -1
-16.602733612060547 52.48004150390625 2.2934021949768066 0 -1
-16.67338752746582 37.224369049072266 2.2524044513702393 0 -1
-16.808927536010742 30.328779220581055 2.1737539768218994 0 -1
-15.492039680480957 -43.92675018310547 -0.5406089425086975 0 -1
-15.26121711730957 57.38820266723633 -0.3898082375526428 0 -1
-15.444233894348145 -11.761625289916992 -0.5093768835067749 0 -1
-15.340679168701172 -52.184417724609375 -0.44172272086143494 0 -1
-15.234366416931152 18.42460060119629 -0.37226662039756775 0 -1
-15.408815383911133 -14.261977195739746 -0.4862367510795593 0 -1
-15.268867492675781 -29.751136779785156 -0.39480647444725037 0 -1
-15.26628303527832 -37.133121490478516 -0.3931179642677307 0 -1
-15.265007019042969 -9.412376403808594 -0.39228466153144836 0 -1
-15.302783012390137 29.033489227294922 -0.41696441173553467 0 -1
-15.51104736328125 -34.670753479003906 -0.5530272722244263 0 -1
-15.570589065551758 -62.842777252197266 -0.5919269323348999 0 -1
-15.370254516601562 50.27403259277344 -0.4610448181629181 0 -1
-15.464776992797852 66.5004653930664 -0.5227978229522705 0 -1
-15.413576126098633 38.67760467529297 -0.4893474876880646 0 -1
-15.462420463562012 23.025367736816406 -0.5212579965591431 0 -1
-15.592822074890137 -15.852920532226562 -0.6064519882202148 0 -1
-15.435168266296387 33.686424255371094 -0.5034540295600891 0 -1
-15.386695861816406 55.95560836791992 -0.47178617119789124 0 -1
-15.521846771240234 54.60232925415039 -0.5600826144218445 0 -1
-15.325176239013672 37.38581848144531 -0.43159401416778564 0 -1
-15.47632884979248 68 -0.2985709011554718 0 -1
-16.9437313079834 -40.40062713623047 2.095531702041626 0 -1
-16.991924285888672 -9.557459831237793 2.0675668716430664 0 -1
-16.630847930908203 -54.10726547241211 2.2770886421203613 0 -1
-17.05241584777832 58.814815521240234 2.0324652194976807 0 -1
-16.94198226928711 4.798268795013428 2.096546173095703 0 -1
-16.650392532348633 -58.344974517822266 2.265747547149658 0 -1
-17.00609016418457 -45.69061279296875 2.0593457221984863 0 -1
-17.061012268066406 7.401064395904541 2.0274767875671387 0 -1
-16.861671447753906 11.598669052124023 2.14314866065979 0 -1
-16.978286743164062 -49.70587158203125 2.0754799842834473 0 -1
-16.77391815185547 -15.223140716552734 2.194068431854248 0 -1
-16.88013458251953 3.073099136352539 2.132434368133545 0 -1
-16.854040145874023 -13.947408676147461 2.147576332092285 0 -1
-16.90399932861328 -43.9562873840332 2.118587017059326 0 -1
-16.54137420654297 -64.53459930419922 2.3290069103240967 0 -1
-16.94019889831543 -7.440912246704102 2.097581386566162 0 -1
-17.44113540649414 59.97633361816406 1.7505854368209839 0 -1
-17.220130920410156 62.69398880004883 1.912264108657837 0 -1
-17.09233283996582 56.17087936401367 2.005756139755249 0 -1
-17.179649353027344 51.18804168701172 1.9418786764144897 0 -1
-17.144458770751953 53.883872985839844 1.9676238298416138 0 -1
-17.215003967285156 27.0455322265625 1.9160144329071045 0 -1
-17.10581398010254 -47.094825744628906 1.9958949089050293 0 -1
-17.285432815551758 14.943341255187988 1.8644914627075195 0 -1
-17.126420974731445 13.095559120178223 1.9808188676834106 0 -1
-17.088041305541992 20.426513671875 2.008896827697754 0 -1
-17.10289764404297 67.33487701416016 1.9980278015136719 0 -1
-17.371068954467773 41.4132194519043 1.8018426895141602 0 -1
-17.210060119628906 -56.45662307739258 1.919631838798523 0 -1
-17.49496078491211 -63.78420639038086 1.7112077474594116 0 -1
-17.457935333251953 33.27798843383789 1.7382954359054565 0 -1
-17.389659881591797 -3.8053483963012695 1.7882423400878906 0 -1
-17.28545379638672 -16.84841537475586 1.864476203918457 0 -1
-17.482494354248047 2.052361488342285 1.7203282117843628 0 -1
-17.529773712158203 21.97734260559082 1.6857408285140991 0 -1
-17.360363006591797 -26.114065170288086 1.8096760511398315 0 -1
-17.57936668395996 -38.45039749145508 1.649459958076477 0 -1
-17.264406204223633 -37.143951416015625 1.8798744678497314 0 -1
-17.467979431152344 -29.999998092651367 1.7309467792510986 0 -1
-17.48255157470703 -6.0711212158203125 1.7202858924865723 0 -1
-17.36136817932129 -33.58414077758789 1.8089394569396973 0 -1
-17.438884735107422 17.553592681884766 1.7522315979003906 0 -1
-17.67259407043457 -27.76647186279297 1.5651174783706665 0 -1
-17.636207580566406 10.374232292175293 1.5981841087341309 0 -1
-17.650100708007812 -20.642480850219727 1.585558533668518 0 -1
-17.61351203918457 -11.42927074432373 1.6188092231750488 0 -1
-17.735347747802734 46.04471206665039 1.5080918073654175 0 -1
-17.632375717163086 -1.169825553894043 1.6016656160354614 0 -1
-17.858680725097656 28.851104736328125 1.3960126638412476 0 -1
-17.607378005981445 48.98048782348633 1.6243823766708374 0 -1
-17.907554626464844 57.230323791503906 1.3515996932983398 0 -1
-17.797672271728516 43.462127685546875 1.4514552354812622 0 -1
-17.58327293395996 39.96871566772461 1.6462875604629517 0 -1
-15.760703086853027 -18.033588409423828 -0.7518392205238342 0 -1
-15.766542434692383 -53.39875411987305 -0.757067084312439 0 -1
-15.945401191711426 -65.99970245361328 -0.9171878099441528 0 -1
-15.783974647521973 -23.5710391998291 -0.7726725339889526 0 -1
-15.733081817626953 17.049955368041992 -0.7271115779876709 0 -1
-15.717386245727539 -61.04294967651367 -0.7130603790283203 0 -1
-15.826837539672852 -20.92734146118164 -0.811045229434967 0 -1
-15.664047241210938 -41.143341064453125 -0.6653094291687012 0 -1
-15.646178245544434 30.623441696166992 -0.6493131518363953 0 -1
-15.626755714416504 25.981313705444336 -0.6319253444671631 0 -1
-15.62186336517334 8.578052520751953 -0.6275456547737122 0 -1
-15.633524894714355 44.490028381347656 -0.6379846930503845 0 -1
-15.797550201416016 15.546853065490723 -0.7848259210586548 0 -1
-15.825685501098633 0.6187471151351929 -0.8100138902664185 0 -1
-15.91693115234375 -4.544793605804443 -0.8917001485824585 0 -1
-15.917705535888672 59.05686950683594 -0.8923931121826172 0 -1
-15.911826133728027 35.8779182434082 -0.8871298432350159 0 -1
-15.733044624328613 63.60088348388672 -0.7270786166191101 0 -1
-15.9230318069458 27.777311325073242 -0.897161602973938 0 -1
-15.850295066833496 11.56400203704834 -0.8320454955101013 0 -1
-15.785665512084961 42.94915008544922 -0.774186909198761 0 -1
-15.943115234375 -19.64891815185547 -0.9151415228843689 0 -1
-15.783541679382324 61.0386962890625 -0.7722856402397156 0 -1
-17.907848358154297 -44.803253173828125 1.3513323068618774 0 -1
-17.781320571899414 -35.085575103759766 1.4663145542144775 0 -1
-17.678150177001953 -42.50768280029297 1.5600690841674805 0 -1
-17.95615577697754 -58.98841094970703 1.3074345588684082 0 -1
-17.920255661010742 24.829086303710938 1.3400585651397705 0 -1
-17.9959716796875 16.074993133544922 1.271252155303955 0 -1
-17.877517700195312 6.269906997680664 1.3788946866989136 0 -1
-17.90508270263672 -48.009342193603516 1.3538463115692139 0 -1
-18.009490966796875 38.50712203979492 1.2589662075042725 0 -1
-17.93671989440918 -24.820411682128906 1.3250961303710938 0 -1
-17.82638168334961 -66.7796859741211 1.4253647327423096 0 -1
-17.732498168945312 -50.654598236083984 1.5106804370880127 0 -1
-17.969280242919922 36.83892822265625 1.2955074310302734 0 -1
-17.991748809814453 -62.50934600830078 1.2750895023345947 0 -1
-18.25794792175293 42.15065383911133 0.9887902736663818 0 -1
-18.059162139892578 3.7818477153778076 1.2121996879577637 0 -1
-18.149322509765625 -18.925579071044922 1.1108728647232056 0 -1
-18.12531089782715 61.5368537902832 1.1378577947616577 0 -1
-18.27899169921875 54.0180549621582 0.9651406407356262 0 -1
-18.058256149291992 67.08999633789062 1.2132186889648438 0 -1
-18.16122055053711 -4.99863862991333 1.0975006818771362 0 -1
-18.083324432373047 -54.483158111572266 1.1850459575653076 0 -1
-18.413818359375 63.27904510498047 0.8136117458343506 0 -1
-18.2414608001709 35.28263473510742 1.0073211193084717 0 -1
-18.250558853149414 -0.16709820926189423 0.997096061706543 0 -1
-18.067142486572266 12.724211692810059 1.2032322883605957 0 -1
-18.12642478942871 30.596527099609375 1.1366052627563477 0 -1
-18.1616153717041 47.702911376953125 1.0970561504364014 0 -1
-18.301733016967773 65.6561050415039 0.9395813941955566 0 -1
-18.074861526489258 7.823431491851807 1.1945568323135376 0 -1
-16.778850555419922 -68 0.36865922808647156 0 -1
-15.490866661071777 -68 -0.4808540642261505 0 -1
-18.35855484008789 -60.78522872924805 0.8757224678993225 0 -1
-18.10245132446289 -53.10630416870117 1.1635496616363525 0 -1
-18.22615623474121 -37.19554901123047 1.0245211124420166 0 -1
-18.36670684814453 -57.597293853759766 0.8665592074394226 0 -1
-18.46367835998535 -2.895904779434204 0.7575758099555969 0 -1
-18.450950622558594 26.531126022338867 0.7718814015388489 0 -1
-18.341588973999023 20.654563903808594 0.8947896957397461 0 -1
-18.313955307006836 -15.70840072631836 0.9258462190628052 0 -1
-18.460023880004883 -46.491947174072266 0.7616832852363586 0 -1
-18.163881301879883 -41.120819091796875 1.0945100784301758 0 -1
-18.427289962768555 -30.891759872436523 0.7984715700149536 0 -1
-18.40813446044922 44.71399688720703 0.8200014233589172 0 -1
-18.437522888183594 -27.11862564086914 0.786971390247345 0 -1
-18.10074806213379 -68 0.9415842294692993 0 -1
-15.989704132080078 -35.92106628417969 -0.9691275954246521 0 -1
-16.0853271484375 -27.00521469116211 -1.0850683450698853 0 -1
-16.07705307006836 3.3287668228149414 -1.0750370025634766 0 -1
-16.050621032714844 -47.61219787597656 -1.0429881811141968 1 -1
-16.19257354736328 -51.16897964477539 -1.2151023149490356 0 -1
-16.0424747467041 -49.148738861083984 -1.033111810684204 1 -1
-16.07600212097168 -13.121476173400879 -1.0737630128860474 0 -1
-16.097951889038086 -46.03870391845703 -1.1003769636154175 0 -1
-16.0605411529541 -8.037501335144043 -1.0550153255462646 0 -1
-16.01036262512207 39.8464469909668 -0.9941768050193787 0 -1
-16.05267906188965 -38.86689758300781 -1.045483946800232 0 -1
-16.201332092285156 -59.30333709716797 -1.2257230281829834 0 -1
-16.22220230102539 -6.295030117034912 -1.2510266304016113 0 -1
-16.170392990112305 10.129603385925293 -1.1882100105285645 0 -1
-16.19239044189453 -1.1103895902633667 -1.2148813009262085 0 -1
-16.22759437561035 1.816120982170105 -1.2575653791427612 0 -1
-15.986398696899414 51.76974105834961 -0.9651203155517578 0 -1
-16.135026931762695 4.9358601570129395 -1.1453293561935425 0 -1
-16.091344833374023 46.73564529418945 -1.09236478805542 0 -1
-16.09004020690918 13.531249046325684 -1.0907833576202393 0 -1
-16.191143035888672 21.84836196899414 -1.2133692502975464 0 -1
-18.574295043945312 5.301272392272949 0.6058658361434937 0 -1
-18.48655128479004 -32.54405975341797 0.7283952832221985 0 -1
-18.56816864013672 -1.4398540258407593 0.6144217848777771 0 -1
-18.48041534423828 -63.56193542480469 0.7369629740715027 0 -1
-18.592945098876953 52.35508346557617 0.5798212885856628 0 -1
-18.631900787353516 18.468530654907227 0.5254227519035339 0 -1
-18.578493118286133 23.586090087890625 0.6000045537948608 0 -1
-18.606657028198242 22.166664123535156 0.560673713684082 0 -1
-18.503087997436523 -14.120450019836426 0.7053017616271973 0 -1
-18.535099029541016 58.63990783691406 0.6606013774871826 0 -1
-18.624523162841797 9.230815887451172 0.535725474357605 0 -1
-18.56390953063965 -9.06459903717041 0.620368242263794 0 -1
-18.66033935546875 60.079200744628906 0.48570960760116577 0 -1
-18.488819122314453 -29.562278747558594 0.7252269387245178 0 -1
-18.504425048828125 33.14976501464844 0.70343416929245 0 -1
-18.486968994140625 -7.18169641494751 0.7278105020523071 0 -1
-18.768754959106445 -59.457340240478516 0.3343161642551422 0 -1
-18.744840621948242 -11.328781127929688 0.36770910024642944 0 -1
-18.665546417236328 -43.87700653076172 0.4784403145313263 0 -1
-18.715591430664062 17.012676239013672 0.40855589509010315 0 -1
-18.82840919494629 -54.9622688293457 0.2510130703449249 0 -1
-18.81345558166504 -18.163095474243164 0.27189409732818604 0 -1
-18.639976501464844 -35.79027557373047 0.5141469836235046 0 -1
-18.7308406829834 -21.26099395751953 0.3872602880001068 0 -1
-18.817096710205078 -12.900976181030273 0.2668079435825348 0 -1
-18.705842971801758 -64.99307250976562 0.42216694355010986 0 -1
-18.760690689086914 -50.31938171386719 0.3455752432346344 0 -1
-18.585004806518555 -39.93642807006836 0.5909107327461243 0 -1
-18.779565811157227 15.292793273925781 0.3192187547683716 0 -1
-19.103456497192383 -48.37065505981445 -0.2288282960653305 0 -1
-18.960861206054688 -61.94044876098633 0.022840304300189018 0 -1
-18.856698989868164 29.83241844177246 0.20667867362499237 0 -1
-18.855823516845703 7.279499530792236 0.2082262933254242 0 -1
-18.846872329711914 57.275535583496094 0.22402283549308777 0 -1
-18.885541915893555 -19.863271713256836 0.15577398240566254 0 -1
-19.030866622924805 -28.251256942749023 -0.10071410238742828 0 -1
-18.8981876373291 -22.761310577392578 0.1334560066461563 0 -1
-18.983505249023438 -52.89269256591797 -0.017124390229582787 0 -1
-18.928674697875977 -45.26694869995117 0.07964681088924408 0 -1
-16.274953842163086 7.405923843383789 -1.3314050436019897 0 -1
-16.276779174804688 53.12220764160156 -1.3344624042510986 0 -1
-16.301136016845703 62.5787353515625 -1.3752743005752563 0 -1
-16.399808883666992 37.48516082763672 -1.5406057834625244 0 -1
-16.42452621459961 45.38493347167969 -1.5820221900939941 0 -1
-16.368467330932617 41.44423294067383 -1.4880907535552979 0 -1
-16.324254989624023 -17.016555786132812 -1.4140125513076782 0 -1
-16.40082359313965 32.94774627685547 -1.54230535030365 0 -1
-16.325576782226562 -42.23316955566406 -1.4162269830703735 0 -1
-16.434709548950195 31.525259017944336 -1.5990837812423706 0 -1
-16.428672790527344 -34.47257614135742 -1.588969349861145 0 -1
-16.35296058654785 -62.11091613769531 -1.462109088897705 0 -1
-16.455154418945312 -21.946802139282227 -1.633339762687683 0 -1
-16.435543060302734 -31.338008880615234 -1.6004819869995117 0 -1
-16.3867244720459 -55.972312927246094 -1.5186823606491089 0 -1
-16.721328735351562 -68 -1.4220404624938965 0 -1
-19.001981735229492 11.134523391723633 -0.04973283037543297 0 -1
-19.072223663330078 67.49882507324219 -0.1737038642168045 0 -1
-18.90764808654785 62.0375862121582 0.1167583167552948 0 -1
-19.119443893432617 37.154563903808594 -0.25704652070999146 0 -1
-19.01597023010254 40.608211517333984 -0.07442102581262589 0 -1
-19.02793312072754 35.68171691894531 -0.09553640335798264 0 -1
-19.151111602783203 13.847176551818848 -0.3129367232322693 0 -1
-19.1088924407959 45.994117736816406 -0.23842446506023407 0 -1
-18.994609832763672 47.92800521850586 -0.03672312572598457 0 -1
-19.06751823425293 12.42875862121582 -0.16540195047855377 0 -1
-19.117340087890625 19.432863235473633 -0.25333184003829956 0 -1
-19.021024703979492 4.233004093170166 -0.0833430215716362 0 -1
-19.10484504699707 25.930788040161133 -0.23128049075603485 0 -1
-20.19683837890625 1.7678635120391846 -2.4089741706848145 0 -1
-20.462295532226562 -57.85211181640625 -2.941392183303833 0 -1
-19.346145629882812 -21.444700241088867 -0.7027662396430969 0 -1
-20.646747589111328 -25.983850479125977 -3.3113420009613037 0 -1
-19.77307891845703 17.77162742614746 -1.5590505599975586 0 -1
-20.33837890625 -29.970924377441406 -2.692857265472412 0 -1
-20.657548904418945 -54.0087776184082 -3.333003520965576 0 -1
-21.13095474243164 -59.426544189453125 -4.282500743865967 0 -1
-19.255807876586914 -6.2198405265808105 -0.5215790271759033 0 -1
-19.215356826782227 -58.01786422729492 -0.44044721126556396 0 -1
-20.241092681884766 -2.5687029361724854 -2.4977309703826904 0 -1
-19.34814453125 34.404327392578125 -0.7067733407020569 0 -1
-19.78262710571289 3.6287426948547363 -1.5782016515731812 0 -1
-21.065746307373047 -57.57065963745117 -4.151712417602539 0 -1
-20.558917999267578 -66.22283172607422 -3.1351852416992188 0 -1
-19.200143814086914 -66.86534118652344 -0.40993213653564453 0 -1
-19.39715003967285 -49.62324905395508 -0.8050639629364014 0 -1
-19.687475204467773 22.96200942993164 -1.3873573541641235 0 -1
-19.68684959411621 7.179811477661133 -1.3861056566238403 0 -1
-20.21847915649414 -49.751258850097656 -2.4523754119873047 0 -1
-20.16720962524414 -4.119035243988037 -2.349546432495117 0 -1
-19.27482032775879 58.197235107421875 -0.5597116947174072 0 -1
-19.308900833129883 -9.30827522277832 -0.6280624270439148 0 -1
-19.168785095214844 -30.28725242614746 -0.34703871607780457 0 -1
-19.839384078979492 27.46837615966797 -1.6920363903045654 0 -1
-19.82251739501953 -26.529802322387695 -1.6582081317901611 0 -1
-19.720243453979492 -23.063840866088867 -1.4530808925628662 0 -1
-20.228790283203125 -28.140939712524414 -2.4730567932128906 0 -1
-20.041248321533203 -14.41047477722168 -2.0969104766845703 0 -1
-19.374080657958984 43.07778549194336 -0.758793294429779 0 -1
-19.93526268005371 -10.179017066955566 -1.8843402862548828 0 -1
-19.61475944519043 -29.265151977539062 -1.241516351699829 0 -1
-19.782480239868164 -53.19460678100586 -1.5779091119766235 0 -1
-19.337379455566406 28.34163475036621 -0.6851815581321716 0 -1
-21.109130859375 -52.813507080078125 -4.238730430603027 0 -1
-20.62225914001465 -35.0705680847168 -3.262223720550537 0 -1
-20.813312530517578 -28.273479461669922 -3.645416021347046 0 -1
-19.237382888793945 -0.897674560546875 -0.4846239984035492 0 -1
-19.234027862548828 53.24272537231445 -0.4778929352760315 0 -1
-19.38132095336914 -24.467485427856445 -0.7733153700828552 0 -1
