VERSION .7
FIELDS x y z label object
SIZE 4 4 4 4 4
TYPE F F F I I
COUNT 1 1 1 1 1
WIDTH 1000
HEIGHT 1
POINTS 1000
VIEWPOINT 0 0 0 1 0 0 0
DATA ascii
-439.9893493652344 -30 671.0553588867188 1 -1
-1766.7215576171875 -30 671.4446411132812 1 -1
-19.08610725402832 -43.34696960449219 675 1 -1
-557.74365234375 -30.542343139648438 675 1 -1
-1141.7491455078125 -34.7835693359375 675 1 -1
-275.76953125 -95.18321228027344 703.9249877929688 0 -1
-305.6329650878906 -110.83615112304688 730.3043212890625 0 -1
-363.9850158691406 -123.61044311523438 735 0 -1
-394.6897277832031 -132.83233642578125 735 0 -1
-447.3211364746094 -136.7872772216797 735 0 -1
-605.8694458007812 -148.9661865234375 735 0 -1
-475.35638427734375 -141.24632263183594 735 0 -1
-323.5780944824219 -132.83885192871094 715.0770874023438 0 -1
-352.8227844238281 -150.04937744140625 735 0 -1
-522.0926513671875 -153.48629760742188 735 0 -1
-419.9941101074219 -155.68528747558594 735 0 -1
-656.959716796875 -155.34841918945312 735 0 -1
-555.8491821289062 -157.94410705566406 735 0 -1
-461.61480712890625 -163.20152282714844 735 0 -1
-582.8402099609375 -168.54571533203125 735 0 -1
-359.4254150390625 -173.3733673095703 735 0 -1
-826.4747314453125 -166.38592529296875 705 0 -1
-385.13519287109375 -175.61061096191406 735 0 -1
-498.82135009765625 -175.54576110839844 735 0 -1
-332.71014404296875 -177.54103088378906 732.1567993164062 0 -1
-736.78271484375 -175.94696044921875 705 0 -1
-441.1893615722656 -183.39993286132812 735 0 -1
-713.4695434570312 -179.82342529296875 705 0 -1
-409.7251892089844 -185.9783477783203 735 0 -1
-635.4154052734375 -185.2635040283203 735 0 -1
-698.110107421875 -182.4051055908203 729.7437133789062 0 -1
-603.97802734375 -187.46859741210938 735 0 -1
-539.779052734375 -190.93264770507812 735 0 -1
-772.9800415039062 -184.62330627441406 705 0 -1
-349.5530700683594 -203.17352294921875 735 0 -1
-575.308837890625 -196.8221893310547 735 0 -1
-465.6462707519531 -201.05001831054688 735 0 -1
-493.20184326171875 -201.7898406982422 735 0 -1
-390.1998291015625 -208.2732696533203 735 0 -1
-672.0421752929688 -210.24063110351562 735 0 -1
-627.54296875 -212.85536193847656 735 0 -1
-462.7652587890625 -264.2344665527344 735 0 -1
-563.4913940429688 -277.78240966796875 735 0 -1
-504.45513916015625 -259.0494384765625 735 0 -1
-447.1976013183594 -233.9821319580078 735 0 -1
-518.1517944335938 -218.1832733154297 735 0 -1
-420.2168884277344 -216.70347595214844 735 0 -1
-595.2368774414062 -231.94190979003906 735 0 -1
-637.2218017578125 -240.2961883544922 735 0 -1
-482.7999572753906 -231.62635803222656 735 0 -1
-540.5471801757812 -301.565673828125 735 0 -1
-420.8405456542969 -242.68450927734375 735 0 -1
-588.6377563476562 -263.6820983886719 735 0 -1
-542.7572631835938 -251.32952880859375 735 0 -1
-356.95758056640625 -227.89442443847656 735 0 -1
-389.2172546386719 -242.66802978515625 735 0 -1
-318.6279296875 -215.05245971679688 688.421142578125 0 -1
-490.62921142578125 -284.7431945800781 735 0 -1
-312.497314453125 -222.58705139160156 719.56201171875 0 -1
-440.51251220703125 -272.6868896484375 735 0 -1
-336.234130859375 -238.7251434326172 675 0 -1
-420.1383972167969 -265.7962951660156 675 0 -1
-395.24560546875 -260.97808837890625 675 0 -1
-294.1430358886719 -237.21566772460938 734.747802734375 0 -1
-358.92645263671875 -254.889892578125 675 0 -1
-338.94287109375 -250.73992919921875 735 0 -1
-405.4358215332031 -273.1500549316406 735 0 -1
-305.4068298339844 -251.968505859375 675 0 -1
-272.9057312011719 -245.5370635986328 693.3528442382812 0 -1
-555.84375 -304.3607482910156 699.6676635742188 0 -1
-573.4885864257812 -303.3070983886719 735 0 -1
-623.7203979492188 -268.302001953125 735 0 -1
-682.0411376953125 -313.6217041015625 735 0 -1
-682.5702514648438 -233.8983154296875 735 0 -1
-635.5965576171875 -315.804931640625 735 0 -1
-729.1778564453125 -297.76385498046875 735 0 -1
-718.4275512695312 -235.29647827148438 735 0 -1
-655.2572631835938 -263.1290283203125 735 0 -1
-600.6944580078125 -293.46539306640625 735 0 -1
-701.649658203125 -327.676513671875 735 0 -1
-655.5115966796875 -293.60888671875 735 0 -1
-700.8778686523438 -211.3881378173828 735 0 -1
-683.386962890625 -274.5931701660156 735 0 -1
-605.244384765625 -323.218505859375 735 0 -1
-659.72705078125 -334.9206237792969 735 0 -1
-604.6610717773438 -335.68701171875 713.8207397460938 0 -1
-750.4981079101562 -262.1038513183594 735 0 -1
-826.3862915039062 -331.624755859375 735 0 -1
-790.2161865234375 -299.5148620605469 735 0 -1
-768.4871215820312 -331.5655212402344 735 0 -1
-794.6910400390625 -327.358154296875 735 0 -1
-781.8501586914062 -254.43362426757812 735 0 -1
-803.1461181640625 -267.17034912109375 735 0 -1
-824.41455078125 -293.91278076171875 735 0 -1
-763.9295654296875 -305.3065185546875 735 0 -1
-908.2305297851562 -165.204345703125 697.2726440429688 0 -1
-859.7749633789062 -164.7422637939453 705 0 -1
-903.1644897460938 -141.01104736328125 705 0 -1
-928.322998046875 -117.77397155761719 676.8845825195312 1 -1
-944.4369506835938 -104.33406066894531 704.2698974609375 0 -1
-974.2056884765625 -93.34883880615234 693.5919799804688 0 -1
-579.9609985351562 -94.4156265258789 675 1 -1
-950.9247436523438 -95.37238311767578 675 1 -1
-448.018310546875 -96.21989440917969 675 0 -1
-877.958740234375 -98.59040069580078 675 1 -1
-547.3977661132812 -101.56473541259766 675 0 -1
-605.3046264648438 -102.9691162109375 675 1 -1
-657.11669921875 -103.66743469238281 675 1 -1
-342.0400390625 -104.17501831054688 675 0 -1
-503.7965087890625 -105.96489715576172 675 0 -1
-630.2359619140625 -106.67996978759766 675 1 -1
-472.3229064941406 -106.99272155761719 675 0 -1
-421.6199951171875 -108.00067901611328 675 0 -1
-900.254638671875 -110.66034698486328 675 1 -1
-375.65777587890625 -111.29915618896484 675 0 -1
-750.3023681640625 -113.10485076904297 675 1 -1
-814.9885864257812 -112.85408782958984 675 1 -1
-312.2428283691406 -113.99044799804688 675 0 -1
-853.78564453125 -117.49639892578125 675 1 -1
-568.8580322265625 -120.62515258789062 675 1 -1
-789.7282104492188 -123.70339965820312 675 1 -1
-519.9832153320312 -124.52202606201172 675 0 -1
-482.1650695800781 -129.74374389648438 675 0 -1
-829.9888305664062 -130.79000854492188 675 1 -1
-616.080322265625 -135.98291015625 675 1 -1
-883.0753784179688 -137.7205810546875 675 1 -1
-386.3600769042969 -138.4363555908203 675 0 -1
-707.3961791992188 -138.63540649414062 675 1 -1
-740.113037109375 -140.56048583984375 675 1 -1
-913.5748291015625 -141.31820678710938 675 1 -1
-764.6296997070312 -145.3670654296875 675 1 -1
-422.47357177734375 -145.02723693847656 675 0 -1
-854.6408081054688 -147.5927276611328 675 1 -1
-505.2491455078125 -148.02920532226562 675 0 -1
-556.813720703125 -149.92103576660156 675 1 -1
-357.90032958984375 -151.29299926757812 675 0 -1
-465.3192138671875 -153.29885864257812 675 0 -1
-680.7929077148438 -153.18698120117188 675 1 -1
-652.1631469726562 -154.99246215820312 675 1 -1
-791.0402221679688 -155.7698516845703 675 1 -1
-627.966064453125 -158.5548858642578 675 1 -1
-580.0355224609375 -161.54481506347656 675 1 -1
-875.330810546875 -164.661865234375 675 0 -1
-822.7833862304688 -165.4478759765625 675 1 -1
-738.8991088867188 -165.9111328125 675 1 -1
-440.2181091308594 -167.0780487060547 675 0 -1
-528.194580078125 -169.87969970703125 675 0 -1
-382.9385986328125 -168.76812744140625 675 0 -1
-409.2139587402344 -171.37001037597656 675 0 -1
-603.7266845703125 -173.21896362304688 675 1 -1
-339.1531677246094 -174.46185302734375 675 0 -1
-846.22265625 -175.86981201171875 675 0 -1
-497.17681884765625 -177.6732940673828 675 0 -1
-663.9228515625 -179.64247131347656 675 1 -1
-560.333251953125 -180.39479064941406 675 1 -1
-784.6223754882812 -182.62399291992188 675 1 -1
-464.6330871582031 -183.09280395507812 675 0 -1
-910.0106201171875 -187.18899536132812 675.6869506835938 0 -1
-636.2353515625 -185.79837036132812 675 1 -1
-365.98162841796875 -186.16773986816406 675 0 -1
-813.4158325195312 -189.4231414794922 675 1 -1
-514.6054077148438 -195.68417358398438 675 0 -1
-884.2639770507812 -195.94503784179688 675 0 -1
-394.87939453125 -195.42156982421875 675 0 -1
-427.9667663574219 -195.96693420410156 675 0 -1
-613.773193359375 -198.20529174804688 675 1 -1
-859.0026245117188 -199.8473663330078 675 0 -1
-341.291015625 -199.6538848876953 675 0 -1
-762.6841430664062 -201.29708862304688 675 1 -1
-658.4613037109375 -203.43675231933594 675 1 -1
-790.3903198242188 -208.50970458984375 675 1 -1
-830.9613037109375 -209.50784301757812 675 1 -1
-720.7203369140625 -210.72109985351562 675 1 -1
-563.2982177734375 -212.35597229003906 675 1 -1
-461.22003173828125 -216.60353088378906 675 0 -1
-896.8316040039062 -216.9593963623047 675 0 -1
-363.29180908203125 -219.6599884033203 675 0 -1
-531.1656494140625 -220.20266723632812 675 0 -1
-696.6161499023438 -221.02931213378906 675 1 -1
-394.715087890625 -220.33998107910156 675 0 -1
-433.2142028808594 -221.997314453125 675 0 -1
-493.6963195800781 -228.82366943359375 675 0 -1
-596.7499389648438 -233.92185974121094 675 1 -1
-514.1676635742188 -243.8650360107422 675 0 -1
-495.14288330078125 -273.37054443359375 675 0 -1
-454.49627685546875 -240.56358337402344 675 0 -1
-848.3050537109375 -241.1286163330078 675 0 -1
-662.4954223632812 -267.8725280761719 675 1 -1
-876.9541625976562 -238.7662353515625 675 0 -1
-450.6419677734375 -269.4120788574219 675 0 -1
-584.5825805664062 -258.4156799316406 675 1 -1
-522.0913696289062 -275.80865478515625 675 0 -1
-705.885009765625 -247.7698974609375 675 1 -1
-574.3731689453125 -285.8957214355469 675 0 -1
-570.4725952148438 -237.2065887451172 675 1 -1
-731.4082641601562 -235.13189697265625 675 1 -1
-544.4010009765625 -242.1230926513672 675 0 -1
-668.6181640625 -235.86407470703125 675 1 -1
-760.950439453125 -236.13829040527344 675 1 -1
-615.5543823242188 -284.59185791015625 675 1 -1
-481.91851806640625 -251.1230926513672 675 0 -1
-785.7803955078125 -234.58543395996094 675 1 -1
-817.628662109375 -230.6831817626953 675 1 -1
-539.60791015625 -301.2020263671875 675 0 -1
-687.8912963867188 -267.3551940917969 675 1 -1
-409.9508972167969 -241.73291015625 675 0 -1
-554.683837890625 -266.16864013671875 675 1 -1
-615.0626831054688 -252.66986083984375 675 1 -1
-639.1401977539062 -243.21929931640625 675 1 -1
-621.8580932617188 -288.91796875 705 0 -1
-754.5888061523438 -266.55908203125 705 0 -1
-878.880859375 -249.67848205566406 705 0 -1
-591.4298095703125 -298.1075439453125 705 0 -1
-788.0211181640625 -272.7706298828125 705 0 -1
-707.0217895507812 -284.76226806640625 675 1 -1
-962.6632080078125 -247.4047088623047 675 0 -1
-727.29150390625 -284.3363342285156 705 0 -1
-676.3107299804688 -293.3526916503906 675 0 -1
-641.984619140625 -299.5996398925781 675 0 -1
-868.0513916015625 -264.0393371582031 675 0 -1
-643.0721435546875 -303.2621154785156 705 0 -1
-805.858154296875 -277.6737365722656 675 1 -1
-677.49169921875 -304.6011047363281 705 0 -1
-621.5241088867188 -316.35760498046875 675 0 -1
-737.7136840820312 -294.44482421875 675 0 -1
-594.7474975585938 -324.1473083496094 675 0 -1
-622.287841796875 -317.7933654785156 705 0 -1
-713.122802734375 -308.8943176269531 705 0 -1
-715.858154296875 -308.75653076171875 675 0 -1
-648.55029296875 -329.0528564453125 705 0 -1
-610.6787719726562 -345.3457946777344 681.32275390625 0 -1
-963.1351928710938 -393.41912841796875 705 0 -1
-884.80322265625 -345.4278564453125 705 0 -1
-832.7353515625 -361.2276611328125 705 0 -1
-1051.8572998046875 -337.9640808105469 705 0 -1
-697.0975341796875 -331.02642822265625 705 0 -1
-1095.8304443359375 -355.7713928222656 705 0 -1
-1136.1273193359375 -365.1100769042969 705 0 -1
-803.887939453125 -298.2880554199219 705 0 -1
-863.2169799804688 -330.73529052734375 705 0 -1
-908.4020385742188 -362.0899658203125 705 0 -1
-672.9039916992188 -332.4663391113281 705 0 -1
-1132.6019287109375 -396.81365966796875 705 0 -1
-980.503173828125 -282.8334655761719 705 0 -1
-990.52783203125 -353.4886779785156 705 0 -1
-1018.9151000976562 -376.101318359375 705 0 -1
-799.435302734375 -340.6976318359375 705 0 -1
-1010.0547485351562 -304.0675964355469 705 0 -1
-758.4979858398438 -312.48626708984375 705 0 -1
-1078.0115966796875 -385.16351318359375 705 0 -1
-1106.7869873046875 -381.8429870605469 705 0 -1
-826.9429931640625 -336.3676452636719 705 0 -1
-990.2387084960938 -381.9797058105469 705 0 -1
-740.9201049804688 -350.5658874511719 705 0 -1
-1006.7333984375 -278.1669616699219 705 0 -1
-1060.7371826171875 -402.6511535644531 705 0 -1
-1155.8880615234375 -413.4703674316406 705 0 -1
-783.6138305664062 -315.1203918457031 705 0 -1
-696.9191284179688 -356.8580017089844 705 0 -1
-863.9656982421875 -374.3809814453125 705 0 -1
-961.2503051757812 -364.87884521484375 705 0 -1
-917.0693969726562 -289.84197998046875 705 0 -1
-1009.6007080078125 -340.0976867675781 705 0 -1
-1054.0650634765625 -375.224609375 705 0 -1
-963.987548828125 -304.6097106933594 705 0 -1
-1177.9281005859375 -402.60491943359375 705 0 -1
-1213.053955078125 -422.07537841796875 705 0 -1
-833.3457641601562 -307.4456787109375 705 0 -1
-931.6089477539062 -336.9307861328125 705 0 -1
-1004.2839965820312 -400.5371398925781 705 0 -1
-801.9983520507812 -378.5323791503906 705 0 -1
-722.7659301757812 -369.7312927246094 705 0 -1
-645.1510009765625 -362.1003112792969 705 0 -1
-1247.5322265625 -431.8294372558594 685.7381591796875 0 -1
-1024.7489013671875 -408.24456787109375 675 0 -1
-1196.009521484375 -424.1597900390625 675 0 -1
-928.3731079101562 -394.7434997558594 675 0 -1
-851.7486572265625 -384.94195556640625 675 0 -1
-1172.76416015625 -420.9547424316406 675 0 -1
-689.9668579101562 -355.015625 735 0 -1
-1095.280029296875 -411.0970458984375 675 0 -1
-623.608154296875 -344.4876708984375 735 0 -1
-734.3554077148438 -350.2899169921875 732.4641723632812 0 -1
-754.9978637695312 -368.5033264160156 675 0 -1
-811.4035034179688 -374.72869873046875 675 1 -1
-784.135009765625 -371.9335021972656 675 1 -1
-884.9771118164062 -379.5531005859375 675 0 -1
-1086.9241943359375 -349.419189453125 675 0 -1
-983.8110961914062 -281.8404541015625 675 0 -1
-984.5613403320312 -357.2870178222656 675 0 -1
-1063.5362548828125 -338.18450927734375 675 0 -1
-1079.689208984375 -313.8152160644531 675 0 -1
-947.5054321289062 -318.49725341796875 675 0 -1
-738.6339721679688 -324.86895751953125 675 0 -1
-845.1182250976562 -342.1630554199219 675 0 -1
-1017.2562255859375 -325.32879638671875 675 0 -1
-904.3532104492188 -364.29107666015625 675 0 -1
-792.4360961914062 -301.7259521484375 675 1 -1
-995.2662963867188 -315.8695983886719 675 0 -1
-1015.0398559570312 -362.9205322265625 675 0 -1
-1044.4556884765625 -294.7405700683594 675 0 -1
-871.6444702148438 -352.860107421875 675 0 -1
-954.9323120117188 -345.0151672363281 675 0 -1
-1181.590087890625 -392.1953125 675 0 -1
-761.823974609375 -336.5638732910156 675 0 -1
-1047.49951171875 -367.9285583496094 675 0 -1
-1133.90380859375 -374.5339050292969 675 0 -1
-1035.3663330078125 -344.0036926269531 675 0 -1
-1136.658203125 -346.7147521972656 675 0 -1
-1110.2740478515625 -331.6384582519531 675 0 -1
-793.5814819335938 -345.1897888183594 675 1 -1
-1123.072021484375 -401.1578369140625 675 0 -1
-933.027099609375 -363.8141174316406 675 0 -1
-1148.9100341796875 -393.51849365234375 675 0 -1
-820.4971313476562 -324.703857421875 675 1 -1
-891.5392456054688 -330.1208801269531 675 0 -1
-885.4359741210938 -301.15557861328125 675 0 -1
-910.5519409179688 -313.36083984375 675 0 -1
-1076.064208984375 -380.9825439453125 675 0 -1
-857.0674438476562 -306.1777038574219 675 0 -1
-1106.6746826171875 -375.12286376953125 675 0 -1
-969.6656494140625 -306.32025146484375 675 0 -1
-682.6529541015625 -351.9873352050781 675 0 -1
-710.5324096679688 -335.9333801269531 675 0 -1
-1012.51513671875 -296.442138671875 675 0 -1
-936.217529296875 -295.265625 675 0 -1
-830.6143188476562 -293.04022216796875 675 0 -1
-963.8760986328125 -385.0172424316406 675 0 -1
-958.177734375 -280.6075744628906 675 0 -1
-737.1171875 -349.694091796875 675 0 -1
-997.9234008789062 -384.6338806152344 675 0 -1
-925.9454956054688 -336.4649353027344 675 0 -1
-635.094970703125 -350.15106201171875 675 0 -1
-1215.211669921875 -397.9376220703125 675 0 -1
-1161.7652587890625 -361.08953857421875 675 0 -1
-1175.3021240234375 -372.234375 705 0 -1
-1203.455810546875 -391.5462951660156 705 0 -1
-921.3915405273438 -263.5263366699219 675 0 -1
-651.5444946289062 -329.213623046875 675 0 -1
-684.5775756835938 -321.5436706542969 675 0 -1
-759.4570922851562 -305.5120544433594 675 0 -1
-829.7726440429688 -262.6233825683594 675 1 -1
-940.7764282226562 -236.20643615722656 675 0 -1
-735.9036865234375 -267.9533386230469 675 1 -1
-780.0131225585938 -259.5130310058594 675 1 -1
-898.7759399414062 -222.7133026123047 705 0 -1
-928.1002197265625 -223.0702667236328 705 0 -1
-923.0176391601562 -215.72683715820312 679.3762817382812 0 -1
-914.3302612304688 -200.46844482421875 703.8956909179688 0 -1
71.93495178222656 -306.462158203125 735 0 -1
140.3822479248047 -211.01010131835938 735 0 -1
156.79733276367188 -191.22964477539062 735 0 -1
95.53193664550781 -242.42459106445312 735 0 -1
33.05322265625 -314.6332702636719 713.8042602539062 0 -1
51.18603515625 -325.99810791015625 733.7706909179688 0 -1
136.303955078125 -429.313232421875 675 0 -1
108.77922821044922 -425.6022644042969 675 0 -1
185.61892700195312 -423.6025695800781 675 0 -1
103.71312713623047 -378.3809814453125 675 0 -1
80.24079132080078 -351.6076965332031 675 0 -1
220.0872039794922 -442.0494384765625 675 0 -1
82.29332733154297 -429.0149230957031 675 0 -1
134.69044494628906 -405.0704040527344 675 0 -1
160.26036071777344 -406.6735534667969 675 0 -1
127.12956237792969 -369.9675598144531 675 0 -1
72.48368072509766 -353.62860107421875 702.214111328125 0 -1
78.94754791259766 -400.3768615722656 733.5966796875 0 -1
65.90318298339844 -432.8162536621094 732.6701049804688 0 -1
269.84332275390625 -447.9028625488281 732.83251953125 0 -1
115.01040649414062 -445.1787109375 735 0 -1
244.5413360595703 -459.2759704589844 735 0 -1
195.307861328125 -465.8261413574219 735 0 -1
161.39968872070312 -470.50665283203125 735 0 -1
265.3183898925781 -483.0035400390625 731.3709106445312 0 -1
40.59205627441406 -456.4092712402344 727.5369873046875 0 -1
128.49168395996094 -470.68499755859375 735 0 -1
91.03703308105469 -467.38372802734375 735 0 -1
36.36166000366211 -458.7331237792969 702.036865234375 0 -1
208.66717529296875 -488.1507568359375 735 0 -1
61.11412811279297 -467.10089111328125 735 0 -1
237.0206756591797 -503.19842529296875 735 0 -1
168.509033203125 -499.8783264160156 735 0 -1
195.4755096435547 -512.4859008789062 735 0 -1
221.5588836669922 -522.669189453125 735 0 -1
124.25581359863281 -498.2103576660156 735 0 -1
245.27398681640625 -536.3114624023438 732.5697021484375 0 -1
87.56426239013672 -495.6194152832031 735 0 -1
198.19224548339844 -539.3193969726562 735 0 -1
219.86412048339844 -551.5572509765625 735 0 -1
123.07225799560547 -522.215576171875 735 0 -1
149.47396850585938 -539.59765625 735 0 -1
174.3299102783203 -564.3297119140625 735 0 -1
209.06410217285156 -583.7278442382812 734.1331176757812 0 -1
209.10906982421875 -581.577880859375 705 0 -1
138.79383850097656 -614.4876098632812 707.9898071289062 0 -1
81.08167266845703 -628.9676513671875 709.4442749023438 0 -1
102.9381103515625 -637.2603759765625 699.8392944335938 0 -1
133.83840942382812 -619.7424926757812 675 0 -1
104.67401123046875 -633.6905517578125 675 0 -1
187.7891845703125 -598.20556640625 705 0 -1
191.60714721679688 -598.7763061523438 677.490966796875 0 -1
140.27252197265625 -525.1034545898438 675 0 -1
169.40408325195312 -528.1641235351562 675 0 -1
197.99044799804688 -528.6256103515625 675 0 -1
100.81266021728516 -498.0091857910156 675 0 -1
246.51263427734375 -532.0098266601562 675 0 -1
162.66867065429688 -479.1935729980469 675 0 -1
60.36248016357422 -464.798828125 675 0 -1
28.934080123901367 -462.1253356933594 675 0 -1
238.9676055908203 -470.49700927734375 675 0 -1
143.5604705810547 -463.8515319824219 675 0 -1
207.54110717773438 -465.65472412109375 675 0 -1
86.80804443359375 -454.57208251953125 675 0 -1
119.872314453125 -452.84893798828125 675 0 -1
171.61328125 -452.281494140625 675 0 -1
269.96380615234375 -443.6451721191406 682.551513671875 0 -1
260.1034851074219 -461.8915100097656 711.18115234375 0 -1
230.42225646972656 -559.4249267578125 682.915283203125 0 -1
239.21385192871094 -546.5999145507812 703.0899658203125 0 -1
259.6829528808594 -502.5194091796875 705 0 -1
267.75445556640625 -469.82000732421875 678.7550659179688 0 -1
256.9764099121094 -505.94610595703125 675 0 -1
186.89755249023438 -498.8801574707031 675 0 -1
231.1860809326172 -509.7707824707031 675 0 -1
126.87489318847656 -491.5077819824219 675 0 -1
76.92222595214844 -484.4924011230469 675 0 -1
-128.9457550048828 -252.86325073242188 675 0 -1
-181.34239196777344 -235.88233947753906 675 0 -1
-59.67615509033203 -292.6358337402344 675 0 -1
-38.36152267456055 -317.2758483886719 728.3936157226562 0 -1
-179.0142059326172 -313.8662414550781 675 0 -1
-120.36862182617188 -316.509765625 675 0 -1
-155.16001892089844 -318.85821533203125 675 0 -1
-222.73019409179688 -319.2830810546875 675 0 -1
-377.5821533203125 -319.89373779296875 675 0 -1
-81.35994720458984 -305.6666259765625 735 0 -1
-116.6271743774414 -295.661865234375 735 0 -1
-130.47335815429688 -333.6783142089844 735 0 -1
-155.38475036621094 -294.3238830566406 735 0 -1
-207.4376220703125 -269.5309753417969 735 0 -1
-170.3959197998047 -317.3759765625 735 0 -1
-193.22772216796875 -323.4741516113281 735 0 -1
-187.6603240966797 -293.9295654296875 735 0 -1
-290.949951171875 -323.3688659667969 675 0 -1
-410.65399169921875 -322.4996643066406 675 0 -1
-67.10631561279297 -325.3207092285156 675 0 -1
-257.1447448730469 -329.8083190917969 675 0 -1
-446.5274658203125 -331.110595703125 675 0 -1
-154.8020477294922 -345.4601745605469 735 0 -1
-180.5292510986328 -350.2918395996094 735 0 -1
-66.5328369140625 -343.06622314453125 723.3577880859375 0 -1
-87.05303192138672 -350.6882019042969 735 0 -1
-112.70265197753906 -358.6794128417969 735 0 -1
-230.6338348388672 -365.8822326660156 735 0 -1
-460.7302551269531 -371.89306640625 732.3195190429688 0 -1
-436.7890930175781 -382.90838623046875 735 0 -1
-241.27032470703125 -393.0261535644531 735 0 -1
-404.9123229980469 -384.5054931640625 735 0 -1
-283.7323913574219 -392.3632507324219 735 0 -1
-258.63653564453125 -371.00469970703125 735 0 -1
-310.51043701171875 -380.18798828125 735 0 -1
-368.8839416503906 -398.41717529296875 735 0 -1
-461.2693176269531 -397.0245056152344 727.1201782226562 0 -1
-77.51800537109375 -411.01678466796875 735 0 -1
-171.82376098632812 -409.5899353027344 735 0 -1
-78.69414520263672 -401.8287658691406 678.2550659179688 0 -1
-158.93435668945312 -381.7753601074219 735 0 -1
-127.60079956054688 -386.6470947265625 735 0 -1
-190 -393.3253173828125 732.8963012695312 0 -1
-88.12523651123047 -379.6302795410156 735 0 -1
-77.69693756103516 -368.4557189941406 703.2499389648438 0 -1
-371.496337890625 -365.7872314453125 675 0 -1
-240.61898803710938 -368.9485778808594 675 0 -1
-299.1895751953125 -365.40362548828125 675 0 -1
-401.8687744140625 -371.344970703125 675 0 -1
-323.8259582519531 -376.5207214355469 675 0 -1
-82.70416259765625 -377.0596618652344 675 0 -1
-130.10671997070312 -377.7571716308594 675 0 -1
-186.5255126953125 -379.83294677734375 675 0 -1
-350.10906982421875 -379.3216552734375 675 0 -1
-438.256591796875 -386.8987121582031 675 0 -1
-288.3843688964844 -388.71612548828125 675 0 -1
-159.6487274169922 -389.57733154296875 675 0 -1
-109.03160858154297 -394.0673828125 675 0 -1
-411.5476989746094 -392.96343994140625 675 0 -1
-215.1597137451172 -394.324462890625 675 0 -1
-257.24114990234375 -395.5049133300781 675 0 -1
-335.2369079589844 -400.8702392578125 675 0 -1
-364.4407043457031 -403.7281799316406 675 0 -1
-454.927734375 -406.36614990234375 675 0 -1
-331.36785888671875 -408.6936340332031 735 0 -1
-430.8836364746094 -410.5037536621094 735 0 -1
-260.2794189453125 -415.38507080078125 735 0 -1
-385.2291564941406 -420.5606994628906 735 0 -1
-359.5737609863281 -420.99969482421875 735 0 -1
-289.9066162109375 -423.1368713378906 735 0 -1
-150.36886596679688 -427.5545654296875 735 0 -1
-49.44557189941406 -459.06378173828125 675 0 -1
-82.74622344970703 -459.0743408203125 675 0 -1
-213.2075653076172 -455.9912109375 675 0 -1
-41.66524124145508 -455.7572021484375 727.0398559570312 0 -1
-67.49514770507812 -445.8442687988281 735 0 -1
-202.93569946289062 -426.6171875 735 0 -1
-100.2133560180664 -434.05133056640625 735 0 -1
-469.3702697753906 -434.5538330078125 735 0 -1
-442.8205871582031 -435.34893798828125 735 0 -1
-455.9915466308594 -438.6601867675781 675 0 -1
-405.72381591796875 -439.5947570800781 735 0 -1
-337.8539123535156 -437.4918212890625 735 0 -1
-112.95880889892578 -455.4546203613281 675 0 -1
-298.2967834472656 -452.2720031738281 675 0 -1
-162.88662719726562 -452.0120544433594 675 0 -1
-135.94386291503906 -444.1241760253906 675 0 -1
-362.7057800292969 -443.1144714355469 675 0 -1
-247.2639617919922 -443.3633117675781 675 0 -1
-407.05572509765625 -441.3896789550781 675 0 -1
-191.6796417236328 -440.52740478515625 675 0 -1
-339.5421142578125 -459.5681457519531 675 0 -1
-143.61386108398438 -460.2729797363281 735 0 -1
-110.4318618774414 -459.1729736328125 735 0 -1
-310.13214111328125 -455.15802001953125 735 0 -1
-189.68222045898438 -448.79815673828125 735 0 -1
-226.69815063476562 -438.7758483886719 735 0 -1
-382.3664855957031 -461.3764343261719 675 0 -1
-112.58729553222656 -428.609130859375 675 0 -1
-299.47998046875 -428.0992126464844 675 0 -1
-69.6212387084961 -426.8627014160156 711.7052612304688 0 -1
-326.48614501953125 -422.7766418457031 675 0 -1
-215.47117614746094 -422.61016845703125 675 0 -1
-270.23492431640625 -421.5985107421875 675 0 -1
-188.3779754638672 -408.666015625 675 0 -1
-143.83226013183594 -414.45660400390625 675 0 -1
-422.9260559082031 -418.8051452636719 675 0 -1
-389.34149169921875 -421.0598449707031 675 0 -1
-213.94793701171875 -363.3351135253906 675 0 -1
-265.0154724121094 -364.3920593261719 675 0 -1
-152.77049255371094 -361.03643798828125 675 0 -1
-392.3421936035156 -353.1512145996094 735 0 -1
-465.91754150390625 -352.5397033691406 702.4554443359375 0 -1
-421.8224182128906 -355.10748291015625 675 0 -1
-393.4014587402344 -345.1413879394531 675 0 -1
-362.9760437011719 -351.8464660644531 735 0 -1
-293.31256103515625 -350.5351257324219 735 0 -1
-440.3573303222656 -343.5284729003906 735 0 -1
-470.8621520996094 -342.4916076660156 734.9037475585938 0 -1
-357.7272033691406 -335.5832214355469 675 0 -1
-203.62327575683594 -337.1131286621094 675 0 -1
-329.6160583496094 -340.6180725097656 675 0 -1
-178.13101196289062 -343.13037109375 675 0 -1
-87.21537780761719 -343.3887023925781 675 0 -1
-110.95275115966797 -346.4667053222656 675 0 -1
-2567.37353515625 -59.02236557006836 675 1 -1
-2451.615234375 -92.5041275024414 675 1 -1
-2286.6533203125 -80.0687026977539 675 1 -1
-2421.05908203125 -74.14523315429688 675 1 -1
-2699.37451171875 -53.936946868896484 675 1 -1
-2500.034423828125 -68.10736846923828 675 1 -1
-2232.162841796875 -89.87359619140625 675 1 -1
-2668.867431640625 -57.158077239990234 675 1 -1
-2620.88525390625 -71.75994110107422 675 1 -1
-2357.244873046875 -69.58989715576172 675 1 -1
-2323.228271484375 -79.1921615600586 675 1 -1
-2159.85107421875 -88.3450927734375 675 1 -1
-2599.18505859375 -53.53788757324219 675 1 -1
-2472.346923828125 -70.73709869384766 675 1 -1
-2778.466796875 -49.313785552978516 675 1 -1
-2215.296630859375 -30 663.5314331054688 1 -1
-2742.73291015625 -30 659.2871704101562 1 -1
-917.754150390625 -30 659.609130859375 1 -1
-1514.5347900390625 -30 667.435791015625 1 -1
-2832.46435546875 -30 664.1898193359375 1 -1
-1713.5621337890625 -30 665.7559204101562 1 -1
-1945.51953125 -30 665.0478515625 1 -1
-2057.481689453125 -30 662.317626953125 1 -1
-2164.509033203125 -32.59607696533203 661.5960693359375 1 -1
-266.8273010253906 -30.180360794067383 659.1803588867188 1 -1
-1617.147216796875 -31.86060905456543 660.860595703125 1 -1
-164.46388244628906 -30.169994354248047 659.1699829101562 1 -1
-1486.710205078125 -34.72406005859375 663.7240600585938 1 -1
-1987.3001708984375 -31.037864685058594 660.037841796875 1 -1
-1337.486328125 -36.2235107421875 665.2235107421875 1 -1
-2108.705322265625 -31.161827087402344 660.1618041992188 1 -1
-2561.0380859375 -31.377704620361328 660.377685546875 1 -1
-805.8728637695312 -39.19786834716797 668.1978759765625 1 -1
-1053.4940185546875 -31.854049682617188 660.8540649414062 1 -1
-415.047607421875 -36.929542541503906 665.9295654296875 1 -1
-2500.244384765625 -30.436147689819336 659.4361572265625 1 -1
145.0356903076172 -33.79444885253906 662.79443359375 1 -1
-2536.63037109375 -40.32780838012695 669.3278198242188 1 -1
-2895.6162109375 -34.70518493652344 663.7052001953125 1 -1
-2722.772216796875 -43.473358154296875 672.473388671875 1 -1
-2414.753173828125 -43.29021072387695 672.2902221679688 1 -1
-2829.8154296875 -91.38333892822266 675 1 -1
-2913.693115234375 -60.31239700317383 675 1 -1
-2817.5419921875 -147.5252685546875 675 0 -1
-2889.174072265625 -402.8681335449219 675 1 -1
-2639.763916015625 -171.65020751953125 675 0 -1
-2788.813720703125 -263.4167785644531 675 0 -1
-2744.01611328125 -318.6051940917969 675 0 -1
-2745.89599609375 -185.7678680419922 675 0 -1
-2843.508056640625 -139.56272888183594 675 0 -1
-2855.431396484375 -292.1834411621094 675 0 -1
-2848.387939453125 -165.31712341308594 675 0 -1
-2706.022216796875 -135.20066833496094 675 1 -1
-2820.437744140625 -170.84169006347656 675 0 -1
-2843.664794921875 -327.8533020019531 675 0 -1
-2815.29443359375 -272.7548828125 675 0 -1
-2876.632080078125 -308.27984619140625 675 1 -1
-2904.7119140625 -255.7982635498047 675 1 -1
-2916.402587890625 -96.74432373046875 675 1 -1
-2626.122802734375 -222.1144561767578 675 0 -1
-2824.22216796875 -304.37933349609375 675 0 -1
-2851.906494140625 -353.15380859375 675 0 -1
-2868.313720703125 -378.4654235839844 675 0 -1
-2745.510986328125 -279.9252014160156 675 0 -1
-2797.012451171875 -223.60890197753906 675 0 -1
-2647.01953125 -200.74386596679688 675 0 -1
-2915.114990234375 -222.227783203125 675 1 -1
-2667.478271484375 -178.13851928710938 675 0 -1
-2896.457275390625 -148.97608947753906 675 1 -1
-2549.068359375 -204.1956329345703 675 0 -1
-2716.94580078125 -194.68165588378906 675 0 -1
-2618.345458984375 -191.86196899414062 675 0 -1
-2864.84375 -258.4283752441406 675 0 -1
-2701.55712890625 -253.04388427734375 675 0 -1
-2905.308837890625 -317.67095947265625 675 1 -1
-2784.174560546875 -182.9775848388672 675 0 -1
-2736.83642578125 -253.79022216796875 675 0 -1
-2871.806396484375 -227.32672119140625 675 1 -1
-2720.126708984375 -272.8299255371094 675 0 -1
-2768.127685546875 -306.3183898925781 675 0 -1
-2884.184326171875 -200.7000732421875 675 1 -1
-2766.70458984375 -203.3606414794922 675 0 -1
-2696.799560546875 -172.00369262695312 675 0 -1
-2796.0205078125 -301.6253662109375 675 0 -1
-2739.113525390625 -211.41082763671875 675 0 -1
-2840.28857421875 -240.29244995117188 675 0 -1
-2548.2470703125 -86.83606719970703 675 1 -1
-2583.95947265625 -84.27368927001953 675 1 -1
-2648.0400390625 -76.21575164794922 675 1 -1
-2726.609619140625 -73.21454620361328 675 1 -1
-2552.392578125 -114.97272491455078 675 1 -1
-2751.74853515625 -73.1890869140625 675 1 -1
-2584.041748046875 -120.14100646972656 675 1 -1
-2779.320556640625 -75.9880599975586 675 1 -1
-2670.8759765625 -122.37958526611328 675 1 -1
-2873.476806640625 -52.90387725830078 675 1 -1
-2807.409423828125 -79.50590515136719 675 1 -1
-2618.37939453125 -155.53054809570312 675 0 -1
-2761.135498046875 -104.76361083984375 675 1 -1
-2869.301025390625 -176.39732360839844 675 1 -1
-2624.079345703125 -248.05364990234375 675 0 -1
-2852.80615234375 -74.25807189941406 675 1 -1
-2897.591796875 -341.91754150390625 675 1 -1
-2684.8046875 -226.19757080078125 675 0 -1
-2855.166259765625 -102.89640808105469 675 1 -1
-2651.9951171875 -231.60597229003906 675 0 -1
-2597.53662109375 -216.1068572998047 675 0 -1
-2675.319091796875 -256.51611328125 675 0 -1
-2911.655029296875 -170.57119750976562 675 1 -1
-2759.054931640625 -131.95822143554688 675 1 -1
-2800.537841796875 -126.81758117675781 675 1 -1
-2909.754638671875 -289.6838684082031 675 1 -1
-2787.388916015625 -150.64657592773438 675 0 -1
-2827.372314453125 -119.67181396484375 675 1 -1
-2887.04833984375 -98.1705093383789 675 1 -1
-2726.26318359375 -158.7786102294922 675 0 -1
-2870.413330078125 -338.4487609863281 675 1 -1
-2813.145751953125 -327.54534912109375 675 0 -1
-2818.98046875 -214.3954620361328 675 0 -1
-2787.1064453125 -335.78948974609375 675 0 -1
-2787.38916015625 -104.02716064453125 675 1 -1
-2904.71484375 -124.41272735595703 675 1 -1
-2716.720947265625 -231.23814392089844 675 0 -1
-2762.689208984375 -246.19180297851562 675 0 -1
-2843.140380859375 -193.04495239257812 675 0 -1
-2894.61083984375 -375.6884460449219 675 1 -1
-2730.82177734375 -130.60995483398438 675 1 -1
-2874.063232421875 -128.207275390625 675 1 -1
-2883.074462890625 -280.26934814453125 675 1 -1
-2680.933837890625 -149.71868896484375 675 0 -1
-2764.869140625 -164.5593719482422 675 0 -1
-2686.6533203125 -200.19622802734375 675 0 -1
-2491.5810546875 -96.28663635253906 675 1 -1
-2811.941162109375 -55.0843391418457 675 1 -1
-2524.80615234375 -107.29930877685547 675 1 -1
-2610.789794921875 -94.62942504882812 675 1 -1
-2693.296630859375 -81.58106994628906 675 1 -1
-2642.2421875 -106.89324951171875 675 1 -1
-2611.782958984375 -126.82000732421875 675 1 -1
-2721.858154296875 -97.97525787353516 675 1 -1
-2695.32861328125 -107.53675079345703 675 1 -1
-2572.880615234375 -148.6583709716797 675 0 -1
-2642.1123046875 -136.4783935546875 675 0 -1
-2545.460205078125 -175.8006591796875 675 0 -1
-2571.055908203125 -183.95278930664062 675 0 -1
-2596.720458984375 -172.98858642578125 675 0 -1
-2595.947509765625 -332.877685546875 675 0 -1
-2788.87890625 -388.5734558105469 675 0 -1
-2278.909912109375 -284.6683654785156 675 0 -1
-2576.71826171875 -292.8371276855469 675 0 -1
-2545.2646484375 -346.3894958496094 675 0 -1
-2464.618896484375 -252.85238647460938 675 0 -1
-2345.910888671875 -258.0080261230469 675 1 -1
-2350.501708984375 -305.619873046875 675 1 -1
-2440.994384765625 -298.4839172363281 675 1 -1
-2231.381591796875 -260.10504150390625 675 0 -1
-2497.896728515625 -297.0680236816406 675 0 -1
-2441.9140625 -267.098388671875 675 1 -1
-2547.765380859375 -311.635498046875 675 0 -1
-2695.75634765625 -344.52740478515625 675 0 -1
-2314.685302734375 -255.01995849609375 675 1 -1
-2649.380859375 -351.317626953125 675 0 -1
-2666.892822265625 -283.9285583496094 675 0 -1
-2636.984130859375 -277.4123840332031 675 0 -1
-2529.8974609375 -225.6757049560547 675 0 -1
-2811.469970703125 -368.25653076171875 675 0 -1
-2679.258056640625 -304.9681091308594 675 0 -1
-2748.3974609375 -345.23907470703125 675 0 -1
-2540.660400390625 -254.0437774658203 675 0 -1
-2642.03564453125 -303.9010925292969 675 0 -1
-2836.00732421875 -375.90478515625 675 0 -1
-2183.761474609375 -276.9866943359375 675 0 -1
-2323.505615234375 -290.4623107910156 675 1 -1
-2196.517822265625 -251.77040100097656 675 0 -1
-2520.7255859375 -319.92596435546875 675 0 -1
-2489.8837890625 -266.9515380859375 675 0 -1
-2396.189453125 -268.6132507324219 675 1 -1
-2254.122314453125 -273.6394348144531 675 0 -1
-2763.21875 -377.38104248046875 675 0 -1
-2611.75830078125 -355.9673767089844 675 0 -1
-2850.439697265625 -397.64947509765625 675 0 -1
-2418.1650390625 -248.2456512451172 675 1 -1
-2092.552490234375 -255.38485717773438 675 0 -1
-2416.40234375 -307.7080078125 675 1 -1
-2544.254638671875 -283.4166564941406 675 0 -1
-2621.94921875 -325.70257568359375 675 0 -1
-2468.60498046875 -285.6272277832031 675 0 -1
-2737.693359375 -381.0434265136719 675 0 -1
-2572.609130859375 -325.01641845703125 675 0 -1
-2720.181640625 -362.5728759765625 675 0 -1
-2484.894775390625 -326.22998046875 675 0 -1
-2160.5302734375 -267.2593994140625 675 0 -1
-2391.309814453125 -296.0028381347656 675 1 -1
-2595.82177734375 -246.1670684814453 675 0 -1
-2568.67041015625 -232.06419372558594 675 0 -1
-2704.418701171875 -312.4433898925781 675 0 -1
-2600.902099609375 -275.9870300292969 675 0 -1
-2570.373046875 -264.22430419921875 675 0 -1
-2723.58740234375 -335.3018493652344 675 0 -1
-2504.648193359375 -243.173828125 675 0 -1
-2615.562255859375 -294.6255187988281 675 0 -1
-2659.578125 -323.24298095703125 675 0 -1
-2922.759033203125 -386.5020446777344 676.1444702148438 1 -1
-2933.344970703125 -245.01632690429688 669.9727172851562 1 -1
-2935.614501953125 -328.05755615234375 707.00048828125 0 -1
-2933.1220703125 -281.19635009765625 709.9318237304688 0 -1
-2924.701904296875 -360.6443176269531 706.3232421875 0 -1
-2935.614501953125 -338.62957763671875 683.9033813476562 1 -1
-2935.614501953125 -363.6982116699219 676.4948120117188 1 -1
-2935.614501953125 -315.3983459472656 674.6995239257812 1 -1
-2935.614501953125 -148.54180908203125 687.4972534179688 1 -1
-2934.234375 -103.0887680053711 692.3801879882812 1 -1
-2929.0634765625 -305.43670654296875 697.5511474609375 1 -1
-2927.966796875 -255.9231414794922 698.6476440429688 1 -1
-2935.614501953125 -126.58829498291016 700.6614379882812 1 -1
-2934.599365234375 -50 697.1976928710938 1 -1
-2773.886474609375 -370.4258117675781 705 0 -1
-2505.9912109375 -293.3037414550781 705 0 -1
-2353.28662109375 -288.6651611328125 705 0 -1
-2142.36865234375 -260.3212890625 705 0 -1
-2229.337890625 -258.2713623046875 705 0 -1
-2680.48486328125 -349.134765625 705 0 -1
-2532.862548828125 -286.91387939453125 705 0 -1
-2430.59619140625 -288.29840087890625 705 0 -1
-2707.64111328125 -353.92547607421875 705 0 -1
-2491.52880859375 -271.414306640625 705 0 -1
-2572.9248046875 -325.30596923828125 705 0 -1
-2733.23291015625 -361.23638916015625 705 0 -1
-2789.743408203125 -397.0281066894531 705 0 -1
-2257.301025390625 -267.7914123535156 705 0 -1
-2620.13134765625 -322.6483154296875 705 0 -1
-2576.897705078125 -354.3395690917969 705 0 -1
-2334.658447265625 -307.11749267578125 705 0 -1
-2462.42236328125 -269.6798095703125 705 0 -1
-2709.646728515625 -226.58709716796875 705 0 -1
-2666.560546875 -185.8709259033203 705 0 -1
-2813.664794921875 -130.57363891601562 705 0 -1
-2636.735107421875 -167.59622192382812 705 0 -1
-2773.727783203125 -190.73036193847656 705 0 -1
-2888.4912109375 -228.890869140625 705 0 -1
-2912.0849609375 -141.48672485351562 705 0 -1
-2641.861328125 -195.8631591796875 705 0 -1
-2895.986328125 -255.44631958007812 705 0 -1
-2678.1767578125 -266.0766906738281 705 0 -1
-2747.520751953125 -222.30099487304688 705 0 -1
-2906.337890625 -339.9586181640625 705 1 -1
-2571.454833984375 -201.9471893310547 705 0 -1
-2752.85107421875 -114.34696960449219 705 0 -1
-2736.245849609375 -138.3329315185547 705 0 -1
-2706.45458984375 -259.6455993652344 705 0 -1
-2735.446044921875 -256.5417175292969 705 0 -1
-2845.087158203125 -349.49420166015625 705 0 -1
-2803.606689453125 -249.26126098632812 705 0 -1
-2767.9609375 -132.3360137939453 705 0 -1
-2699.708251953125 -284.9235534667969 705 0 -1
-2829.5751953125 -229.99217224121094 705 0 -1
-2902.02734375 -279.70343017578125 705 0 -1
-2866.744140625 -274.099365234375 705 0 -1
-2786.697998046875 -99.28370666503906 705 0 -1
-2913.3369140625 -384.5209655761719 705 1 -1
-2915.93212890625 -182.70211791992188 705 0 -1
-2905.862548828125 -313.03460693359375 705 1 -1
-2712.77978515625 -193.55763244628906 705 0 -1
-2786.10693359375 -269.8507995605469 705 0 -1
-2840.20458984375 -195.16802978515625 705 0 -1
-2861.808349609375 -175.87481689453125 705 0 -1
-2864.7470703125 -81.4540023803711 705 0 -1
-2892.259765625 -203.49411010742188 705 0 -1
-2757.4140625 -164.98019409179688 705 0 -1
-2777.25048828125 -330.197021484375 705 0 -1
-2726.600341796875 -166.923583984375 705 0 -1
-2686.647216796875 -205.72021484375 705 0 -1
-2814.788330078125 -344.2848205566406 705 0 -1
-2673.85546875 -234.3036651611328 705 0 -1
-2596.97265625 -295.77874755859375 705 0 -1
-2556.373291015625 -277.036865234375 705 0 -1
-2640.844482421875 -309.72808837890625 705 0 -1
-2702.849853515625 -327.1162109375 705 0 -1
-2804.9404296875 -369.86456298828125 705 0 -1
-2554.54150390625 -250.30104064941406 705 0 -1
-2611.427490234375 -270.5047302246094 705 0 -1
-2643.36669921875 -284.1944885253906 705 0 -1
-2830.70703125 -378.2323913574219 705 0 -1
-2671.729248046875 -295.28948974609375 705 0 -1
-2571.614501953125 -232.93923950195312 705 0 -1
-2748.45361328125 -325.428955078125 705 0 -1
-2802.690185546875 -291.3397216796875 705 0 -1
-2830.928466796875 -88.88134765625 705 0 -1
-2915.71923828125 -231.07778930664062 705 0 -1
-2795.060302734375 -212.27078247070312 705 0 -1
-2865.67822265625 -243.47760009765625 705 0 -1
-2760.1416015625 -244.82647705078125 705 0 -1
-2758.59521484375 -277.99285888671875 705 0 -1
-2658.256591796875 -212.8269805908203 705 0 -1
-2851.937744140625 -126.63758850097656 705 0 -1
-2865.8671875 -369.95684814453125 705 0 -1
-2742.961181640625 -195.69651794433594 705 0 -1
-2638.645751953125 -232.3689422607422 705 0 -1
-2911.36279296875 -113.14582061767578 705 0 -1
-2844.861572265625 -296.1300964355469 705 0 -1
-2646.91259765625 -258.887939453125 705 0 -1
-2831.888916015625 -167.31944274902344 705 0 -1
-2686.651611328125 -167.27728271484375 705 0 -1
-2825.1357421875 -275.084716796875 705 0 -1
-2882.84619140625 -126.82556915283203 705 0 -1
-2904.785888671875 -52.22679901123047 705 0 -1
-2786.890869140625 -168.57496643066406 705 0 -1
-2894.68896484375 -364.2027282714844 705 1 -1
-2898.827880859375 -81.17742156982422 705 0 -1
-2728.587890625 -284.87725830078125 705 0 -1
-2863.3779296875 -218.53268432617188 705 0 -1
-2603.605224609375 -189.48147583007812 705 0 -1
-2890.41064453125 -398.12579345703125 705 1 -1
-2874.631591796875 -298.41015625 705 0 -1
-2877.722900390625 -153.7646026611328 705 0 -1
-2890.05419921875 -177.39414978027344 705 0 -1
-2882.25537109375 -326.42822265625 705 1 -1
-2602.55126953125 -215.98367309570312 705 0 -1
-2839.031982421875 -319.2322082519531 705 0 -1
-2779.296875 -298.14111328125 705 0 -1
-2812.985595703125 -188.08258056640625 705 0 -1
-2717.333251953125 -305.9491882324219 705 0 -1
-2841.66259765625 -254.84075927734375 705 0 -1
-2914.96142578125 -419.6358642578125 705 1 -1
-2284.854248046875 -289.34722900390625 705 0 -1
-2458.862060546875 -317.2964782714844 705 0 -1
-2609.16943359375 -355.34051513671875 705 0 -1
-2380.556884765625 -262.5557556152344 705 0 -1
-2488.369384765625 -314.21246337890625 705 0 -1
-2177.74072265625 -255.70986938476562 705 0 -1
-2205.6796875 -259.97491455078125 705 0 -1
-2511.120361328125 -321.6322937011719 705 0 -1
-2409.835205078125 -254.05638122558594 705 0 -1
-2654.72216796875 -358.5908508300781 705 0 -1
-2412.57421875 -310.32647705078125 705 0 -1
-2287.833740234375 -255.76416015625 705 0 -1
-2088.326904296875 -250.11814880371094 705 0 -1
-2663.627685546875 -330.72845458984375 705 0 -1
-2312.08349609375 -274.09979248046875 705 0 -1
-2546.4228515625 -321.4473571777344 705 0 -1
-2530.07421875 -343.66705322265625 705 0 -1
-2434.880615234375 -262.72296142578125 705 0 -1
-2386.183837890625 -286.2300109863281 705 0 -1
-2517.551513671875 -261.2611999511719 705 0 -1
-2852.69775390625 -394.6770324707031 705 0 -1
-2756.4677734375 -352.4654846191406 705 0 -1
-2582.462646484375 -268.3984680175781 705 0 -1
-2513.416259765625 -232.1721649169922 705 0 -1
-2596.859619140625 -242.61611938476562 705 0 -1
-2676.458740234375 -138.8216094970703 705 0 -1
-2708.614013671875 -123.03480529785156 705 0 -1
-2591.033203125 -163.31900024414062 705 0 -1
-2652.357177734375 -136.37046813964844 705 0 -1
-2549.56396484375 -167.8828125 705 0 -1
-2598.81201171875 -137.6383819580078 705 0 -1
-2736.97119140625 -90.58478546142578 705 0 -1
-2568.412353515625 -138.2366943359375 705 0 -1
-2539.080810546875 -142.16111755371094 705 0 -1
-2619.0087890625 -117.57152557373047 705 0 -1
-2643.149169921875 -106.79744720458984 705 0 -1
-2800.097412109375 -67.09170532226562 705 0 -1
-2587.5634765625 -114.26070404052734 705 0 -1
-2859.3779296875 -50.078426361083984 705 0 -1
-2769.103271484375 -68.3016128540039 705 0 -1
-2554.545654296875 -113.67411041259766 705 0 -1
-2520.19775390625 -114.99592590332031 700.3594360351562 1 -1
-2680.697021484375 -82.57357788085938 705 0 -1
-2705.576171875 -77.28250122070312 705 0 -1
-2604.490478515625 -91.51071166992188 705 0 -1
-2574.765380859375 -90.88673400878906 705 0 -1
-2651.578125 -77.83251190185547 705 0 -1
-2500.951171875 -97.0521469116211 705 0 -1
-2526.3330078125 -87.94454193115234 705 0 -1
-2550.076171875 -84.88140869140625 705 0 -1
-2819.82861328125 -48.32560348510742 705 1 -1
-2472.298095703125 -88.09402465820312 705 0 -1
-2505.857177734375 -68.41681671142578 705 0 -1
-2697.04931640625 -55.362281799316406 705 0 -1
-2403.142822265625 -91.24986267089844 705 0 -1
-2584.797607421875 -54.587493896484375 705 1 -1
-2725.3134765625 -56.3928108215332 705 0 -1
-2551.471435546875 -56.208030700683594 705 1 -1
-2170.65625 -85.91156005859375 705 0 -1
-2377.689208984375 -77.05006408691406 705 0 -1
-2633.85693359375 -54.013694763183594 705 1 -1
-2296.314697265625 -82.1708755493164 705 0 -1
-2668.039306640625 -55.66783142089844 705 0 -1
-2437.50537109375 -93.20393371582031 705 0 -1
-2117.301025390625 -93.7607421875 675 1 -1
-2226.164794921875 -94.79778289794922 705 0 -1
-2189.422607421875 -96.09806823730469 675 1 -1
-2348.5361328125 -98.096435546875 705 0 -1
-2097.641845703125 -98.66023254394531 705 0 -1
-2306.100341796875 -98.16752624511719 675 1 -1
-2256.6396484375 -98.75125122070312 675 1 -1
-2360.29296875 -100.12696838378906 675 1 -1
-2427.6865234375 -102.41726684570312 681.3605346679688 1 -1
-2059.878173828125 -100.4947509765625 701.94091796875 0 -1
-2065.60888671875 -103.62068939208984 676.041015625 1 -1
-2148.554931640625 -103.90391540527344 705 0 -1
-2088.733642578125 -103.59651947021484 675 1 -1
-2329.77197265625 -106.14124298095703 675 1 -1
-2404.169921875 -107.16754150390625 675 1 -1
-2183.08349609375 -106.24313354492188 705 0 -1
-2374.03857421875 -107.42013549804688 705 0 -1
-2251.818603515625 -108.36236572265625 705 0 -1
-2321.418701171875 -108.65337371826172 705 0 -1
-2288.926025390625 -111.38439178466797 705 0 -1
-2127.306396484375 -117.13712310791016 705 0 -1
-2115.46533203125 -119.75411224365234 675 1 -1
-2286.001220703125 -121.15574645996094 675 1 -1
-2223.106689453125 -119.30813598632812 705 0 -1
-2401.67822265625 -122.80501556396484 705 0 -1
-2088.680419921875 -124.97161865234375 691.96923828125 1 -1
-2197.518310546875 -123.06770324707031 675 1 -1
-2261.41259765625 -125.26478576660156 675 1 -1
-2343.513916015625 -128.0793914794922 675 1 -1
-2359.276611328125 -126.88175964355469 705 0 -1
-2265.56591796875 -131.43862915039062 705 0 -1
-2189.19580078125 -132.42514038085938 705 0 -1
-2317.716796875 -132.9174041748047 705 0 -1
-2143.32275390625 -131.44972229003906 675 0 -1
-2233.7099609375 -134.0347137451172 675 0 -1
-2170.98876953125 -134.2896270751953 675 0 -1
-2367.736328125 -135.30398559570312 675 1 -1
-2107.282958984375 -139.88339233398438 705 0 -1
-2098.045166015625 -142.45574951171875 676.3992919921875 0 -1
-2394.086181640625 -140.1906280517578 675.5985107421875 1 -1
-2297.207275390625 -144.1371307373047 675 0 -1
-2157.783447265625 -144.40054321289062 705 0 -1
-2241.116943359375 -143.68417358398438 705 0 -1
-2379.840087890625 -148.5991973876953 705 0 -1
-2132.285888671875 -148.05030822753906 705 0 -1
-2298.0537109375 -150.82032775878906 705 0 -1
-2214.08740234375 -150.92120361328125 705 0 -1
-2190.781982421875 -151.87635803222656 675 0 -1
-2327.532470703125 -154.33900451660156 675 1 -1
-2216.812744140625 -154.98374938964844 675 0 -1
-2348.79296875 -157.17628479003906 705 0 -1
-2187.294189453125 -159.30825805664062 705 0 -1
-2265.019775390625 -161.6815948486328 705 0 -1
-2156.784423828125 -157.7751007080078 675 0 -1
-2253.900390625 -161.49171447753906 675 0 -1
-2131.506591796875 -160.71339416503906 675 0 -1
-2357.54638671875 -164.20130920410156 675 1 -1
-2317.44921875 -165.36834716796875 705 0 -1
-2103.435791015625 -166.06674194335938 705 0 -1
-2145.065185546875 -171.08580017089844 705 0 -1
-2385.8369140625 -167.89401245117188 675 1 -1
