# .PCD v0.7 - Point Cloud Data file format
VERSION 0.7
FIELDS x y z
SIZE 4 4 4
TYPE F F F
COUNT 1 1 1
WIDTH 1206
HEIGHT 1
VIEWPOINT 0 0 0 1 0 0 0
POINTS 1206
DATA ascii
-598.152434 26.28940539 -1.525500386
1054.627911 -2.088228607 107.4689526
865.463006 -2.460661244e-05 13.20013261
1114.710688 67.99997539 -1.922756386
1090.500215 127.9752994 114.9125146
352.11247 56.69513839 -9.738554945e-05
-495.363949 -2.460661244e-05 132.5095306
-558.512719 49.84990639 -9.738554945e-05
-402.355924 -2.460661244e-05 36.32671061
-1047.222296 67.93928639 -9.738554945e-05
1113.19311 202.2872004 247.9999026
331.312172 -2.460661244e-05 56.77093061
898.614924 -2.460661244e-05 97.86133661
1014.016074 -2.460661244e-05 25.71957061
850.202187 -2.460661244e-05 149.2199246
462.709326 -2.460661244e-05 249.4835406
-480.572193 16.79636939 -9.738554945e-05
994.198888 -1.588457607 112.2574166
1098.500215 52.51185739 164.8838986
-977.007441 -2.460661244e-05 231.5975326
1023.512812 -2.460661244e-05 242.0742996
1094.500215 15.30325639 139.5754686
636.140261 -2.460661244e-05 252.4721096
-1094.500273 44.27168839 114.4022356
-903.922262 -2.460661244e-05 26.61719361
-628.407534 21.31420139 -9.738554945e-05
-773.934991 67.99997539 -2.352911386
541.204798 -2.460661244e-05 168.7741046
-835.755373 55.28745539 -9.738554945e-05
-621.19391 -2.460661244e-05 98.12127661
355.096032 -2.460661244e-05 27.94095061
-1075.540451 93.17151739 247.9999026
159.084673 1.595973393 -9.738554945e-05
-536.581991 25.75223839 -9.738554945e-05
245.514197 -2.460661244e-05 194.2136916
-1029.994656 -2.460661244e-05 215.7758996
162.319121 -2.460661244e-05 180.5540936
-60.935284 -2.460661244e-05 184.9915086
-315.239378 22.21067739 -9.738554945e-05
547.194115 -2.460661244e-05 65.67181261
773.234025 -2.460661244e-05 64.65995961
-1090.500273 44.20422039 18.95290561
-103.742691 -2.460661244e-05 95.16870261
-1018.18626 18.36461739 89.52040361
-1072.305811 227.6150335 243.9999026
907.597443 -2.460661244e-05 133.1044176
-339.393062 39.46285439 -9.738554945e-05
243.136221 54.98371939 -9.738554945e-05
-74.015804 11.91236639 -9.738554945e-05
-115.678916 -2.460661244e-05 202.8172486
-870.100385 -2.460661244e-05 111.8751096
-288.466717 -2.460661244e-05 139.9157726
769.445484 -2.460661244e-05 179.9857446
-767.702704 -2.460661244e-05 125.4690736
-289.737271 65.00509039 -9.738554945e-05
834.537046 67.99997539 -1.604586386
271.587674 -2.460661244e-05 78.62665861
-1081.28388 193.1453894 243.9999026
-974.807363 21.18581639 -9.738554945e-05
-1029.915735 64.09987539 243.9999026
-240.196842 -2.460661244e-05 150.2996046
302.622228 51.33747239 -9.738554945e-05
-1086.500273 232.529635 140.4021296
634.338408 84.94618639 -9.738554945e-05
800.533493 -2.460661244e-05 219.1978506
-216.35263 -2.460661244e-05 186.6234456
-149.627278 -2.460661244e-05 173.5305966
-995.963008 -2.460661244e-05 93.20835661
-273.25714 -2.460661244e-05 72.85215961
-71.759536 65.62374939 -9.738554945e-05
-1090.500273 17.15119639 160.0262336
702.739938 -2.460661244e-05 86.17981961
305.246959 -2.460661244e-05 89.74031261
-718.829686 -2.460661244e-05 225.8323326
-32.572413 -2.460661244e-05 22.65274361
-527.454082 -2.460661244e-05 244.0411006
-535.13325 -2.460661244e-05 155.3518816
1098.500215 186.9229104 159.5044316
722.256147 6.589415393 -9.738554945e-05
795.848089 42.34725439 -9.738554945e-05
-234.193895 67.99997539 -0.2871213855
-734.113759 -2.460661244e-05 41.23371261
-506.985736 -2.460661244e-05 64.20186561
-1094.500273 159.3348894 208.7725636
1095.157423 252.4999294 92.87471361
-293.786468 -0.7376066066 52.81280661
571.178385 -2.460661244e-05 80.64405261
-439.018323 -2.460661244e-05 80.40834661
1114.580111 15.94729539 91.99990261
1094.500215 26.56649539 163.9493756
1028.376549 -2.460661244e-05 77.78444161
-881.760752 13.22348239 -9.738554945e-05
-69.400899 -2.460661244e-05 44.10254261
658.242776 -2.460661244e-05 67.82436361
-1090.500273 66.43451639 96.96307961
1094.500215 102.9540404 120.7937406
-28.783939 22.25874139 -9.738554945e-05
1114.200191 -2.460661244e-05 28.46426961
797.789007 -2.460661244e-05 20.68275161
-1012.500273 113.0940414 91.09454361
-395.916412 -2.460661244e-05 237.0549106
-405.775999 -2.460661244e-05 106.0250296
-1079.265267 -2.460661244e-05 37.85113461
-1055.630491 15.82580339 -9.738554945e-05
-1090.500273 45.68228839 49.27313161
329.589707 -2.460661244e-05 140.7182896
-816.436032 -2.460661244e-05 137.2237116
-358.909119 -2.460661244e-05 16.19282461
686.826995 -2.460661244e-05 33.46920461
-831.425163 -0.7344746066 -9.738554945e-05
1044.466666 -2.460661244e-05 195.0408466
813.026032 -2.460661244e-05 129.2345636
-243.517817 -2.460661244e-05 102.9884416
1094.500215 179.8292344 108.1135006
-136.418941 -2.460661244e-05 23.03456361
141.255375 -2.460661244e-05 70.66725761
-165.518834 24.59378739 -9.738554945e-05
-988.948188 -2.460661244e-05 142.9785426
1087.437058 -2.460661244e-05 56.40324961
682.863682 -2.460661244e-05 188.0239696
-1056.869358 -2.460661244e-05 236.3743866
933.185057 -2.460661244e-05 134.9049456
353.950132 -2.460661244e-05 114.7178616
770.246231 25.95598339 -9.738554945e-05
1036.230043 66.69581139 -9.738554945e-05
-456.454244 -2.460661244e-05 170.6622876
-15.778864 -2.460661244e-05 146.2917216
497.861516 -2.460661244e-05 176.8867996
429.428133 -2.460661244e-05 114.8762356
1059.654246 -2.460661244e-05 49.35626661
-217.169008 -2.460661244e-05 63.27461561
705.973276 -2.460661244e-05 139.5003116
38.330912 41.88307639 -9.738554945e-05
-183.698142 -2.460661244e-05 47.58223061
32.47379 -2.460661244e-05 162.0876076
1003.844044 -2.460661244e-05 50.99721361
455.435249 64.08572339 -9.738554945e-05
-627.575477 -2.460661244e-05 53.53671261
55.439625 -2.460661244e-05 114.9210556
1090.500215 54.05006339 100.0089746
-969.404046 -2.460661244e-05 91.56391161
910.403976 -2.460661244e-05 223.0345596
130.924903 67.99997539 -0.04417838555
1061.141183 -1.128700607 -9.738554945e-05
-346.508348 -2.460661244e-05 107.5454546
485.389246 -2.460661244e-05 117.7094456
-1029.027895 210.5694354 243.9999026
-1086.500273 72.43031939 186.8679986
-520.566574 -2.460661244e-05 99.87104261
402.347597 58.69480239 -9.738554945e-05
1094.500215 57.93261039 205.8105526
382.895947 -2.460661244e-05 69.29581361
1090.500215 57.37741639 251.0278246
393.665886 -2.460661244e-05 250.7987786
1050.867994 -2.460661244e-05 219.2125336
-387.909343 -2.460661244e-05 58.46947661
-890.210681 63.60719539 -9.738554945e-05
485.260478 -2.460661244e-05 225.4525346
-944.622019 -2.460661244e-05 230.0831916
552.553155 -2.460661244e-05 190.9180786
-731.903201 59.27145039 -9.738554945e-05
757.318174 -2.460661244e-05 130.2521276
-513.260841 60.10132439 -9.738554945e-05
1013.317593 -2.460661244e-05 190.9103886
-96.865066 64.22386739 -9.738554945e-05
-324.875604 -2.460661244e-05 72.11188761
189.467712 67.13926939 -9.738554945e-05
-1030.107603 169.9001544 243.9999026
-1071.383217 105.9735164 87.99990261
-1086.500273 85.88451739 140.4109086
-586.862216 -2.460661244e-05 43.75682961
570.624069 73.69297739 -9.738554945e-05
400.637712 0.2499753934 -1.749246386
963.482994 -2.460661244e-05 181.3437386
-332.846195 -2.460661244e-05 20.27050161
757.60897 -2.460661244e-05 23.40621761
717.302379 -2.460661244e-05 46.69122761
-455.163816 -2.460661244e-05 113.7719096
298.345661 -2.460661244e-05 128.3419506
776.364927 -1.622906607 -9.738554945e-05
-910.616772 -2.460661244e-05 197.1758836
325.61961 40.89594639 -9.738554945e-05
1090.500215 16.38396439 212.6624186
9.586973 -2.460661244e-05 252.3144576
-1094.500273 5.834937393 18.86313061
1077.751842 -2.460661244e-05 99.67914061
-995.994557 48.60601539 -9.738554945e-05
213.000017 23.47670739 -9.738554945e-05
826.977828 -2.460661244e-05 237.7391446
369.430114 -2.460661244e-05 247.6857346
790.757625 -2.460661244e-05 148.6078476
942.969974 -2.460661244e-05 224.4844036
203.239582 -2.460661244e-05 26.36752161
627.132377 28.89266539 -9.738554945e-05
889.360929 -2.460661244e-05 24.34381761
876.41974 -2.460661244e-05 170.1591826
-45.804125 -2.460661244e-05 159.0041856
-1041.312048 23.40154139 243.9999026
611.636194 -2.460661244e-05 114.5492096
-674.224166 -2.460661244e-05 250.0774956
870.850797 -2.460661244e-05 251.2703806
-1086.500273 223.1800057 206.5947696
-209.270587 50.18938539 -9.738554945e-05
71.991915 43.48583639 -9.738554945e-05
-298.419834 -2.460661244e-05 105.5267986
306.546337 -2.460661244e-05 41.57196861
-1094.500273 170.5006954 150.5502296
-933.554104 -2.460661244e-05 251.5412746
-58.825696 -2.460661244e-05 22.40312161
-385.878567 -2.460661244e-05 188.8349876
-745.965232 -2.460661244e-05 135.8967296
-1090.500273 96.80119439 162.7115506
596.63313 60.62377639 -9.738554945e-05
-193.598108 -2.460661244e-05 97.37980561
-3.518294 -2.460661244e-05 101.3124126
-959.670911 -2.460661244e-05 60.92278361
-876.271108 -2.460661244e-05 226.2399156
1094.500215 250.9923685 188.9961616
-252.165117 36.77537239 -9.738554945e-05
-488.302958 -2.460661244e-05 36.22594461
1094.500215 222.8142168 134.9812756
860.414468 21.09949439 -9.738554945e-05
637.276152 -2.460661244e-05 32.06779661
1090.500215 94.97542939 89.88069161
1094.500215 170.4785834 216.6089996
684.101552 -2.460661244e-05 227.3265696
205.436178 -2.460661244e-05 191.8332156
876.324855 -2.460661244e-05 208.7119846
368.583285 -2.460661244e-05 167.2664646
1098.500215 143.1392214 148.7306596
-998.881907 -2.460661244e-05 45.27748161
410.050027 -2.460661244e-05 99.62261461
-789.827055 -2.460661244e-05 142.2134726
-149.131479 -2.460661244e-05 224.3461006
1094.500215 42.54484739 26.05338361
-456.965639 -2.460661244e-05 221.2483096
936.58723 -2.460661244e-05 171.4946706
-1069.735701 174.3511264 87.99990261
733.938128 -2.460661244e-05 22.08834861
-257.328616 -2.460661244e-05 54.82488261
-770.292504 19.03653539 -9.738554945e-05
-295.307234 -2.460661244e-05 193.6749246
-194.342609 4.480156393 -9.738554945e-05
-1045.539024 83.77430539 87.99990261
378.592803 -2.460661244e-05 125.2964436
1094.500215 139.4928004 179.0121096
222.468822 -1.927143607 -9.738554945e-05
-407.194332 13.35473239 -9.738554945e-05
1087.126039 -2.484023607 -9.738554945e-05
518.858114 25.11694639 -9.738554945e-05
-401.447504 61.25922839 -9.738554945e-05
-445.945061 -2.460661244e-05 54.35400061
-1001.891976 -2.460661244e-05 189.5161106
-516.929779 10.76056939 -9.738554945e-05
-1090.500273 238.9801667 225.3117196
145.086254 21.10112339 -9.738554945e-05
492.009539 46.15677139 -9.738554945e-05
-623.491283 -2.460661244e-05 16.05608261
-1086.500273 120.0195764 233.4819146
-647.940889 67.99997539 -0.6524383855
-1034.614598 136.8041494 91.99990261
-924.666955 -2.460661244e-05 92.02425661
-421.918418 -2.460661244e-05 187.2382256
16.182254 -2.460661244e-05 55.14626861
-1008.937768 -2.460661244e-05 70.63345361
-1041.812667 104.6809234 243.9999026
-955.084176 -2.460661244e-05 127.7945496
-746.810762 -2.460661244e-05 87.78250961
-1094.500273 91.49615139 96.68261161
-37.66761 -2.460661244e-05 108.8177376
521.008503 72.02242739 -9.738554945e-05
238.750925 -2.460661244e-05 247.3321526
-1104.820905 -2.460661244e-05 176.9296756
331.409508 -2.460661244e-05 187.0263706
-1009.057916 -2.460661244e-05 0.7862286145
-917.093185 32.09794939 -9.738554945e-05
1098.500215 204.6387994 183.8570666
-268.163785 -2.460661244e-05 185.3051266
-698.556954 13.49943939 -9.738554945e-05
453.590925 -2.460661244e-05 152.2217006
-208.22211 -2.460661244e-05 38.91309561
1101.438384 142.0566664 247.8790776
69.692396 -2.460661244e-05 149.8734776
918.606834 9.338199393 -9.738554945e-05
741.904556 -2.460661244e-05 162.6595056
-669.391791 -2.460661244e-05 166.0239076
-669.125273 43.99328239 -9.738554945e-05
-1093.200845 -2.460661244e-05 57.20818061
742.892281 62.09938839 -9.738554945e-05
-1090.500273 22.55532439 120.9946756
-699.260116 -2.460661244e-05 76.21307761
1080.098002 -2.460661244e-05 156.1173746
-521.177278 -2.460661244e-05 185.7772356
-1064.134892 -2.460661244e-05 124.7798066
-274.013231 -2.460661244e-05 13.18003061
-578.357751 -2.460661244e-05 228.2735486
460.568171 13.82785939 -9.738554945e-05
114.477697 -2.460661244e-05 157.1644516
-478.681094 -2.460661244e-05 116.2058896
-98.208819 21.86875339 -9.738554945e-05
838.109009 -2.460661244e-05 49.59860961
-940.937015 10.91450639 -9.738554945e-05
-1042.843296 -2.460661244e-05 161.0262966
649.104802 -2.460661244e-05 88.76868961
-167.373193 -2.460661244e-05 22.78684761
-124.000345 -2.460661244e-05 138.4811906
503.361171 -2.460661244e-05 87.28025661
-1013.392792 -2.460661244e-05 132.5481656
687.935266 -2.460661244e-05 156.4079586
-607.891608 -2.460661244e-05 191.3250606
82.757361 -2.460661244e-05 178.7340716
444.043744 -2.460661244e-05 236.4333966
-320.117839 -2.460661244e-05 0.6877846145
-1094.500273 10.52546139 251.4713296
1114.263911 22.22392339 -9.738554945e-05
-412.481872 -2.460661244e-05 143.8745646
-415.731156 -2.460661244e-05 79.74518861
-1035.653821 148.0796804 247.9999026
224.27753 -2.460661244e-05 52.09473961
-567.342864 -2.460661244e-05 121.8065226
15.941367 -2.460661244e-05 3.789982614
-620.190032 42.99997539 -1.624580386
1094.500215 230.0991157 103.0313856
1095.312581 159.8759564 92.50490061
255.65418 -2.460661244e-05 128.1670396
1042.079386 -2.460661244e-05 29.49510561
1090.500215 99.19204839 187.0294076
819.111633 -2.460661244e-05 182.3263176
-847.476819 -2.460661244e-05 194.3090296
-723.584464 -2.460661244e-05 133.3954506
1098.500215 64.95300839 129.7343556
-898.319336 -2.460661244e-05 50.56783461
165.757677 -2.460661244e-05 224.1438406
1094.500215 54.38792639 48.57973361
-652.617631 -2.460661244e-05 133.4448096
14.653385 -2.460661244e-05 210.2524356
980.451277 -2.460661244e-05 158.0193736
-904.147188 -2.460661244e-05 247.1647286
-1086.500273 118.5799644 194.7737276
-718.738832 -2.460661244e-05 110.2565336
590.829419 -2.460661244e-05 46.18251361
-133.201131 -2.460661244e-05 52.40329861
-1079.200557 137.7944384 87.99990261
448.14851 -2.460661244e-05 21.66637261
677.284567 -2.460661244e-05 112.2386706
-427.798208 -2.460661244e-05 229.2643326
-1094.500273 39.96574339 78.13083061
721.919152 -2.460661244e-05 196.0477046
-1046.435639 223.8815674 247.9999026
-22.490457 -2.460661244e-05 218.3514416
942.616316 -2.460661244e-05 100.0344736
-2.507903 -2.460661244e-05 171.6818546
-229.577799 -2.460661244e-05 19.37277961
-819.299074 -2.460661244e-05 113.7403876
-702.241693 -2.460661244e-05 28.75934161
-871.129381 -2.460661244e-05 18.82584361
-944.263911 -2.460661244e-05 160.2906206
-371.390614 -2.460661244e-05 144.8771126
916.403559 -2.460661244e-05 81.23366561
456.824894 -2.460661244e-05 88.73851261
-646.443372 -2.460661244e-05 206.3464666
-354.902915 -2.460661244e-05 182.4287666
-312.864297 -2.460661244e-05 180.1934186
141.259008 -2.460661244e-05 134.1079566
-870.010905 -2.460661244e-05 60.01737161
-774.44974 -2.460661244e-05 69.81223661
-1087.945418 -2.460661244e-05 78.91412861
-1094.500273 86.62854139 208.4895486
1090.500215 60.57913239 183.7258696
649.336591 -2.460661244e-05 140.2180346
-1090.500273 238.0770182 184.3944076
563.023693 -2.460661244e-05 126.4766626
-199.022423 -2.460661244e-05 130.9941236
527.500512 -2.460661244e-05 50.23575361
-1086.500273 212.3347328 159.5115896
880.133297 -2.460661244e-05 120.6014806
1094.665854 136.1928674 94.55264261
-981.585359 67.99997539 -1.832912386
1108.716336 205.5607784 87.99990261
-658.537974 -2.460661244e-05 16.14958161
1115.34292 226.2533994 243.9999026
1100.224498 -2.460661244e-05 84.52082261
-915.371211 -2.460661244e-05 127.8081066
-490.436907 -2.460661244e-05 78.61317061
280.635338 -2.460661244e-05 38.55694861
-1087.896422 220.1082876 90.12664761
-1086.500273 60.26282339 143.5446776
-20.716054 -2.460661244e-05 58.71899661
-104.865837 -2.460661244e-05 221.8203606
-764.669546 -2.460661244e-05 44.10140161
-1086.500273 75.40845439 229.1678806
840.939465 -2.460661244e-05 95.44321961
-477.750343 40.38127739 -9.738554945e-05
563.509984 -2.460661244e-05 11.43307461
-62.051202 -2.460661244e-05 212.3203726
205.404629 -2.460661244e-05 105.5493876
437.28329 -2.460661244e-05 171.4662946
-1094.500273 44.48903239 200.5771016
-1070.596428 55.71835839 87.99990261
-778.26609 -2.460661244e-05 176.7313686
410.586655 -2.460661244e-05 165.0615646
-365.250175 -2.460661244e-05 60.21119161
-434.052738 7.526139393 -9.738554945e-05
581.185141 21.58462339 -9.738554945e-05
-983.945481 -2.230234607 -9.738554945e-05
-238.543527 13.36089539 -9.738554945e-05
-351.026796 -2.460661244e-05 222.5035126
1080.086074 43.07173139 -9.738554945e-05
251.421549 -2.460661244e-05 23.21591461
1054.622608 20.62507339 -9.738554945e-05
112.850439 18.79010439 -9.738554945e-05
-898.396076 -2.460661244e-05 218.8140206
-1066.046023 222.3269365 91.99990261
570.160031 -2.460661244e-05 178.2673826
529.356187 -2.460661244e-05 103.7391986
-830.337627 -2.460661244e-05 227.0813446
-862.493751 -2.460661244e-05 136.5142166
-165.833388 -2.460661244e-05 158.5223136
-815.683302 47.19763939 -9.738554945e-05
1094.500215 73.73495739 91.97137761
75.71009 -2.460661244e-05 106.3903726
962.640173 -2.460661244e-05 18.76196961
-1028.943326 249.7370174 247.9999026
-580.683577 -2.460661244e-05 250.0567226
-503.66322 -2.460661244e-05 229.2450176
149.63054 -2.460661244e-05 91.35929761
648.149292 -2.460661244e-05 191.8022886
202.62392 -2.460661244e-05 213.1739736
720.033206 -2.460661244e-05 233.3083256
64.784474 -1.374007607 -9.738554945e-05
-886.783547 -2.460661244e-05 97.25206861
-652.710636 -2.460661244e-05 60.99308061
91.028397 -2.460661244e-05 250.7000886
-742.221786 -2.460661244e-05 157.0257976
783.349293 75.50649439 -9.738554945e-05
-1065.050138 143.5363684 247.9999026
-649.830933 20.77147839 -9.738554945e-05
-1067.443508 14.43378739 87.99990261
863.334194 -2.460661244e-05 69.67560561
1094.500215 251.9688711 239.4682936
-376.439937 -2.460661244e-05 224.8425206
-1036.473218 190.4477134 243.9999026
-1012.682906 118.4456094 247.9999026
-902.177166 -2.460661244e-05 153.2493626
431.54219 -2.460661244e-05 62.34402361
1094.500215 202.4982114 212.9764646
680.390343 22.88663139 -9.738554945e-05
-398.914121 -2.460661244e-05 15.29930561
934.609396 23.40412839 -9.738554945e-05
646.85642 -2.460661244e-05 234.0720216
819.519066 -2.460661244e-05 9.633980614
-659.953805 -2.460661244e-05 86.81054161
-607.432511 -2.460661244e-05 119.8972686
221.227655 46.57693639 -9.738554945e-05
-1043.751184 -2.460661244e-05 55.26452461
-168.45774 -2.460661244e-05 102.7812606
-1086.500273 50.14031139 226.8772096
752.902719 -2.460661244e-05 206.0778186
-852.649228 -2.460661244e-05 98.25725361
322.805993 14.76484239 -9.738554945e-05
913.238542 -2.460661244e-05 179.9359156
-180.119487 50.48980139 -9.738554945e-05
-687.398363 -2.460661244e-05 13.62362961
1115.091575 -2.460661244e-05 133.1616516
-551.900959 -2.460661244e-05 60.30203261
605.084616 -2.460661244e-05 8.157178614
124.128571 -2.460661244e-05 113.0513646
-717.913278 -2.460661244e-05 176.9884976
1093.542746 128.7568904 220.4835706
-560.053756 2.221983393 -9.738554945e-05
750.470953 -2.460661244e-05 75.16320261
-1086.500273 141.4367084 195.4112806
-1109.180738 67.99997539 -0.9391013855
-82.377483 -2.460661244e-05 219.0187806
694.264739 60.27647739 -9.738554945e-05
311.770424 -2.460661244e-05 64.44307461
-1072.741351 173.9682704 243.9999026
-1064.867278 -2.460661244e-05 146.2279636
-960.502797 -2.460661244e-05 173.9339016
-732.806981 -2.460661244e-05 20.07870961
-1030.507684 18.76343939 -9.738554945e-05
-329.141711 -2.460661244e-05 138.0295066
-1043.874279 -2.460661244e-05 116.0584646
-35.050328 42.24085139 -9.738554945e-05
-1067.006091 -2.460661244e-05 192.5304526
646.70766 57.21930839 -9.738554945e-05
-109.110408 43.27559139 -9.738554945e-05
-1090.500273 46.25738539 161.2796566
224.952115 -2.460661244e-05 97.02126261
-699.628315 -2.460661244e-05 147.7959696
1.303503 -2.460661244e-05 129.5280936
-27.745585 -0.1072646066 -9.738554945e-05
-307.410848 -2.460661244e-05 152.4245946
-602.777185 -2.460661244e-05 217.8080166
110.405396 -2.460661244e-05 14.95999161
1112.581036 72.25312939 247.9999026
-1086.500273 186.3036934 133.8742256
478.1846 -0.5066436066 -9.738554945e-05
290.344083 67.99997539 -2.362345386
935.160942 44.22589539 -9.738554945e-05
141.410916 -2.460661244e-05 252.3141256
1014.261229 -2.460661244e-05 144.2755836
-560.045915 -2.460661244e-05 197.2418006
1095.596777 109.8799804 243.9766696
66.907424 -2.460661244e-05 252.2694546
-98.912821 -2.460661244e-05 54.25493461
-525.529116 -2.460661244e-05 15.56901861
282.993839 -2.124123607 -9.738554945e-05
-293.890012 -2.460661244e-05 22.29732861
-527.855309 44.57869739 -9.738554945e-05
176.062213 46.32613139 -9.738554945e-05
147.915482 44.26344739 -9.738554945e-05
-1091.000273 -2.252197607 209.0169486
611.316597 85.11280739 -9.738554945e-05
1114.855296 21.91306339 247.9999026
459.633757 -2.460661244e-05 38.93187061
1098.500215 13.18414439 231.8688396
838.833439 -2.460661244e-05 166.5183436
-469.227623 -2.460661244e-05 15.93131961
577.554109 -2.460661244e-05 29.99350161
1090.500215 71.08727939 154.7158246
-115.932677 -2.460661244e-05 251.8478706
1094.500215 77.85668639 50.00548861
26.032965 -2.460661244e-05 83.69203461
-149.898344 67.99997539 -1.442708386
1090.500215 95.96560139 159.8890736
788.272451 -2.460661244e-05 236.1606736
442.923368 -2.460661244e-05 134.3599956
248.17233 -2.460661244e-05 170.5207036
404.208891 -2.460661244e-05 223.4819236
52.891918 -2.460661244e-05 44.60961161
489.786701 -2.460661244e-05 68.30623761
1057.740398 67.99997539 -0.5545963855
-808.472528 -2.460661244e-05 95.38537561
-1013.902929 -2.460661244e-05 241.3419976
-123.840186 -2.460661244e-05 99.43762261
52.986388 -2.460661244e-05 197.4746086
165.820659 -2.460661244e-05 119.8518826
846.794278 -2.460661244e-05 23.62606461
-1068.411224 39.86765339 243.9999026
1093.963554 181.7810604 178.8459336
974.639123 -2.460661244e-05 224.4027806
-543.656626 -2.460661244e-05 119.7821616
-1090.500273 82.20876139 56.82332661
-336.517124 -2.460661244e-05 248.1315446
899.498826 -2.460661244e-05 48.95413161
12.101952 52.70185739 -9.738554945e-05
1090.500215 47.35861939 119.6763996
-802.890918 -2.460661244e-05 225.7012416
563.123152 31.90263739 -9.738554945e-05
-167.368956 -2.460661244e-05 185.1531276
615.461015 -2.460661244e-05 161.8214716
-1086.956364 -0.2851236066 -9.738554945e-05
-1030.454393 70.09060939 91.99990261
-703.80053 -2.460661244e-05 210.1044926
-446.911394 -2.460661244e-05 152.6561396
430.061529 17.28127839 -9.738554945e-05
91.356018 -2.460661244e-05 59.24411561
283.637478 38.11761439 -9.738554945e-05
833.163092 -2.460661244e-05 131.8778026
-1094.500273 177.2403734 188.5399756
675.33826 -2.460661244e-05 15.41107561
21.309657 -2.460661244e-05 136.5027196
189.828314 -2.460661244e-05 151.9173706
64.89298 -1.592192607 72.10743361
-674.294592 -2.460661244e-05 122.9101196
139.382188 -2.460661244e-05 184.1800226
797.612928 -2.460661244e-05 109.6020386
-347.045125 -2.460661244e-05 162.4519986
-1019.046643 -2.460661244e-05 18.39850361
-86.923065 -2.460661244e-05 171.7998736
-616.37064 -2.460661244e-05 72.94902461
-1109.561354 -2.460661244e-05 227.1504416
-990.318137 -2.460661244e-05 166.5908366
145.184358 -2.460661244e-05 14.58120561
909.961761 -2.460661244e-05 252.1114576
1001.463319 50.19398939 -9.738554945e-05
507.271528 -2.460661244e-05 209.2621526
-134.462263 -2.460661244e-05 210.1680676
-257.243931 -2.460661244e-05 225.8622126
837.176186 21.59574639 -9.738554945e-05
816.14978 -2.460661244e-05 78.94865161
-1016.272866 48.10842439 -9.738554945e-05
-1019.545569 250.671648 87.99990261
350.214983 -2.460661244e-05 91.13437061
-22.177267 -2.460661244e-05 198.2375056
522.554986 -2.460661244e-05 176.5159276
1096.736902 -2.460661244e-05 38.62378061
-632.309216 -2.460661244e-05 225.6256826
-293.335567 40.02982039 -9.738554945e-05
-80.792152 -2.460661244e-05 106.1499616
1094.000215 -0.4118636066 126.6841556
1096.558884 0.4999753934 200.1086686
1072.636528 -2.460661244e-05 182.0602006
-1086.500273 111.9414894 213.9692926
1098.500215 231.8264856 211.4635936
419.345483 -2.460661244e-05 40.76955561
-846.438962 -2.460661244e-05 79.00317361
109.097897 -2.460661244e-05 83.26036261
389.680519 17.67312539 -9.738554945e-05
212.86274 -2.460661244e-05 230.2699556
-599.323719 -2.460661244e-05 95.29270061
-578.75895 -2.460661244e-05 146.7675286
-445.78804 -2.460661244e-05 187.4292666
-1094.500273 20.50906739 87.34087861
639.958137 13.40432539 -9.738554945e-05
-596.998605 -2.460661244e-05 19.16941261
-150.305939 -2.460661244e-05 62.48780561
-1091.429606 -2.460661244e-05 150.0714226
-808.375368 -2.460661244e-05 186.7265996
1094.500215 57.77978239 11.41657161
-241.527316 -2.460661244e-05 130.5341066
-460.403437 -2.460661244e-05 68.82366161
399.739324 -2.460661244e-05 82.73442861
-956.515525 -2.460661244e-05 108.0602096
405.172916 -2.460661244e-05 144.3765686
-252.042048 -2.460661244e-05 34.59728061
-1067.870068 60.75521239 -9.738554945e-05
-1090.500273 19.39245139 233.0544866
-763.444879 -2.460661244e-05 6.796668614
480.375721 -2.460661244e-05 40.49927761
-163.501172 -2.460661244e-05 136.3514286
606.28241 -2.460661244e-05 189.9555766
108.310833 48.58911039 -9.738554945e-05
-640.84231 -2.460661244e-05 97.36424861
727.400642 -2.460661244e-05 64.42823361
-736.097587 -1.943166607 -9.738554945e-05
-110.878708 -2.460661244e-05 19.32843361
1098.500215 139.7619414 128.4801246
-868.686617 47.94498939 -9.738554945e-05
-135.851705 -2.460661244e-05 187.5236286
-827.727916 -2.460661244e-05 20.11363261
-326.156159 -2.460661244e-05 209.0029556
1094.500215 19.67654739 62.80903761
1094.699192 -2.460661244e-05 251.0983376
-547.027569 -2.460661244e-05 23.92366961
-1036.577057 -2.460661244e-05 97.58613961
-979.566181 -2.460661244e-05 41.97478561
789.878068 -2.460661244e-05 53.43733461
-513.447406 -2.460661244e-05 142.3546446
-480.867974 -2.460661244e-05 250.9985586
1112.6383 66.41253339 91.99990261
-1075.427402 -2.460661244e-05 245.8089096
357.259601 -2.460661244e-05 6.544020614
1099.41867 39.45321139 242.4485876
-949.819608 -2.460661244e-05 19.33646661
758.909439 -2.460661244e-05 226.2788646
-1090.500273 143.9701244 105.0137176
-1057.900887 64.49331839 247.9999026
-815.679248 -2.460661244e-05 156.6970056
948.212396 -2.460661244e-05 193.4391556
-368.316877 -2.460661244e-05 125.6548996
-20.057338 58.61254539 -9.738554945e-05
-614.167383 -2.460661244e-05 250.5599576
935.97085 -2.460661244e-05 51.18128461
293.580346 -2.460661244e-05 167.6833636
-1086.500273 192.6885524 221.7628316
-127.362052 -2.460661244e-05 118.8466076
-1094.500273 132.4228304 139.7765526
-667.537079 -2.460661244e-05 48.23310461
-1086.790975 45.81248539 -9.738554945e-05
424.796521 -2.460661244e-05 9.434829614
1018.715925 15.41558439 -9.738554945e-05
-212.440849 22.23094239 -9.738554945e-05
-1012.500273 73.99691539 244.4908406
702.094232 -2.460661244e-05 190.2447156
-379.588846 -2.460661244e-05 16.32071361
-791.084572 15.77138939 -9.738554945e-05
19.54673 -2.460661244e-05 176.4788176
257.217482 40.29575639 -9.738554945e-05
777.902944 -2.460661244e-05 104.7844536
334.849633 -2.460661244e-05 226.4590866
-363.546112 9.381003393 -9.738554945e-05
9.281729 -2.460661244e-05 25.19653261
-107.446414 -2.460661244e-05 72.55153961
179.779771 -2.050643607 -9.738554945e-05
632.536467 -2.460661244e-05 127.0239806
-435.304015 -2.460661244e-05 27.41321761
-889.423341 -2.460661244e-05 11.69865461
-1090.500273 251.2519681 142.2575096
671.437154 -2.460661244e-05 52.21435561
1094.500215 35.76093039 95.68593861
80.03094 13.57684739 -9.738554945e-05
580.926257 -2.460661244e-05 62.63500761
498.57575 -2.460661244e-05 136.1356616
978.370473 -2.460661244e-05 128.6997916
387.46365 46.58877239 -9.738554945e-05
-1088.318449 178.2888874 90.52594861
565.02374 -2.460661244e-05 218.8855336
-864.603135 -2.460661244e-05 202.8537196
-2.847016 24.10674639 -9.738554945e-05
994.111377 -2.460661244e-05 17.22270961
786.299318 -2.460661244e-05 167.1969536
406.465796 -2.460661244e-05 204.2530116
1094.825353 232.3457705 242.1390876
-1090.500273 17.16355739 140.9270266
-905.842009 -2.460661244e-05 98.27466461
-282.69136 -2.460661244e-05 116.3264916
-280.600693 12.27683539 -9.738554945e-05
271.099873 -2.460661244e-05 216.6149956
614.179162 44.12322439 -9.738554945e-05
-696.886833 -2.460661244e-05 252.2411226
-583.373871 8.624234393 -9.738554945e-05
1007.733168 -2.460661244e-05 230.9789146
-1094.500273 118.6117784 117.3526656
-785.851199 -2.460661244e-05 21.54489361
-1023.634873 215.2317182 87.99990261
895.405402 -2.460661244e-05 168.9899366
643.499095 -2.460661244e-05 14.11726061
-314.197374 -2.460661244e-05 241.6934976
-771.838252 -2.460661244e-05 250.8177386
-1055.026777 -2.460661244e-05 80.12720261
37.545615 -2.460661244e-05 121.3034166
-199.908167 -2.460661244e-05 231.7392536
678.429338 -2.460661244e-05 71.91569361
-564.752521 67.74864539 -9.738554945e-05
611.251339 -2.460661244e-05 47.56711461
671.835241 87.99997539 -1.435241386
73.452877 -2.460661244e-05 211.1830146
-837.412506 17.19030439 -9.738554945e-05
123.156646 -2.460661244e-05 45.15075861
-442.657739 50.54073239 -9.738554945e-05
463.919878 -2.460661244e-05 195.1495686
336.322584 -2.460661244e-05 107.1804216
1047.207157 -2.460661244e-05 63.52185261
-1020.930972 16.17126239 247.9999026
-881.476524 -2.460661244e-05 183.8807186
-642.244449 -2.460661244e-05 174.6289166
-271.861715 52.42639739 -9.738554945e-05
-381.722144 18.28331539 -9.738554945e-05
-403.501555 -2.460661244e-05 182.2127316
-1084.964096 211.2252594 247.5726396
-1086.500273 251.9169014 100.4815726
899.167334 20.10090039 -9.738554945e-05
919.647338 -2.460661244e-05 40.45541961
-931.746997 50.48904739 -9.738554945e-05
-73.613562 -2.460661244e-05 83.85007961
-583.903213 41.45272539 -9.738554945e-05
-950.741274 49.75864939 -9.738554945e-05
-413.191201 -2.460661244e-05 123.2160066
417.922328 48.31595639 -9.738554945e-05
-1094.500273 56.34046139 179.8103636
1090.500215 53.84626339 231.9370826
-314.495187 -2.460661244e-05 51.41842261
985.727967 -2.460661244e-05 62.67410661
590.966758 -2.460661244e-05 150.6049596
965.983754 42.96511639 -9.738554945e-05
-633.917606 -2.460661244e-05 191.3391676
-256.537114 -2.460661244e-05 200.1578366
94.381467 -2.460661244e-05 134.9951156
-861.392635 -2.460661244e-05 238.2323416
-1094.500273 62.35712339 17.54279361
-42.321744 -2.460661244e-05 184.1099796
525.288334 -2.460661244e-05 215.1268186
841.389946 -2.460661244e-05 197.8011256
817.588676 51.64206039 -9.738554945e-05
-494.706806 -2.460661244e-05 153.4559526
881.445398 -2.460661244e-05 44.55103661
-893.71957 -2.460661244e-05 136.7169086
-701.861132 -2.460661244e-05 188.7165016
1094.500215 24.41383739 5.369139614
-1025.185651 -2.460661244e-05 148.9162086
262.860254 -2.460661244e-05 184.1381556
157.58394 -2.460661244e-05 35.22494961
522.504412 -2.460661244e-05 129.6484916
-198.805051 -2.460661244e-05 196.1204646
-860.320032 -2.460661244e-05 158.5739166
-1053.023162 -2.460661244e-05 10.48847061
908.323809 -2.460661244e-05 202.2169026
-1075.317651 -2.460661244e-05 110.0126656
-730.900083 -2.460661244e-05 239.8750676
-134.559577 -2.460661244e-05 162.7884816
-1059.056772 239.1202778 87.99990261
1111.81187 -2.460661244e-05 176.7177006
-1090.500273 227.4536352 239.7781536
284.846269 16.27297239 -9.738554945e-05
-757.948453 -2.460661244e-05 229.6124156
-88.977479 0.8797213934 -9.738554945e-05
-238.942243 49.66093939 -9.738554945e-05
1094.500215 225.8267397 170.1689556
-78.536267 -2.460661244e-05 250.9660426
1038.122123 -2.460661244e-05 119.3571516
-1017.585484 -2.460661244e-05 87.95508461
555.739365 59.67473939 -9.738554945e-05
-732.464583 -2.460661244e-05 61.74315161
-381.970814 51.41532439 -9.738554945e-05
156.650011 -2.460661244e-05 160.6213716
321.094948 -2.460661244e-05 170.0072286
1109.609203 183.0172704 247.9999026
-937.696083 -2.460661244e-05 133.8529296
898.398099 43.14126839 -9.738554945e-05
185.136053 -2.460661244e-05 75.08887561
895.71229 -2.460661244e-05 147.1573356
686.14372 -2.460661244e-05 209.0541956
869.577072 51.64043639 -9.738554945e-05
-985.000273 -0.6582476066 203.3557136
588.966254 -2.460661244e-05 219.5426836
1114.284552 -2.460661244e-05 195.3308746
-1090.500273 199.1445614 186.7900896
1095.008322 205.1573294 242.7410406
-1059.142898 38.26006539 87.99990261
375.905162 -2.460661244e-05 211.2371076
490.233188 -2.460661244e-05 14.68157161
986.63318 10.17527639 -9.738554945e-05
1016.827154 -2.460661244e-05 93.28901061
802.686303 -2.460661244e-05 38.33212161
663.009094 -2.460661244e-05 225.4433406
-1094.500273 47.97744039 96.47219761
-1094.500273 28.21310639 103.9444746
-652.893443 -2.460661244e-05 249.7023636
1040.051741 -2.460661244e-05 96.61054661
-1111.560301 19.37610139 -9.738554945e-05
-167.807389 -2.460661244e-05 226.9732516
442.629541 -2.460661244e-05 100.4615056
-1056.634072 200.8642674 87.99990261
-1090.500273 164.3328644 109.4344626
298.394354 -2.460661244e-05 200.9073966
-1090.500273 230.141444 159.9407846
1094.500215 106.6412144 203.2028826
-536.570933 -2.460661244e-05 228.2430416
293.959902 -2.460661244e-05 249.3265756
-353.925656 -2.460661244e-05 33.79202261
-1033.109255 83.55770139 247.9999026
1094.500215 242.2677694 140.5905626
-468.432306 -2.460661244e-05 156.8117026
-601.712765 45.22060839 -9.738554945e-05
264.009051 -2.460661244e-05 0.09210661445
-1089.372508 104.3009094 244.0332086
1095.174202 16.38953539 99.30059361
-1086.500273 151.3208594 231.2618016
-956.681841 20.07760339 -9.738554945e-05
-1015.710302 -2.460661244e-05 201.2797076
-1073.652482 12.29389639 -9.738554945e-05
1090.500215 103.1997114 138.4737476
1090.500215 140.5640204 206.4136576
101.381061 -2.460661244e-05 234.6817606
-989.796724 31.57812039 -9.738554945e-05
-389.444064 -2.460661244e-05 146.4006646
-789.672078 -2.460661244e-05 213.3285546
571.682525 -2.460661244e-05 101.9104466
-494.551985 47.06015439 -9.738554945e-05
1082.619951 -2.460661244e-05 215.0505436
-976.10729 -2.460661244e-05 250.0206696
-287.26979 -2.460661244e-05 236.6469906
232.551451 -2.460661244e-05 136.7378536
785.74212 57.25515039 -9.738554945e-05
-451.32423 17.33446839 -9.738554945e-05
745.583676 -2.460661244e-05 238.3824916
-941.784487 -2.460661244e-05 50.76463761
1094.500215 171.4354614 124.4195566
-1111.361726 -2.460661244e-05 21.16765161
112.961199 65.94553139 -9.738554945e-05
1040.965283 -2.460661244e-05 164.7679496
1041.683597 33.07623139 -9.738554945e-05
-1086.500273 110.9037264 177.2028856
-1106.64632 -2.460661244e-05 137.7043756
206.502179 -2.460661244e-05 168.1148146
-739.593154 36.65580039 -9.738554945e-05
-443.395634 -2.460661244e-05 250.9576126
-351.306354 53.35842439 -9.738554945e-05
-919.72582 -2.460661244e-05 72.17148061
-927.618172 -1.042730607 -9.738554945e-05
-215.398106 -2.460661244e-05 140.6205646
-830.172125 36.68991339 -9.738554945e-05
-1069.08593 245.2201732 243.9999026
691.082941 -2.460661244e-05 100.8672066
-757.581606 -2.460661244e-05 196.6582436
463.45803 -2.460661244e-05 135.1819656
417.529414 -2.460661244e-05 79.34136661
-1086.500273 175.6090654 213.8075636
-1051.557641 180.9041054 243.9999026
1007.487221 -2.460661244e-05 127.7628816
972.838841 -2.460661244e-05 109.5565426
803.152159 -2.460661244e-05 1.868030614
76.27611 -2.460661244e-05 24.29101761
758.572917 -2.460661244e-05 54.55186761
-939.036662 -2.460661244e-05 213.1740376
-918.81353 -2.460661244e-05 213.3215446
-1090.500273 25.17522739 18.86102661
714.671321 83.71314839 -9.738554945e-05
-11.074259 -2.460661244e-05 74.34991461
832.269223 -2.460661244e-05 220.4763516
633.268464 -2.460661244e-05 109.2566836
215.441606 -2.460661244e-05 69.64333561
-45.830836 -2.460661244e-05 236.7058546
-9.052703 -2.460661244e-05 18.19996661
-489.681049 -2.460661244e-05 207.4884276
-1097.001857 -2.460661244e-05 37.14637661
-522.663319 -2.460661244e-05 55.78199661
501.47455 28.68706239 -9.738554945e-05
-24.240288 -2.460661244e-05 39.73862161
175.487533 -2.460661244e-05 44.98749161
450.099962 -2.460661244e-05 72.34642861
-1069.079078 151.7710384 91.99990261
-824.903875 -2.460661244e-05 197.1163516
72.678926 -2.460661244e-05 193.4932496
-574.42378 -2.460661244e-05 60.08807361
-1090.500273 234.5769762 99.98873961
-974.505817 -2.460661244e-05 14.80837261
594.9823 -2.460661244e-05 250.6664246
983.834596 -2.460661244e-05 203.0718926
534.240074 -2.460661244e-05 85.93216961
242.216413 -2.460661244e-05 213.2610886
875.105081 11.27344239 -9.738554945e-05
-208.994284 -2.460661244e-05 16.12047661
-822.975236 -2.460661244e-05 70.78355961
249.833942 -2.460661244e-05 80.28830361
721.952465 -2.460661244e-05 154.7409936
-1031.822029 153.7787044 87.99990261
705.269823 14.29034039 -9.738554945e-05
-539.748016 -2.460661244e-05 203.0674616
-953.681391 -2.460661244e-05 193.3300156
1091.828686 74.36609139 246.4806656
542.739035 -2.460661244e-05 2.582883614
1090.500215 106.4936664 103.2344406
588.690393 -2.460661244e-05 191.0773956
-21.92352 -2.460661244e-05 99.93660761
343.768573 -2.460661244e-05 44.30095961
244.323669 -2.460661244e-05 42.72283161
-383.262956 -2.460661244e-05 206.2533856
-885.75626 -2.460661244e-05 68.63934361
386.918977 -2.460661244e-05 109.7871156
663.195152 19.13485639 -9.738554945e-05
362.060794 -2.460661244e-05 78.12598961
-346.233094 -2.460661244e-05 205.5785836
-119.320949 13.90722139 -9.738554945e-05
1098.500215 19.60030139 197.3387826
-1012.500273 215.3040866 247.6600876
1094.500215 10.05938439 156.6479796
-2.279148 -2.460661244e-05 214.9369386
979.605844 -2.460661244e-05 241.9503576
42.214797 -2.460661244e-05 234.4437786
-1035.72436 200.7109884 91.99990261
452.442697 -2.460661244e-05 54.94557461
-791.890765 -2.460661244e-05 194.2845956
860.220395 -2.460661244e-05 201.7524296
-180.097577 14.70812539 -9.738554945e-05
506.074884 -1.520608607 244.2054676
999.118836 -2.460661244e-05 95.51863261
-575.759908 -2.460661244e-05 189.5026106
-1086.500273 143.9834134 166.8415596
826.980013 -2.460661244e-05 63.11196661
-487.223599 -2.443597607 -9.738554945e-05
-422.988918 -2.460661244e-05 40.22465061
-971.39328 -2.460661244e-05 134.1293766
-900.224634 27.46464739 -9.738554945e-05
230.3056 -0.09729960661 231.5510466
-85.04961 -2.460661244e-05 141.6100376
-235.789211 -2.460661244e-05 63.75909061
-1090.500273 123.6217674 156.6876166
-537.857181 -2.460661244e-05 46.68383961
865.677764 -2.460661244e-05 233.6747336
-1023.350768 -2.460661244e-05 170.0881086
-1049.020076 136.6676124 247.9999026
-259.029089 14.16496139 -9.738554945e-05
782.237873 -2.460661244e-05 198.7969796
-1027.431355 91.78498039 87.99990261
-306.90469 67.99997539 -0.2954083855
-813.577871 6.608531393 -9.738554945e-05
-686.889621 -2.460661244e-05 57.43308861
900.11415 -2.460661244e-05 75.07196061
-791.376312 57.44219739 -9.738554945e-05
-86.878743 -2.460661244e-05 40.01921061
177.774364 -2.460661244e-05 190.9282696
859.165266 -2.460661244e-05 167.2293006
-201.749932 -2.460661244e-05 112.7432926
-836.799969 -2.460661244e-05 44.78145761
-1031.976395 232.6478146 243.9999026
-626.629977 -2.460661244e-05 141.5097166
-842.942565 -2.460661244e-05 167.7644586
-157.500295 -2.460661244e-05 118.6206346
1005.781235 -2.460661244e-05 167.7052666
-219.346249 -2.460661244e-05 105.7275126
1060.328977 -2.460661244e-05 235.1005306
-864.787923 21.58696339 -9.738554945e-05
-549.445717 -2.460661244e-05 79.62645261
-499.84778 13.70297039 -9.738554945e-05
1090.500215 170.1961864 191.2629826
366.889483 46.52420539 -9.738554945e-05
1031.42637 -2.460661244e-05 183.6610366
-1086.500273 52.81754539 127.1472956
-601.567359 -2.460661244e-05 54.04554761
1088.290315 -2.460661244e-05 21.73775661
-905.138314 51.72487039 -9.738554945e-05
-1094.500273 56.27877739 246.1900246
67.444885 -2.460661244e-05 89.10622261
303.995464 -2.460661244e-05 106.9572326
262.426197 -2.460661244e-05 149.0890566
1077.162993 -2.460661244e-05 119.6683586
-205.376913 -2.460661244e-05 173.3485126
508.564184 -2.460661244e-05 4.290805614
1094.500215 131.1950544 160.4683986
963.664125 -2.460661244e-05 43.72648261
718.369967 -2.460661244e-05 99.52289061
-1053.600518 99.99065139 91.99990261
1098.500215 91.18275639 233.3732466
-1051.992056 32.63201839 -9.738554945e-05
201.287845 -2.460661244e-05 129.7829896
-1087.40647 -2.460661244e-05 177.4325306
144.224506 -2.460661244e-05 50.76413761
721.582265 -2.460661244e-05 214.9466786
385.320841 -2.460661244e-05 18.66536861
892.997943 -2.460661244e-05 212.7498036
60.245228 -2.460661244e-05 236.4540446
1094.500215 36.25384239 205.5221006
623.202525 -2.460661244e-05 22.28558461
-1014.807526 63.09581839 91.99990261
360.415277 18.00194439 -9.738554945e-05
-101.319589 -2.460661244e-05 193.4699766
683.330767 73.46407839 -9.738554945e-05
90.009347 49.89705539 -9.738554945e-05
-339.751031 -2.460661244e-05 63.62835261
131.955465 -2.460661244e-05 211.0113276
-560.701921 -2.460661244e-05 164.4776506
-217.063517 -2.460661244e-05 226.7530426
-1012.500273 172.7587864 245.4711996
-791.453687 -2.460661244e-05 56.88051361
1098.500215 159.9038244 154.9199886
649.458282 -2.460661244e-05 167.1366576
815.187294 16.64010039 -9.738554945e-05
719.514356 -2.460661244e-05 129.0702536
165.263803 -2.460661244e-05 202.5557796
-1038.503276 231.7806478 87.99990261
746.02163 -2.460661244e-05 97.10593561
468.545672 -2.460661244e-05 232.1377626
286.770615 -2.460661244e-05 152.0469136
-1094.500273 78.29392739 85.39082461
634.771371 45.06214139 -0.4654243855
431.644045 -2.460661244e-05 25.91036261
-450.737996 -2.460661244e-05 130.2256146
536.631412 -2.460661244e-05 152.3656156
1094.500215 213.2585288 120.9010996
373.999074 -2.460661244e-05 149.0174786
39.515549 16.40304339 -9.738554945e-05
-1105.988657 -2.460661244e-05 103.9901906
-610.961696 13.03359639 -9.738554945e-05
-629.417704 -2.460661244e-05 31.95649661
184.531399 25.13397539 -9.738554945e-05
-800.795058 -2.460661244e-05 31.86336761
-1072.578925 -2.460661244e-05 228.3356266
32.779093 -2.460661244e-05 101.4776526
1018.309287 52.07079139 -9.738554945e-05
-668.911653 25.54033639 -9.738554945e-05
-45.652592 23.87699839 -9.738554945e-05
319.98644 -2.460661244e-05 12.69662261
-154.756702 -2.460661244e-05 11.50456761
-1094.500273 166.9097194 167.8028276
659.287411 -2.460661244e-05 102.2770736
-1039.325775 41.71644139 91.99990261
-506.81896 -2.460661244e-05 43.85593961
222.163362 -2.460661244e-05 194.2552686
1040.37058 -2.460661244e-05 237.5714406
-1032.397213 46.98064139 247.9999026
806.259387 -2.460661244e-05 156.2560876
-1090.500273 192.3505864 149.1223146
109.416933 -2.460661244e-05 201.6299246
-940.138999 -2.460661244e-05 99.30873261
536.212192 -2.460661244e-05 236.7616466
-1057.458677 14.50062739 247.9999026
668.513351 -2.460661244e-05 145.9126516
477.234081 16.38265439 -9.738554945e-05
799.35444 -2.460661244e-05 200.7687446
1090.500215 65.88777639 61.46361461
289.528311 -2.460661244e-05 186.2458126
843.885068 -2.460661244e-05 232.6588986
306.871054 7.496607393 -9.738554945e-05
-1094.500273 28.81413239 194.4503036
740.683388 15.99537539 -9.738554945e-05
-1114.961125 -2.460661244e-05 64.80466461
-405.546822 -2.460661244e-05 65.47763661
-148.478777 -2.460661244e-05 91.96790961
526.949426 -2.460661244e-05 30.34029661
1094.976705 168.6432074 242.6343506
865.98941 -2.460661244e-05 111.0157676
532.772669 60.04359339 -9.738554945e-05
-181.032237 -2.460661244e-05 195.1742836
-410.256002 -2.460661244e-05 228.3485086
854.599393 4.734539393 -9.738554945e-05
633.947925 -2.460661244e-05 75.53793861
-1033.711387 58.02730539 -9.738554945e-05
-129.090199 -1.719548607 -9.738554945e-05
320.436105 -2.460661244e-05 237.1213436
-757.196342 67.99997539 -2.250496386
598.666566 -2.460661244e-05 88.34913861
1020.434451 -2.460661244e-05 9.076280614
480.254773 -2.460661244e-05 186.4908076
-1094.500273 78.18871839 108.1533386
962.283688 -2.460661244e-05 77.48476161
54.279703 36.93421339 -9.738554945e-05
-1090.500273 205.6768664 118.7834056
1098.500215 130.2752494 236.4206376
-1079.632331 124.5790544 247.9999026
354.203911 -2.460661244e-05 158.5388596
341.1327 -2.460661244e-05 17.53170661
-800.418088 29.59222239 -9.738554945e-05
616.548955 13.59644839 -9.738554945e-05
529.291534 38.33391639 -9.738554945e-05
338.022207 -2.460661244e-05 202.3159946
-1090.500273 52.24279039 33.96570861
704.203698 -2.325650607 -9.738554945e-05
-597.48626 -2.460661244e-05 163.3742416
45.045218 57.10469639 -9.738554945e-05
-661.829932 -2.222920607 -9.738554945e-05
-528.256451 -2.460661244e-05 170.7363686
927.164908 -2.460661244e-05 93.91106661
-893.057882 -2.460661244e-05 234.7883376
774.476089 -2.460661244e-05 138.4795256
-1094.500273 61.57242839 54.16019261
-1067.037528 78.22508839 243.9999026
-1090.500273 86.16315239 178.1825396
-1012.964857 251.7853972 243.9999026
-726.804663 -2.460661244e-05 94.86301261
-1047.008407 -2.460661244e-05 194.1209846
-36.135384 -2.460661244e-05 68.82004261
1094.500215 36.39450139 65.72401161
1090.500215 15.92539039 44.41452461
935.958566 -2.460661244e-05 16.18007961
-924.99211 17.51771539 -9.738554945e-05
985.138671 -2.460661244e-05 82.46100161
-285.953433 -2.460661244e-05 93.17792561
833.758238 48.03419939 -9.738554945e-05
534.767433 20.50577239 -9.738554945e-05
611.452338 -2.460661244e-05 225.8691976
413.194073 10.89205439 -9.738554945e-05
-781.755574 -2.460661244e-05 87.85339861
-480.096765 -2.460661244e-05 94.62867561
724.493703 -2.460661244e-05 171.0899756
-298.207156 24.21920939 -9.738554945e-05
-706.755645 29.46786539 -9.738554945e-05
662.458483 -2.460661244e-05 178.7374476
-717.473687 14.27577639 -9.738554945e-05
1098.500215 240.4433983 176.9462406
-225.86317 -2.460661244e-05 212.7326386
250.42404 15.73119339 -9.738554945e-05
-1090.500273 16.17001439 176.8596406
-639.706055 -2.460661244e-05 18.91730961
-769.902918 38.44401339 -9.738554945e-05
-718.595938 -2.460661244e-05 30.59009361
179.994716 -2.460661244e-05 134.4498346
-1093.315595 -2.460661244e-05 115.2033526
-259.470055 -2.460661244e-05 87.79497761
-419.275751 -2.460661244e-05 211.3755656
459.048614 -2.460661244e-05 8.721441614
-995.845507 -1.632030607 228.8767256
-230.851397 -2.460661244e-05 163.7950246
108.966131 -2.460661244e-05 172.6227726
486.439855 -2.460661244e-05 165.1108036
-1049.241972 51.67244039 -9.738554945e-05
306.561029 67.75260939 -9.738554945e-05
157.599026 -2.460661244e-05 136.8595076
-374.890627 -2.460661244e-05 82.80984661
-581.937458 -2.460661244e-05 80.90745161
1098.500215 56.62492139 146.9958026
-252.179567 -2.460661244e-05 18.24531661
857.698525 -2.460661244e-05 133.7260936
343.358785 -2.460661244e-05 127.1624976
-259.969558 -2.460661244e-05 112.5734706
-43.235594 -2.460661244e-05 91.49997561
1090.500215 30.90295039 130.4787056
-380.904736 -2.460661244e-05 243.4916666
61.167774 -2.460661244e-05 131.5292296
-327.996101 -2.460661244e-05 112.1543556
-53.701106 -2.460661244e-05 39.46238561
497.349179 -2.460661244e-05 102.4442036
445.687117 51.01705939 -9.738554945e-05
1002.110163 15.28540339 -9.738554945e-05
-32.4154 -2.460661244e-05 137.9418226
241.617697 -2.460661244e-05 115.5235536
-414.820128 -1.419309607 -9.738554945e-05
-409.73719 45.83804539 -9.738554945e-05
253.550056 67.45206739 -9.738554945e-05
753.103519 38.85867939 -9.738554945e-05
368.00571 -2.460661244e-05 230.3106106
1113.157462 103.6932324 91.99990261
-765.542539 -2.460661244e-05 215.2608106
-343.280955 -2.460661244e-05 91.17494061
30.989271 -2.460661244e-05 212.0505056
-710.881607 -2.460661244e-05 87.53388361
417.168932 -2.460661244e-05 234.1641016
231.415532 -2.460661244e-05 159.2237406
699.791637 -2.460661244e-05 44.99547861
-65.423987 -2.460661244e-05 6.868196614
894.109545 -2.460661244e-05 246.8030036
724.005433 22.69781439 -9.738554945e-05
746.198217 77.94616839 -9.738554945e-05
1098.500215 207.4126654 137.9209256
-1105.843925 34.52016739 -9.738554945e-05
-310.94876 -2.460661244e-05 197.7839476
826.529521 -2.460661244e-05 117.1310946
1047.242852 -2.460661244e-05 80.53530261
1094.500215 88.31076439 127.8773516
-568.401074 -2.460661244e-05 211.0718386
-1086.500273 202.3503064 102.6774386
102.623228 3.365692393 -9.738554945e-05
-471.263475 -2.460661244e-05 33.38042561
884.970383 -2.460661244e-05 80.63362161
445.691649 -2.460661244e-05 211.2850656
1098.500215 87.03480839 102.5475726
-622.040303 -0.08950160661 -9.738554945e-05
1114.942962 -2.460661244e-05 99.74014761
-192.992112 -2.460661244e-05 216.9298056
-147.010397 38.65634939 -9.738554945e-05
647.870884 -2.460661244e-05 207.9070746
-1025.145224 108.2425494 247.9999026
-1073.537076 109.4996214 247.9999026
1097.767471 193.8702904 89.58104661
