# .PCD v0.7 - Point Cloud Data file format
VERSION 0.7
FIELDS x y z
SIZE 4 4 4
TYPE F F F
COUNT 1 1 1
WIDTH 1251
HEIGHT 1
VIEWPOINT 0 0 0 1 0 0 0
POINTS 1251
DATA ascii
-40.25064927 200.6325434 -96.04016439
17.16070973 18.2416324 -244.0000974
-3.454847272 63.5309514 -250.0000974
-18.89502327 139.3121284 -9.739276993e-05
-39.60891827 -2.040985602 -129.5000974
28.63464473 152.6772294 -9.739276993e-05
-36.25064927 5.538093398 -39.77641139
-6.967680272 144.6704684 -156.0000974
-29.23449627 -2.460202131e-05 -219.9433904
28.88152273 -2.460202131e-05 -48.25133339
-36.25064927 21.8024854 -53.14087239
37.58869673 -0.236286602 -244.0000974
-40.25064927 92.7194884 -131.8316674
-36.25064927 158.5680994 -115.5791744
-26.10481827 127.1776264 -156.0000974
15.98595873 40.6504214 -152.0000974
-36.25064927 167.4124544 -52.38758339
-40.25064927 100.4613544 -146.3366144
8.091866728 99.1019084 -156.0000974
-37.47851727 249.6816868 2.022069607
-42.38333427 25.4999754 -61.28618839
7.143248728 10.5206884 -250.0000974
-12.41422027 228.9128113 -9.739276993e-05
-36.25064927 71.9335714 -48.47131339
22.57794573 200.8782114 -156.0000974
-19.67213327 61.6290854 -250.0000974
29.72955873 166.2596854 -9.739276993e-05
-36.23174427 186.7333074 -148.1618234
3.062600728 216.5795162 -9.739276993e-05
-40.25064927 64.8600254 -156.1207584
-40.25064927 102.1758074 -57.36612239
-3.183960272 159.2275414 -156.0000974
-36.25064927 2.283244398 -85.52285739
-18.49817227 26.6653464 -250.0000974
10.03295073 26.1340724 -9.739276993e-05
15.38489873 50.0984654 -9.739276993e-05
-36.25064927 140.7944884 -111.1124434
-36.25064927 251.2300151 -139.2537044
15.03573173 224.213791 -153.4706814
-36.25064927 46.5148694 -135.6151344
-21.05409427 127.9220884 -9.739276993e-05
-22.02317827 41.5420534 -244.0000974
26.37291573 139.7849204 -156.0000974
-1.308017272 180.9041054 -9.739276993e-05
-40.25064927 168.4971774 -114.6282174
-40.25064927 208.5092624 -53.12359739
25.67232373 9.904128398 -250.0000974
-40.25064927 93.4858244 -164.7654704
14.63650373 -2.460202131e-05 -18.95976539
-0.8379172718 118.2149424 -9.739276993e-05
19.11171273 56.8740934 -156.0000974
-9.094661272 33.6403184 -244.0000974
-24.00088427 -2.460202131e-05 -134.2889584
-40.25064927 20.5325734 -176.6497534
-40.48834427 116.8955224 -22.68337939
32.20213073 -2.460202131e-05 -27.94203139
12.07440073 149.4059814 -156.0000974
38.80059073 59.9401404 -250.0000974
-36.25064927 240.6805074 -6.106667393
-4.644051272 128.5494714 -156.0000974
-40.25064927 43.1571234 -218.1083764
34.01937773 173.8424834 -152.0000974
-36.25064927 50.9687074 -114.6717754
31.10939473 122.7760604 -9.739276993e-05
20.53865273 -2.460202131e-05 -101.2842764
37.74935073 208.5795954 -153.9754774
34.91238273 -2.460202131e-05 -222.5832104
16.01071373 87.8343134 -9.739276993e-05
-14.03314327 -2.460202131e-05 -223.4935934
27.31754873 -2.460202131e-05 -169.0094234
-36.25064927 81.6990794 -65.17629439
-36.25064927 233.0936428 -69.70473239
-19.63520527 180.7397074 -156.0000974
-14.01503627 -0.337627602 -244.0000974
4.714861728 215.268163 -152.0000974
-26.76187227 199.4946504 -156.0000974
-36.25064927 64.8668024 -6.207378393
36.61089573 87.1095614 -152.0000974
-18.13415427 36.9145594 -156.0000974
-36.25064927 55.3683034 -126.8830074
-30.19367927 -2.460202131e-05 -148.4043484
-36.25064927 246.8880693 -65.84619039
-40.25064927 120.8575404 -56.16577739
-40.25064927 34.0825674 -187.2834604
-23.35930727 156.8557864 -152.0000974
-40.25064927 195.7595264 -64.23242539
-37.54505427 46.1152214 1.967318607
-20.39597427 -2.460202131e-05 -99.86717939
35.00662773 103.9457044 -152.0000974
-40.25064927 38.7902434 -52.50354939
-40.25064927 184.6942344 -76.82613139
-40.25064927 69.6103384 -95.43261039
-40.25064927 177.9965524 -29.42829139
-40.25064927 66.4961574 -38.42740039
1.350509728 -2.460202131e-05 -190.4254764
-36.25064927 38.8881344 -129.1469274
-40.25064927 204.4701444 -109.0107404
-14.17846927 69.8351204 -152.0000974
-36.25064927 88.4996974 -100.2254144
-40.25064927 10.9810814 -215.1435164
26.59686073 -2.460202131e-05 -238.4363714
-40.25064927 157.7324194 -67.90215439
-12.88083727 251.815999 -156.0000974
-40.25064927 23.8540244 -195.9027864
-40.25064927 78.0819934 -188.8862984
19.25446873 111.0510464 -9.739276993e-05
-40.25064927 242.4427873 -88.95356039
-40.25064927 173.6892784 -104.0155334
-36.25064927 166.6080484 -132.0262164
22.23030473 125.3623954 -152.0000974
-40.25064927 231.3857381 -32.95114139
-36.25064927 54.7770914 -56.75057039
-37.59430327 134.5084284 1.925334607
-36.25064927 54.9786884 -26.88744439
-36.25064927 217.026994 -124.6073764
-43.20839927 0.499975398 -233.8461904
-15.73799027 157.3563074 -9.739276993e-05
-38.48576027 238.1728013 -152.9739854
-39.72393527 241.1521619 -116.5093194
-40.25064927 142.4533114 -124.5536674
-36.25064927 138.0605064 -73.77358039
-36.25064927 122.2754034 -7.864934393
-40.25064927 250.8934838 -123.7609774
-40.25064927 38.3887754 -24.17358139
8.083673728 5.361283398 -156.0000974
16.83932773 -2.460202131e-05 -112.2189114
-29.58638827 221.7610485 -152.0000974
-0.07710627182 107.6565644 -9.739276993e-05
-40.25064927 164.9369914 -42.47153439
18.27322873 232.6478146 -9.739276993e-05
17.59056473 243.2898605 -152.0000974
-21.88216027 113.9746814 -152.0000974
-27.35758927 85.0387234 -9.739276993e-05
-40.25064927 107.5320974 -47.25484039
20.93766673 -2.460202131e-05 -141.2045954
-40.25064927 21.0896244 -15.47907339
-40.25064927 81.2330694 -30.73631339
-36.54135127 45.8124854 -244.0000974
-36.25064927 109.4512974 -20.26779439
-13.20651427 208.4873204 -9.739276993e-05
-40.25064927 61.1040474 -77.54995539
-40.25064927 200.7754854 -129.4641474
-36.25064927 82.4250414 -13.15173339
24.89918073 177.3520334 -9.739276993e-05
-40.25064927 76.1395984 -104.5349734
-36.25064927 184.2684654 -125.5577074
-36.25064927 225.5090857 -101.2188074
-2.486234272 43.2663704 -250.0000974
-40.25064927 28.1308704 -208.9240054
23.11052173 61.4072244 -244.0000974
-40.25064927 229.1549225 -52.12494639
-40.25064927 10.3096044 -173.0050494
-10.19952527 10.6022244 -156.0000974
-40.25064927 132.0148034 -137.4879514
-14.89890627 164.0761484 -152.0000974
30.80257773 67.9999754 -244.2164244
-39.57284127 159.5702534 -151.1769954
-34.33085827 26.9073204 -250.0000974
-22.26023627 -2.460202131e-05 -191.1085344
42.82529573 -2.460202131e-05 -215.2496074
-40.25064927 114.8390644 -94.35978939
-17.41031227 146.8292214 -152.0000974
-26.36448127 165.5110964 -9.739276993e-05
-23.82959927 84.3419314 -152.0000974
-36.25064927 214.9421863 -66.99730039
-36.25064927 192.6885524 -22.23716839
25.99706873 221.0815069 -156.0000974
30.65566873 6.067431398 -244.0000974
14.25928373 134.4365804 -9.739276993e-05
-15.85667727 -2.460202131e-05 -3.647435393
-40.25064927 249.7813516 -50.88265939
6.448441728 248.9408093 -9.739276993e-05
-36.25064927 71.9980754 -132.0275634
-40.25064927 160.1102264 -27.30788139
-40.25064927 104.8899764 -13.51135239
-1.876442272 108.5140424 -156.0000974
3.598683728 -2.460202131e-05 -172.8900264
-4.426692272 -2.460202131e-05 -240.1190294
7.449426728 39.1022844 -250.0000974
-14.59154227 46.9917474 -9.739276993e-05
6.988442728 231.7748436 -152.0000974
32.66413973 -2.460202131e-05 -156.0449154
-36.25064927 170.6902084 -21.67405239
7.233503728 143.5349914 -152.0000974
36.51182173 31.6246004 -9.739276993e-05
2.915861728 50.2947284 -152.0000974
23.50326873 3.537892398 0.7277326072
-2.501683272 83.8655784 -156.0000974
-40.25064927 184.3695634 -68.14111039
-40.25064927 70.7111524 -115.5145564
-8.713564272 168.4638094 -156.0000974
-39.50495627 51.8593644 -151.3638334
-36.25064927 138.4916644 -147.1234894
-38.33871227 169.0651314 -153.1509464
-40.25064927 190.2418994 -138.1098164
-12.25190827 182.3410954 -152.0000974
-36.25064927 205.6283834 -45.73451239
-36.25064927 12.6203114 -122.8695704
37.74935073 84.6213524 0.1632466072
25.86971573 251.4785459 -9.739276993e-05
-33.06372027 17.6571604 2.328385607
22.26519573 96.9016424 -152.0000974
0.04651972818 -2.460202131e-05 -99.69621939
14.68594073 69.5142364 -9.739276993e-05
-40.25064927 201.7864304 -9.914557393
-40.25064927 90.4724394 -57.25889139
-31.64939727 34.0323164 -244.0000974
-40.25064927 125.2880664 -83.14553039
-4.016765272 233.7766296 -156.0000974
-40.25064927 142.9194764 -19.25954939
-40.25064927 63.5397294 -215.5732514
-9.081882272 -2.460202131e-05 -64.29166839
-21.17747727 -2.460202131e-05 -179.7263714
-36.25064927 73.4045024 -31.50348439
21.64383873 15.8895424 -152.0000974
14.56580673 -2.460202131e-05 -35.80296039
-40.25064927 101.1155044 -32.01791639
22.53010073 -2.460202131e-05 -181.5841634
-40.25064927 202.9983284 -146.1877024
37.74935073 155.5406164 -155.4575624
34.85944273 -2.460202131e-05 -15.96273639
-36.97344027 11.8660974 -13.22004139
15.03889573 -2.460202131e-05 -86.28814439
-22.12252527 -2.460202131e-05 -74.89252139
-40.25064927 116.0656494 -111.3295524
-36.25064927 99.3394724 -84.57641939
-36.25064927 105.9449274 -139.1094984
-20.61340027 140.0525554 -156.0000974
-8.615928272 -2.460202131e-05 -147.2824224
-36.25064927 242.8350457 -19.40717739
-16.27207227 177.0198614 -9.739276993e-05
-36.25064927 43.5623254 -143.7280414
20.08284273 -2.460202131e-05 -164.8545424
-28.48640327 69.4752684 -152.0000974
-36.25064927 38.3446854 -88.81142439
15.12044773 -2.460202131e-05 -10.61301039
-2.969364272 210.8632804 -9.739276993e-05
14.52526373 200.7109884 -152.0000974
31.39601373 70.0035474 -152.0000974
41.70331073 44.0237044 -244.0000974
-11.44150427 200.4680784 -156.0000974
18.12051573 67.9999754 -244.2188504
-40.25064927 191.7269904 -95.02127739
-40.25064927 0.667269398 -6.251351393
4.816676728 238.2279668 -9.739276993e-05
-36.25064927 151.3208594 -12.73819839
-0.3387922718 16.2083364 -250.0000974
-40.25064927 93.2044004 -25.07185039
-40.25064927 82.4525614 -171.3423934
-40.25064927 26.6755404 -116.2202184
-3.460334272 -2.460202131e-05 -108.1618934
2.581661728 3.654942398 -250.0000974
-21.41503927 103.2886174 -9.739276993e-05
-40.25064927 103.3640884 -100.1912694
-36.25064927 -1.619601602 -23.99254439
11.66912073 124.3584684 -156.0000974
-27.42064527 149.0814124 -9.739276993e-05
-38.27689827 212.9188094 1.209088607
-40.25064927 224.44796 -70.26431839
-36.25064927 136.6613724 -29.88838039
-12.29368327 194.0918904 -9.739276993e-05
26.90045573 233.6546711 -9.739276993e-05
-36.25064927 151.8241624 -43.42019239
-22.43868127 67.9999754 -245.7048404
-40.25064927 139.3838744 -82.38138439
-40.25064927 46.7583864 -49.32831739
-39.62354027 160.7670684 -0.8984873928
-40.25064927 145.6089024 -54.68396539
-36.25064927 214.5222447 -31.56668639
-23.51894327 242.1365383 -9.739276993e-05
7.309130728 116.1384934 -156.0000974
-36.25064927 69.7016774 -81.12945039
-39.91732427 7.532293398 -136.0228874
-40.25064927 220.8311641 -53.50459339
32.98881773 107.5469404 -9.739276993e-05
-30.04213027 46.6176514 -156.0000974
-40.25064927 41.0168854 -105.2563684
35.98790473 52.4491834 -156.0000974
-40.25064927 92.9334034 -76.20745539
-32.32540627 -2.460202131e-05 -114.4319444
-40.25064927 27.6910684 -160.4915004
-36.25064927 251.9657856 -16.84991339
23.01684373 233.2176578 -156.0000974
-38.46891727 119.1547014 -152.9956284
-36.25064927 129.5356954 -125.2464854
13.02064473 173.3125174 -152.0000974
-40.25064927 169.3482814 -72.68509239
-36.25064927 215.5449043 -76.13944939
2.085517728 180.5412054 -156.0000974
-14.12599227 219.1985387 -9.739276993e-05
-40.25064927 26.4553354 -184.8014354
5.768903728 19.0539594 -156.0000974
-40.25064927 71.4433444 -178.1613014
-40.25064927 241.9047785 -39.66636239
31.10436173 -2.460202131e-05 -133.5542324
-36.25064927 99.7226864 -115.7309474
-36.25064927 32.5197894 -39.06194239
-40.25064927 32.1029474 -67.27827239
-40.25064927 30.4227244 -24.34519339
-7.038153272 97.3489524 -152.0000974
-40.25064927 9.404335398 -67.04184239
-4.558516272 52.9632084 -156.0000974
-36.25064927 184.0012054 -53.18683739
-40.25064927 51.6907524 -20.42626039
-36.25064927 121.9961804 -42.63131939
-9.308064272 25.3280044 -152.0000974
-36.25064927 191.1214634 -79.32113839
32.77321373 52.5374794 -250.0000974
-40.25064927 4.272826398 -179.0046244
18.43977773 161.7874564 -152.0000974
-36.25064927 148.4107924 -36.31102939
-36.25064927 5.360862398 -30.46725439
30.03861573 185.4716264 -156.0000974
22.79754073 -2.460202131e-05 -207.2804354
-20.67695927 123.1356424 -152.0000974
8.436956728 104.6809234 -9.739276993e-05
13.05026473 163.8571724 -9.739276993e-05
35.36368173 245.7955044 -152.0000974
-38.76653327 59.7297134 -244.0000974
-40.25064927 22.8062194 -129.4558024
30.70078873 -2.460202131e-05 -91.39569539
-11.31840327 207.8718714 -152.0000974
-36.25064927 136.3416694 -42.30824939
-41.13926227 -2.460202131e-05 -42.46061339
-29.72619227 169.6965344 -152.0000974
-32.67901427 51.8745204 -0.04994439277
-19.34259527 15.7030184 -250.0000974
32.04276973 49.0313234 -9.739276993e-05
-36.25064927 132.5546594 -86.73688239
2.272098728 65.6349674 -152.0000974
25.83859073 63.0286954 -156.0000974
-40.25064927 25.1752274 -225.1389734
-40.25064927 81.8230184 -149.7321824
-28.33247027 135.9647544 -152.0000974
10.24198873 177.6197964 -9.739276993e-05
33.63514873 20.7190094 -250.0000974
-36.25064927 222.3711282 -110.8552554
-36.25064927 174.9171934 -138.2233744
-7.225091272 -2.460202131e-05 -204.8389264
19.60810973 -2.460202131e-05 -79.57022339
-40.25064927 27.6266564 -2.333039393
-36.25064927 189.1549334 -4.335895393
-40.25064927 234.0094176 -76.71293239
-39.67086027 113.6975294 -1.030278393
4.518038728 -2.460202131e-05 -48.35410439
10.18886373 58.5319264 -152.0000974
-36.85934327 231.538117 -126.5000974
24.59816273 248.071554 -152.0000974
-4.503607272 -2.460202131e-05 -222.0336164
-36.25064927 134.9485394 -97.55348139
-15.55281427 22.7564074 -244.0000974
-36.25064927 246.9471214 -81.20993039
-36.25064927 -1.934147602 -122.5404064
-40.25064927 128.0388384 -100.2317244
-38.84705127 13.2570894 -244.0000974
-36.25064927 2.115022398 -57.20352439
5.986901728 -2.460202131e-05 -197.2042824
-40.25064927 233.8344945 -41.77854739
-36.25064927 176.2559264 -119.5655704
-6.219941272 18.9734294 -244.0000974
16.39529473 111.4258244 -152.0000974
-32.33529627 174.2067574 -0.00994739277
4.488433728 -2.460202131e-05 -141.5412954
-40.25064927 245.3028378 -29.24678939
-4.315127272 7.679289398 -152.0000974
-36.25064927 39.4612484 -119.7436974
-40.25064927 32.4140104 -143.0675274
-40.25064927 7.658121398 -48.81317439
-36.25064927 63.8004204 -59.08320339
-38.09090227 143.2113004 1.433419607
-40.25064927 159.5859764 -141.3424594
-36.25064927 19.7672144 -92.66106539
-36.25064927 24.9735954 -36.80471239
-33.54725527 89.2712404 -155.8720624
-38.73442827 0.499975398 -72.16746239
-36.25064927 220.1012235 -25.07924639
-40.25064927 6.822331398 -208.7408104
-31.43025127 182.2077244 -152.0000974
40.40334073 -2.460202131e-05 -37.84060639
-40.25064927 64.6594704 -167.7047674
-34.48450727 -2.460202131e-05 -187.6006894
-42.90906627 19.2227624 -34.50195439
19.98109373 41.7010644 -9.739276993e-05
-40.25064927 182.1998734 -107.0811904
-36.21568627 222.1986946 -148.2991964
-36.25064927 123.7755404 -71.74528639
-36.25064927 15.5324004 -77.12480639
-40.25064927 42.5359784 -164.6049234
22.33536273 37.7408974 -244.0000974
-40.25064927 10.0969864 -109.4521864
-2.789585272 35.6928964 -250.0000974
-40.25064927 13.2064704 -159.3968164
-36.25064927 93.4802714 -44.10752839
-36.25064927 86.2960614 -131.8366514
11.97176173 216.4753657 -9.739276993e-05
-35.55065327 153.0872144 -155.2667214
-14.89123927 38.2550124 -9.739276993e-05
-40.25064927 217.8602533 -132.2151684
-5.178155272 -0.434455602 -250.0000974
-40.25064927 20.3786644 -41.47663439
-40.25064927 13.1205304 -97.24653739
-40.25064927 95.5447994 -140.0895264
3.711339728 224.090967 -9.739276993e-05
-40.25064927 172.9233104 -85.07262239
-30.69798627 -2.460202131e-05 -79.70188039
-40.25064927 113.4931924 -73.60040939
-18.44467027 -2.460202131e-05 -122.2641004
-35.57430927 4.943128398 -244.0000974
-36.25064927 235.0350145 -49.69014339
-15.90243727 11.8035634 -244.0000974
-40.25064927 70.4278844 -54.64760139
-36.25064927 98.5328414 -125.0721044
-40.25064927 109.7554314 -35.98003339
-36.25064927 147.1161094 -94.39022139
-40.25064927 160.2284394 -92.21923639
-7.689114272 135.9604244 -152.0000974
-36.25064927 146.5717494 -119.7564234
-36.25064927 202.1442634 -67.93291839
-3.491513272 202.9354574 -152.0000974
-40.25064927 31.1700204 -98.54104239
-36.25064927 109.2645704 -86.52000539
-40.25064927 109.3362174 -108.0966974
31.93605273 182.4929764 -9.739276993e-05
14.15079173 -2.460202131e-05 -43.58607539
-40.25064927 31.3242464 -233.3885664
9.627932728 80.6958684 -156.0000974
-40.25064927 49.6545294 -40.91926039
-36.25064927 46.0487904 -85.98495539
-36.25064927 69.4230704 -89.15369539
-40.25064927 55.3975194 -71.26060639
-36.25064927 139.8798254 -13.55219039
-40.25064927 43.5288494 -96.25689739
-14.63232227 43.8608434 -250.0000974
-36.25064927 118.5799644 -49.22627239
-32.30549227 -2.460202131e-05 -17.06822039
-36.25064927 163.2610684 -70.81600939
-40.25064927 77.0200934 -160.0139824
-36.25064927 232.529635 -103.5978704
0.02330072818 56.4600164 -250.0000974
-36.25064927 229.8697474 -60.00600239
-21.68873227 -2.460202131e-05 -205.1597584
-36.25064927 148.0054274 -86.14971139
-32.56403527 -2.460202131e-05 -169.8789034
18.09548473 94.9175074 -9.739276993e-05
7.513370728 191.4306134 -156.0000974
-7.915112272 123.2822994 -152.0000974
-40.25064927 3.328297398 -219.1236574
-40.25064927 114.6257754 -61.48324739
-17.24414827 20.9580454 -9.739276993e-05
-40.25064927 86.8981194 -71.94330339
-36.25064927 15.2710014 -140.5035704
-22.14248427 -2.460202131e-05 -90.92529739
33.36809573 68.1207314 -9.739276993e-05
-36.25064927 173.0022244 -110.4327604
-40.25064927 130.7762574 -44.91121239
-40.25064927 242.2230929 -12.79424339
-14.52399227 118.8456104 -9.739276993e-05
-36.25064927 46.2062904 -101.9809714
22.16203473 27.2002164 -152.0000974
-40.25064927 176.2752734 -6.277945393
-39.63453827 143.6812364 -150.9989984
-40.25064927 185.0037384 -16.45514539
16.51091873 187.4020674 -152.0000974
23.63014973 115.2340114 -156.0000974
-42.65855327 157.7718474 -120.7553554
-8.868446272 74.1757374 -156.0000974
-20.67659327 186.2685214 -9.739276993e-05
-16.12462227 29.9090954 -156.0000974
-10.44340427 159.9214174 -156.0000974
32.16185073 -2.460202131e-05 -65.52947639
-22.80819127 -2.460202131e-05 -237.9443404
-36.25064927 185.3780834 -26.07999339
-4.497756272 -2.460202131e-05 -186.0919254
16.52938673 142.0380304 -152.0000974
28.19603373 34.4947754 -156.0000974
-36.25064927 7.092994398 -129.7591154
10.65854373 206.6132074 -9.739276993e-05
17.29494973 5.757932398 -152.0000974
17.20429273 22.3451244 -250.0000974
-35.03382727 101.9674054 -1.138225393
-29.75187727 -2.460202131e-05 -4.897658393
18.42759473 153.7787044 -156.0000974
24.31290573 40.9084544 -156.0000974
3.612679728 73.6659894 -152.0000974
-30.18897527 16.8392384 -152.0244744
-40.25064927 37.4218364 -226.4011934
-11.41187327 54.4318164 -244.0000974
-40.25064927 47.9375674 -159.7847004
-40.25064927 150.6700444 -26.23178639
-36.25064927 231.0299934 -12.03512639
-36.25064927 218.2224572 -82.86338439
10.42744973 -2.044624602 -244.0000974
23.89061373 134.1142244 -152.0000974
-22.73766027 23.1048984 -156.0000974
-10.53864027 64.9433284 -250.0000974
-40.25064927 209.4533204 -121.0998364
-36.25064927 124.9745114 -20.61006839
35.25175073 24.7206244 -156.0000974
1.813696728 131.7593224 -156.0000974
-40.25064927 24.3393024 -84.20047439
-15.89102427 -2.460202131e-05 -66.58464739
-36.25064927 172.0774514 -57.85068639
-40.25064927 146.4320584 -131.0318874
-40.25064927 218.966943 -89.50951539
0.5515427282 144.1665674 -156.0000974
20.00926373 206.2512594 -152.0000974
27.79085873 196.7804864 -9.739276993e-05
-36.25064927 230.6307058 -89.34645339
-40.25064927 163.6088064 -85.91134339
-4.727007272 62.0469444 -9.739276993e-05
-17.19388427 14.4337874 -156.0000974
-27.12238327 -2.460202131e-05 -23.38725339
30.88253473 -2.460202131e-05 -210.8303224
11.59731673 10.1268014 -152.0000974
-16.73361127 222.6726601 -156.0000974
-36.25064927 152.7844274 -80.03888739
-40.25064927 199.1445614 -57.20991039
5.630529728 31.7490624 -244.0000974
16.17127173 48.2905294 -244.0000974
-36.25064927 158.1650184 -123.8620534
-40.25064927 125.7853344 -119.8603354
-36.25064927 12.4386604 -41.55232839
-43.29691227 102.2012674 -162.4707674
-40.25064927 10.3063834 -184.1049174
13.95498073 36.2283614 -250.0000974
-40.25064927 86.6043984 -41.39982439
-36.25064927 19.1763244 -32.08480139
-24.42143727 -2.460202131e-05 -43.04968239
-8.831563272 39.3776554 -250.0000974
-36.25064927 144.8249124 -63.82623539
-40.25064927 25.0417444 -167.0377104
9.111322728 154.4150544 -152.0000974
14.78026073 -2.460202131e-05 -205.7731184
25.63702273 -2.460202131e-05 -156.7322724
-40.11413327 66.1352344 -149.1781264
22.10106173 -1.939612602 -250.0000974
-40.54773927 112.3357114 -152.2493014
19.79523073 70.0906094 -152.0000974
-36.94342927 63.1416104 2.473501607
-36.25064927 248.1004583 -108.7654744
-40.25064927 195.9911314 -5.927829393
-40.25064927 24.7904474 -9.497202393
-31.84531827 127.8133714 -152.0000974
-5.848208272 5.680324398 -244.0000974
-36.25064927 240.326772 -143.4839434
-42.61543827 180.4571734 -60.18521639
11.41558973 235.8346653 -9.739276993e-05
-40.25064927 243.7750121 -60.99726839
-40.25064927 120.0746904 -136.6107684
4.282624728 158.5562174 -156.0000974
-36.25064927 212.5322207 -92.20299439
-40.25064927 101.9126834 -64.36369439
-40.25064927 7.495195398 -197.7860604
-36.25064927 207.3890584 -85.74376739
-36.25064927 197.7499894 -44.60413739
40.51854073 -2.460202131e-05 -84.80549239
-36.25064927 34.5956234 -48.60790839
-36.25064927 47.5681554 -63.12365039
-29.46783227 -2.460202131e-05 -55.71768239
-40.25064927 153.5008494 -104.5941944
-7.384521272 109.9358964 -9.739276993e-05
13.81219773 12.5684454 -250.0000974
-40.25064927 123.4088444 -147.0206544
-40.25064927 59.9004764 -228.2251654
-20.86070827 -2.460202131e-05 -14.79608639
-40.25064927 67.4107754 -192.3291004
-7.295680272 239.5530943 -152.0000974
-34.86328727 60.5050304 -155.5277134
5.007903728 46.8220254 -244.0000974
-40.25064927 55.4383354 -84.99256739
31.37395273 45.4492304 -156.0000974
-42.82507427 137.1230114 -132.7606124
-16.78790427 78.2250884 -9.739276993e-05
-40.25064927 31.4857724 -126.8852094
31.04461573 148.8422614 -156.0000974
-20.34680427 55.7183584 -156.0000974
-40.25064927 44.2042204 -225.0470944
40.76779373 17.4467844 -244.0000974
-40.25064927 178.4069534 -14.10317939
-31.53866927 10.1951154 -250.0000974
-22.32908927 192.7113394 -156.0000974
-40.25064927 40.0105314 -61.59021939
6.804045728 17.8535604 -244.0000974
-40.25064927 83.3737264 -109.1116534
-40.10882027 37.7880754 -149.2182934
-36.25064927 92.6615204 -90.87366239
-36.25064927 86.8355214 -30.59623539
-40.25064927 80.7539364 -47.17367739
-40.25064927 88.6857104 -125.8625344
-9.748652272 30.3428994 -250.0000974
-36.25064927 196.9668694 -120.4369924
28.08623173 161.4954344 -152.0000974
-36.25064927 162.4700244 -34.76995139
-16.89249227 81.8937144 -152.0000974
-36.25064927 70.5286984 -20.92668539
29.69438273 -2.460202131e-05 -121.9574724
-9.187455272 3.826614398 -156.0000974
-8.915694272 -2.460202131e-05 -94.64252339
-36.95397627 67.5906444 -250.0000974
14.72304573 -2.460202131e-05 -105.7122274
-40.25064927 186.4583844 -113.0333454
-40.25064927 41.6722014 -14.88127039
-3.866480272 252.3485862 -152.0000974
28.11895273 170.8641954 -156.0000974
-36.25064927 132.6350124 -52.52787839
-40.25064927 59.2332454 -20.59217339
-21.76518627 -2.460202131e-05 -7.075229393
-28.87993727 62.0184444 -250.0000974
-40.25064927 75.9643114 0.1592996072
-27.08602027 241.8537632 -152.0000974
-40.25064927 87.9510874 -12.90224739
-36.25064927 23.6067174 -72.59062539
-36.25064927 52.2676654 -98.33975339
-40.25064927 6.278447398 -11.11599939
-36.25064927 179.8228594 -71.25592439
-40.25064927 67.4715024 -11.06252539
34.69779873 -2.460202131e-05 1.587545607
11.57187273 44.4599034 -9.739276993e-05
-39.11494727 234.2012984 0.05437160723
-40.25064927 181.5461124 -146.3745784
9.692456728 1.820883398 -9.739276993e-05
-36.64187827 243.3155039 -122.1645524
-33.55600127 30.7589054 -151.7409704
-17.31368827 33.7024314 -244.0000974
18.09317473 25.3955484 -244.0000974
2.708071728 136.1076794 -9.739276993e-05
29.02903473 25.7030634 -250.0000974
17.71274873 3.485599398 -250.0000974
-43.35685627 54.7151264 -239.8484034
-40.25064927 239.9073412 -96.30066539
32.21376773 -2.460202131e-05 -184.9003984
-36.25064927 88.6631154 -116.7001704
24.38046873 90.1267124 -156.0000974
37.99914973 -2.460202131e-05 -135.5101624
21.26291173 226.5772582 -9.739276993e-05
-19.95781427 89.8883474 -152.0000974
-40.25064927 17.1890644 -209.8050684
-8.655099272 -2.460202131e-05 -216.7113984
22.44521273 57.5464574 -9.739276993e-05
-36.26759427 220.7289554 -154.8845224
-14.24321127 137.8346424 -156.0000974
-40.25064927 160.5216004 -100.6384974
-40.25064927 97.4172934 -70.77905339
-22.94395527 38.6207074 -250.0000974
-40.25064927 215.169025 -142.2709284
3.812894728 -2.460202131e-05 -212.7998694
-40.25064927 221.7218142 -6.477024393
4.398093728 -2.460202131e-05 -70.29769039
-27.46798727 -2.460202131e-05 -182.1145544
-36.25064927 190.3614794 -63.88765639
-36.25064927 229.0206398 -37.79527839
-22.90649127 9.325269398 -250.0000974
-36.25064927 239.0660082 -133.1583084
-22.07903327 70.3177324 -156.0000974
-28.06390027 29.2850844 -250.0000974
-29.45489927 -2.460202131e-05 -226.6414574
-40.25064927 42.8456144 -35.82748939
-40.25064927 79.8111574 -89.56723939
29.41442973 63.7593584 -250.0000974
-0.9375552718 -2.460202131e-05 -2.475849393
-40.25064927 239.4101361 -23.52725639
-33.71522927 69.5289474 -0.2969713928
-40.25064927 51.6018014 -12.79761439
-40.25064927 14.4100264 -71.46697539
-40.25064927 191.7445694 -42.08967939
-7.251838272 120.0509874 -9.739276993e-05
-40.25064927 131.1058464 -25.02422739
-41.97369027 23.6242084 -110.3398294
15.01200873 100.8300634 -9.739276993e-05
4.472294728 -2.460202131e-05 -94.71183439
-40.25064927 192.4457724 -145.9442794
27.40997973 16.3837614 -156.0000974
1.862389728 13.6321784 -9.739276993e-05
-40.25064927 135.1557714 -34.98967139
-40.25064927 136.4914064 -56.19081839
-40.25064927 37.3474564 -72.18347539
-36.03842227 199.7454444 -155.0067094
-41.95914227 49.7094314 -244.0000974
-31.52357627 14.3800134 -244.0000974
-40.25064927 228.775896 -147.2506054
4.355107728 247.024481 -156.0000974
-40.25064927 96.9968914 -38.29497439
-27.63515727 -2.460202131e-05 -106.2814164
2.533829728 34.8707354 -156.0000974
14.30391073 115.4685144 -9.739276993e-05
-36.25064927 117.4114704 -102.7921894
-40.25064927 51.7153374 -134.6376304
35.53922073 143.6777644 -9.739276993e-05
-8.751427272 81.5343284 -156.0000974
-40.25064927 114.4349574 -87.62843339
11.61913073 137.0296494 -156.0000974
37.74935073 63.4092674 1.577711607
3.344427728 -2.460202131e-05 -34.22888839
-40.25064927 88.3779654 -136.8265714
-40.25064927 29.7468584 -192.8932744
-36.25064927 192.1623704 -51.59056139
4.733054728 -2.460202131e-05 -231.5898074
-36.25064927 206.8175624 -29.61837939
-40.25064927 50.0840104 -228.6549534
-8.651533272 50.2894874 -9.739276993e-05
-36.25064927 205.8440904 -57.63355539
-40.25064927 76.3054534 -119.4614214
-40.25064927 208.4691454 -19.69007939
10.86363973 -2.460202131e-05 -221.2254384
11.46409873 -2.460202131e-05 -67.58481939
-22.01018227 211.1654434 -152.0000974
-40.25064927 101.6818674 -93.37134739
13.92529173 -2.460202131e-05 -50.83368439
-40.25064927 58.1429364 -60.77585839
-40.25064927 217.0575948 -14.02931339
-40.25064927 64.9022464 -64.17038439
-32.69238827 77.6330894 -155.9564774
-19.44998427 -2.460202131e-05 -129.5655394
-40.25064927 112.3060864 -116.7856924
31.24752673 131.7047684 -9.739276993e-05
42.70492673 7.499620398 -244.0000974
-10.47798627 -2.460202131e-05 -22.17521939
32.93808273 -2.460202131e-05 -84.66791739
-40.25064927 16.4447014 -146.4433094
35.13050673 189.6072734 -9.739276993e-05
-20.66930227 110.8982204 -9.739276993e-05
-40.25064927 208.9309794 -113.7640814
-9.386609272 43.9128074 -156.0000974
11.02498873 196.0483364 -9.739276993e-05
-23.74633127 161.9743694 -156.0000974
31.60632073 167.1018624 -152.0000974
-40.25064927 117.1493774 -7.876835393
10.08528573 -2.460202131e-05 -173.2615204
-24.71422227 229.7280395 -152.0000974
-36.25064927 156.1005164 -23.54783139
41.65156973 21.9031484 -250.0000974
-35.02951027 128.1344934 -1.135289393
-36.25064927 76.0932774 -57.12941239
-16.87721027 126.5076314 -156.0000974
-41.86045427 -2.460202131e-05 -172.3649454
-16.07788127 105.5711954 -152.0000974
-28.74874927 149.6480194 -152.0000974
-40.25064927 186.8434214 -9.386784393
-40.25064927 53.9415314 -50.46016439
-1.661678272 29.3614344 -250.0000974
-40.25064927 153.2319114 -142.3219784
-40.25064927 191.1812934 -102.9524294
34.58682173 2.567413398 -250.0000974
-17.18460227 209.4084844 -156.0000974
-36.25064927 76.3391604 -77.79710739
-1.331917272 217.4091637 -152.0000974
-36.25064927 3.492223398 -103.8795074
-34.34477327 51.3636074 -155.6845194
-39.63321227 225.2206978 -115.5000974
-34.83543227 -2.460202131e-05 -156.2956834
-32.36086827 35.7458554 -155.9892134
26.41960173 206.3458494 -152.0000974
-40.25064927 108.1201794 -26.79363139
-36.25064927 48.7505774 -6.079986393
11.14402473 65.7440484 -244.0000974
-40.25064927 171.5686504 -62.87507439
-17.62044427 60.7552124 -244.0000974
-36.25064927 59.4547964 -41.97246739
-36.25064927 11.6762434 -51.77709739
-40.25064927 13.8517314 -197.0770824
-40.25064927 153.5975474 -17.17840239
-0.8251752718 168.6319614 -9.739276993e-05
-34.54288227 -2.460202131e-05 -200.0684294
-22.86325727 47.7306574 -152.0000974
-36.25064927 199.8871254 -89.76558239
12.09161973 102.2318724 -152.0000974
-17.82237027 252.4007108 -152.0000974
37.75880673 -2.460202131e-05 -72.19522739
-21.14532227 198.7253684 -152.0000974
-40.25064927 131.6797404 -66.36984739
-40.25064927 57.7289684 -91.02267939
-36.25064927 105.5513624 -146.5671434
-40.25064927 40.8200504 -202.4991124
-36.25064927 30.3143884 -33.07998139
-36.25064927 27.3379144 -111.0993794
-30.34617927 214.7323192 -156.0000974
-40.25064927 12.3870334 -6.206487393
-40.25064927 178.7529814 -98.91389939
-40.25064927 151.7872864 -7.811543393
-36.25064927 182.5318604 -131.9948884
-2.431867272 59.9323724 -156.0000974
-1.490306272 124.4792554 -152.0000974
-36.25064927 67.0237584 -138.2886244
-36.25064927 31.6783804 -9.690122393
-36.25064927 223.2552752 -132.4445814
-36.25064927 158.9987804 -41.34047939
-40.25064927 17.8504334 -112.3433264
-36.25064927 13.0388484 -114.8901784
-40.25064927 33.4276184 -88.52598439
40.67148873 29.8556054 -250.0000974
41.63118973 -2.460202131e-05 -5.532531393
-40.25064927 209.3013574 -146.8265604
-40.25064927 214.873485 -55.65210439
-40.25064927 161.8540534 -130.8178824
29.26655973 -2.460202131e-05 -56.50972839
-21.95604327 168.1891814 -156.0000974
-40.25064927 22.5553244 -123.0053244
-40.06680327 45.4323274 -149.5794934
-9.800088272 151.3049974 -156.0000974
-36.25064927 148.3172774 -145.2886394
9.993547728 217.5835932 -154.5993474
-40.25064927 117.5231924 -36.03106539
-36.25064927 212.5030844 -61.16420739
28.59041373 27.4512974 -152.0000974
-36.25064927 109.3537954 -76.83495839
12.04593373 57.3174114 -250.0000974
35.52291073 225.0182067 -156.0000974
-40.25064927 84.1366344 -155.5965264
-40.25064927 71.1415774 -108.8934764
42.48433873 66.9839894 -250.0000974
-28.93585627 99.3299734 -156.0000974
-36.25064927 231.1593833 -18.33130539
-36.25064927 197.5029624 -30.07130539
-21.80412327 10.3183864 -153.9163584
3.651831728 103.5706434 -152.0000974
0.2110377282 200.0096504 -9.739276993e-05
-40.25064927 47.4056184 -210.0233974
-40.25064927 43.8135744 -129.4610074
-1.742432272 32.6320184 -244.0000974
34.53932173 -2.460202131e-05 -42.72029239
-35.93265027 90.3563684 -149.5259414
-32.07505127 187.4887644 -9.739276993e-05
-36.25064927 27.8834404 -141.5108824
28.84838773 -2.370622602 -244.0000974
-40.25064927 78.4017124 -71.08274439
-1.892106272 165.3283444 -156.0000974
-36.25064927 22.4471024 -61.56741539
-40.25064927 155.4673994 -73.71019539
0.3584407282 193.5058044 -152.0000974
-40.25064927 13.6889604 -128.0621884
7.800711728 -2.460202131e-05 -102.5475514
11.98593373 0.499975398 -155.8015554
-36.25064927 57.1388684 -102.2155494
-40.25064927 57.3174154 -122.5323944
-40.25064927 60.2767754 -30.67715439
-3.136262272 69.4075574 -9.739276993e-05
-40.25064927 26.2701744 -54.78227339
30.85004073 73.8050774 -9.739276993e-05
-40.25064927 68.6207614 -44.27006339
37.28497573 123.4586134 -9.739276993e-05
35.31201473 205.4551044 -9.739276993e-05
-40.25064927 57.9427884 -203.2809664
25.06087673 150.6324174 -156.0000974
-15.89427427 -2.460202131e-05 -33.53443839
-40.66268827 25.4999754 -68.67040539
-36.25064927 135.2620594 -122.0072224
4.435940728 176.4378904 -152.0000974
25.68117473 11.4372444 -244.0000974
-36.25064927 141.2682684 -58.59057139
-40.25064927 81.5668194 -82.82153439
-36.25064927 244.5251421 -101.0735864
4.500553728 210.5618864 -156.0000974
-40.25064927 139.0060204 -94.18709539
-40.25064927 220.8438142 -100.6097864
-12.66620827 29.5173244 -9.739276993e-05
18.05536273 45.0512634 -156.0000974
13.24933973 88.8427304 -152.0000974
-40.25064927 45.8658144 -188.5605434
-40.25064927 104.4271154 -82.45558339
-40.33863627 41.3518644 -241.0000974
-40.25064927 36.8562254 -133.3786224
-39.90321727 59.7978844 -1.801083393
27.66461373 32.0358784 -250.0000974
30.77647673 107.2326834 -156.0000974
-40.25064927 85.5284124 -96.60013939
-40.25064927 200.0667754 -102.3919404
-36.25064927 211.7219704 -40.88764339
-40.25064927 201.8898304 -123.4076184
4.877483728 164.0826054 -152.0000974
20.33388873 64.0998754 -9.739276993e-05
-14.61765427 -2.460202131e-05 -97.77203639
29.62366473 43.7234884 -250.0000974
-40.25064927 88.0050584 -51.63277139
17.91129773 182.9562924 -156.0000974
-20.83869027 25.9359054 -9.739276993e-05
35.56067173 231.5463148 -152.0000974
-30.61299927 49.0327744 -250.0000974
-36.25064927 174.8525554 -10.87785239
33.47369773 83.6864094 -156.0000974
-18.83906927 68.7708734 -9.739276993e-05
-36.25064927 156.6003344 -53.40890939
-15.96519827 53.0843604 -152.0000974
23.35920273 60.2126414 -250.0000974
-13.94067227 59.4777484 -250.0000974
-40.25064927 167.0464544 -99.37637639
7.878317728 9.613579398 -244.0000974
-18.60732527 -2.460202131e-05 -82.28943939
-36.25064927 122.1856654 -14.87426039
-29.37140027 105.6553494 -152.0000974
-22.49172727 173.9682704 -9.739276993e-05
7.393861728 -2.460202131e-05 -181.3072084
-40.25064927 76.9246964 -52.32586439
-40.25064927 223.1103428 -79.22234339
-36.25064927 10.3901994 -85.95362039
-40.25064927 130.3227134 -31.05892239
-40.25064927 35.8155104 -211.6117544
38.92272573 -2.460202131e-05 -100.1429654
-4.712706272 -2.460202131e-05 -87.89487939
9.055405728 198.0558504 -152.0000974
-34.56182427 41.6023004 -0.8072033928
-23.92098227 62.7698144 -9.739276993e-05
-40.25064927 118.9048414 -77.56459839
-8.395345272 62.2557234 -156.0000974
-40.25064927 98.9133324 -120.2092774
-32.69576127 120.8231514 -0.05189239277
-0.2141612718 -1.966883602 -244.0000974
-36.25064927 81.0259214 -125.2312354
-36.25064927 191.6023434 -10.60627339
0.6318367282 251.7942682 -156.0000974
-43.45113227 97.4521584 -168.0016344
-36.25064927 49.4837734 -146.8678894
-36.25064927 248.9131554 -31.96628239
4.480069728 96.3885794 -152.0000974
-40.25064927 144.9611404 -115.5372464
21.32838873 62.9323144 -152.0000974
-36.25064927 178.8845154 -86.48218739
-40.25064927 86.1631524 -65.81746039
7.327392728 67.5631234 -250.0000974
-43.45464127 25.4999754 -96.34708039
-40.25064927 175.5794994 -90.47288339
-5.800804272 19.1773314 -250.0000974
-13.82652827 0.06658839798 -250.0000974
-36.25064927 103.1842884 -73.47354739
-40.15156427 201.9950904 -2.999361393
-15.11554727 -2.460202131e-05 -204.4059624
-42.06295427 124.9832884 -49.13553139
-34.70957227 26.8980754 -244.0000974
-6.316965272 88.5082554 -156.0000974
-40.25064927 62.0471414 -180.9084414
17.56317673 -2.460202131e-05 -58.25977439
-11.01976327 95.2976324 -156.0000974
-40.25064927 17.1997624 -52.59869139
5.086681728 26.3555474 -156.0000974
-40.25064927 217.1913968 -35.15939539
-36.25064927 235.6599261 -139.6772354
-40.25064927 247.5375927 -17.43692139
-36.25064927 65.0356454 -144.7290564
34.45429073 234.6979043 -9.739276993e-05
-40.25064927 95.3165994 -154.8040634
-6.566943272 -2.460202131e-05 -138.0036254
-41.75205127 156.9919514 -83.02612639
-40.25064927 144.6747154 -32.66546039
-40.25064927 73.2296874 -6.178197393
-40.25064927 150.6882954 -121.4373904
-40.25064927 5.742740398 -143.9808994
35.09786673 47.0270334 -250.0000974
-40.25064927 241.4127794 -53.96097339
-40.25064927 98.4068514 -44.78164139
-36.25064927 174.3208254 -99.18544939
-36.25064927 33.3933564 -93.13739539
-36.25064927 51.1586424 -72.57313239
-40.25064927 186.3523734 -129.7394154
-40.25064927 220.3950737 -41.84670739
-16.51123227 43.8374844 -244.0000974
-36.25064927 168.2983504 -121.4198804
1.181024728 96.0771814 -9.739276993e-05
-40.25064927 69.3298664 -201.2644994
-36.25064927 73.6635014 -93.67580739
-40.25064927 37.5204274 -173.5101854
-36.25064927 90.5235714 -69.42908339
-40.25064927 5.544042398 -88.48892239
-14.68422527 75.4405294 -156.0000974
13.50940973 241.6527383 -156.0000974
-36.25064927 98.7911004 -54.56273339
-40.25064927 25.2887484 -240.6509294
-34.62819527 245.3341886 -0.8544223928
-40.25064927 151.2503244 -52.82542539
30.22588073 219.9369789 -152.0000974
-36.25064927 240.9952897 -65.17953339
7.398136728 93.1251954 -156.0000974
3.824339728 79.0099094 -9.739276993e-05
-40.25064927 7.526499398 -157.6988734
7.406327728 -2.460202131e-05 -82.97370339
-36.25064927 207.4024134 -12.01531039
-36.25064927 143.7807854 -72.23468439
-40.25064927 144.8105884 -42.94789539
-36.25064927 0.565988398 -77.72466339
-40.25064927 109.9815784 -57.74899939
-40.25064927 119.4697194 -29.83410439
3.093141728 -2.460202131e-05 -164.4140674
-8.085980272 25.0950934 -244.0000974
-38.78498027 125.0487624 -152.6134384
-36.25064927 211.1923764 -125.5672214
-40.25064927 127.1792824 -108.2668974
-32.05986327 167.0949944 -9.739276993e-05
-40.25064927 27.3015904 -19.32597239
-40.25064927 171.9241234 -36.93561939
2.374228728 77.8341274 -156.0000974
-20.49727327 164.8249074 -9.739276993e-05
-36.25064927 134.2014864 -108.4878444
21.66280773 237.3349162 -152.0000974
15.88987073 140.1021544 -9.739276993e-05
25.62404873 -2.460202131e-05 -108.2793464
-40.25064927 245.4946937 -126.2788344
-40.25064927 20.7868584 -21.36114839
-40.25064927 32.6218104 -43.95164239
6.787556728 -0.451240602 -250.0000974
33.17133573 -2.460202131e-05 -168.4978814
22.60142573 74.2957184 -9.739276993e-05
-40.25064927 155.9432194 -127.5462644
-40.25064927 123.1136254 -97.03580139
34.68712673 143.8400544 -152.0000974
-14.24943627 99.3942614 -9.739276993e-05
-40.25064927 43.0355334 -139.4837154
-40.25064927 170.6305024 -140.6548834
-36.25064927 53.0147124 -38.27820839
-8.045332272 -2.460202131e-05 -177.9476554
20.74934473 -2.460202131e-05 -199.5878964
-36.25064927 108.5866934 -132.3329474
-36.25064927 80.1536854 -42.95240439
-36.25064927 179.4361884 -103.1121184
-36.25064927 203.1933084 -52.11890839
-36.25064927 107.2879764 -10.00020139
-40.25064927 171.5632354 -53.32290439
-40.25064927 197.6405464 -111.2982944
20.60091973 140.6331724 -156.0000974
-30.15177627 205.0559304 -152.0000974
-40.25064927 74.2897944 -173.0738084
-40.25064927 25.1117734 -173.0422374
2.622611728 3.323594398 -156.0000974
-39.45191227 135.1151934 -151.4706874
-40.25064927 60.4217784 -210.6519724
-10.80738427 -2.460202131e-05 -11.67013239
-40.25064927 214.2300892 -96.07685039
9.658112728 175.8776004 -156.0000974
-27.97627427 79.5668774 -152.0000974
-42.33527327 -2.460202131e-05 -19.35663239
-36.25064927 142.8906864 -133.3425604
-34.74675527 63.9362124 -244.0000974
-21.21852827 43.8388264 -156.0000974
-40.25064927 115.2768424 -67.52805039
-40.25064927 10.1273254 -78.25027239
-3.266844272 -2.460202131e-05 -234.0931594
-40.25064927 237.4883716 -112.0332584
12.01965173 64.1414214 -152.0000974
-40.25064927 45.7824324 -118.7023204
-40.25064927 53.0820974 -174.2846014
-36.25064927 36.6560914 -16.04539339
-24.54253927 140.6292004 -9.739276993e-05
10.05814473 184.8115704 -156.0000974
-40.25064927 131.1471034 -129.8405554
-36.25064927 174.7478024 -26.77377539
-40.25064927 20.5353704 -136.7461784
-40.25064927 63.8393984 -110.0953734
7.653838728 41.6804084 -244.0000974
-36.25064927 65.1314004 -76.45457739
-36.25064927 236.8859869 -99.79821839
26.16393573 85.1299874 -9.739276993e-05
-40.25064927 194.2459414 -47.59591339
-40.25064927 226.8877275 -11.63235939
-40.25064927 113.4376104 -104.0246384
-36.25064927 85.6972454 -143.3988414
-36.25064927 229.1919435 -27.20308739
-40.25064927 138.8102624 -141.5574744
24.67108973 5.761756398 -244.0000974
-24.27132727 142.2166584 -152.0000974
-35.80599327 99.2340744 -149.7942794
-36.25064927 42.8555074 -124.9674424
-40.18881327 40.5941404 -3.375569393
-40.25064927 43.1072194 -72.13350139
25.63869473 108.6264304 -9.739276993e-05
24.43994573 68.6130224 -156.0000974
-36.25064927 35.7207454 -61.26550539
35.85082473 -2.460202131e-05 -93.95537539
-40.25064927 119.4685384 -130.8920994
-4.380023272 81.3017374 -9.739276993e-05
-40.25064927 56.1469324 -147.0886464
-36.25064927 65.2006974 -126.9469264
-35.75064927 -1.383799602 -31.61550439
36.72559373 37.0757084 -156.0000974
11.74634773 231.7806478 -156.0000974
16.32902273 205.7470454 -9.739276993e-05
-36.25064927 44.7566944 -39.45731139
-36.25064927 202.3503064 -141.3225614
-40.25064927 30.6564714 -168.1581694
20.36737773 -2.460202131e-05 -20.43152539
20.87929973 51.3110424 -152.0000974
-9.278564272 5.754690398 -9.739276993e-05
25.62597073 139.4747264 -9.739276993e-05
-40.25064927 105.2275664 -52.48463639
-40.25064927 184.4253944 -45.02406139
-40.25064927 16.6987664 -61.79337239
-41.13503627 137.6732774 -24.08386539
-40.25064927 56.8480084 -98.14991939
-40.25064927 188.1675674 -82.12206739
-40.25064927 95.6909084 -86.37856039
-34.91456927 99.2380704 -155.5129524
7.268259728 54.0328614 -9.739276993e-05
-40.25064927 103.6539064 -116.7294244
-36.25064927 50.3841464 -52.40353439
-40.25064927 24.2622484 -190.2239904
28.74406273 62.5814964 -244.0000974
-36.25064927 152.1097834 -117.6521014
-36.25064927 189.0314114 -16.79008739
-6.040618272 171.4933674 -152.0000974
-40.25064927 14.5691394 -28.27297339
-36.25064927 126.3284444 -57.19209639
-36.25064927 158.4259904 -63.93577239
-40.25064927 57.9595204 -222.8942214
-18.88140227 1.873709398 0.7709486072
-36.25064927 149.4459794 -72.44899939
14.60427873 160.6175724 -156.0000974
13.66927573 126.4930194 -9.739276993e-05
-36.25064927 27.8392834 -27.47345639
-36.25064927 64.2269524 -46.94890039
-13.66992827 -2.460202131e-05 -91.46426539
-36.25064927 97.3637664 -30.65921539
-40.25064927 237.4916179 -9.706806393
-36.25064927 141.4367084 -48.58871939
-36.25064927 62.9363034 -104.9080824
-36.25064927 90.3556264 -16.08262239
-35.99295227 18.7471844 -149.3503144
-40.25064927 107.4413724 -93.70669939
-5.913489272 102.0307964 -156.0000974
-40.25064927 57.6905094 -7.025277393
-36.25064927 29.6569984 -70.41663639
39.65613073 9.205182398 -250.0000974
-36.25064927 70.8130804 -103.7365084
-35.26914127 139.2793904 -1.453303393
-31.77984127 210.4493694 -152.0000974
-36.25064927 62.1112844 -27.16419239
-40.25064927 99.3177634 -135.9100724
-36.25064927 211.3198594 -16.94050739
-40.25064927 2.442715398 -121.9004884
-39.61781527 14.5201834 -250.0000974
-21.34010627 187.1643524 -156.0000974
-35.93956327 216.4729929 -2.458142393
-40.25064927 11.5360894 -17.76891339
14.93687473 -2.460202131e-05 -93.28785839
-43.19571427 21.8856804 -244.0000974
-40.25064927 163.7597374 -137.5945064
-40.25064927 61.7842944 -162.8886524
10.32329373 38.8146124 -156.0000974
-6.391745272 49.2380904 -244.0000974
-18.83630627 245.2201732 -9.739276993e-05
-15.09262827 39.9996334 -152.0000974
27.32687073 -2.460202131e-05 -127.0381864
36.65976273 25.9465714 -250.0000974
-40.25064927 235.7259994 -105.8633404
-40.25064927 13.6648314 -229.4047934
-31.97953927 -2.460202131e-05 -88.32721239
-40.25064927 72.9329264 -84.52092939
-18.81344327 3.164545398 -250.0000974
-40.25064927 170.5415254 -127.2152754
-40.25064927 98.8890404 -21.95767739
-40.25064927 5.136496398 -16.84084839
6.891798728 24.8962714 -250.0000974
-36.25064927 141.2803474 -116.7860494
5.290243728 11.8568664 -152.0000974
-20.53911627 -2.460202131e-05 -243.0359864
-36.25064927 224.3318734 -55.17242339
36.30240473 195.0497314 -9.739276993e-05
-40.25064927 20.2589784 -27.29944639
2.725718728 204.3150354 -152.0000974
-36.25064927 37.1157554 -8.526803393
-40.25064927 9.346177398 -39.14936939
21.83069173 -2.460202131e-05 -235.5769694
-36.25064927 165.2831194 -20.38974739
-36.25064927 179.0682184 -142.5644884
1.220235728 150.7206764 -9.739276993e-05
-21.13787927 195.9481734 -9.739276993e-05
-40.25064927 79.7041854 -138.1840364
-7.085660272 154.1463154 -9.739276993e-05
-1.520776272 70.9974844 -152.0000974
-40.25064927 152.4230764 -96.62511939
-36.25064927 72.0446814 -36.87428739
20.61934273 17.9837894 -250.0000974
-40.25064927 35.3230944 -192.6799864
-12.96003627 170.8384684 -152.0000974
-40.25064927 103.3988174 -128.4110584
-40.25064927 89.1756824 -168.2390044
-40.25064927 69.5492204 -33.70790939
-40.25064927 210.8940334 -66.30685139
-4.898355272 30.5653614 -156.0000974
-40.25064927 52.5776414 -180.0238254
-40.25064927 28.1193854 -103.1536134
-40.25064927 81.6416534 -103.8610394
-35.20354727 146.9635064 -150.6527234
-36.25064927 236.8412177 -56.06776539
22.03312473 8.789715398 -156.0000974
-40.25064927 59.2038524 -54.45711039
-40.25064927 170.4554824 -42.69403039
-40.25064927 32.0260864 -51.41545439
-40.25064927 168.3051964 -108.4222714
-40.25064927 210.5915394 -29.16343139
-40.25064927 33.6257794 -6.429888393
4.645820728 118.8415314 -152.0000974
-36.25064927 84.2845524 -52.37642539
-40.25064927 48.3382264 -238.5108944
8.210592728 135.3864424 -152.0000974
-40.25064927 176.7873314 -133.6504694
-40.25064927 78.1474274 -26.19017039
-0.002493271824 -2.460202131e-05 -195.7498524
-40.25064927 160.5730854 -59.16446039
-40.25064927 64.9456874 -81.47212239
-36.25064927 3.455733398 -51.88057639
-36.25064927 245.4699613 -75.92620339
-13.88526827 -2.460202131e-05 -119.2201934
36.85683173 -2.460202131e-05 -111.4518344
-40.25064927 202.8498494 -43.23082039
11.27107373 54.9518064 -156.0000974
-36.25064927 190.0501104 -28.93529439
-29.82432427 246.5934638 -152.0000974
-36.25064927 24.7391444 -42.92810439
-40.25064927 205.1257364 -70.19302439
-36.25064927 218.1252842 -50.93301939
20.14396273 8.534412398 -9.739276993e-05
1.007651728 51.6724404 -244.0000974
-40.25064927 143.2542914 -108.3153494
-40.25064927 144.5764754 -87.60288839
-34.47984627 -2.460202131e-05 -215.7372914
-40.25064927 77.0919004 -146.9970354
0.7214057282 143.8415764 -9.739276993e-05
-40.25064927 137.7492334 -17.49698439
-40.25064927 54.7496034 -111.1201354
-40.25064927 15.8972604 -37.91919939
-40.25064927 81.0568724 -38.35273239
-19.07861127 13.0713164 -9.739276993e-05
-34.79771427 35.4081804 -0.9725113928
-40.25064927 20.7105274 -205.6407554
-40.25064927 15.1879574 -177.7274374
20.01957773 21.0915194 -152.0000974
-38.00570627 35.6944784 -250.0000974
-25.07004327 203.1031154 -152.0000974
-40.25064927 28.6906184 -216.8588984
-36.25064927 48.0660344 -80.15632839
-40.25064927 247.8457258 -137.8226404
23.39232873 197.2966664 -152.0000974
-40.25064927 69.3988034 -159.0992384
-15.96674927 -2.460202131e-05 -229.1336344
-40.25064927 93.9652644 -115.0294334
-40.25064927 63.4798744 -139.2276064
-40.25064927 52.5027274 -192.8405834
-40.25064927 32.5151524 -137.6457814
-40.25064927 72.7754104 -68.65957239
6.498439728 -2.460202131e-05 -188.7354754
-40.06554527 100.3543934 -2.334644393
-40.25064927 67.1997474 -23.42284639
-36.25064927 120.9899644 -92.05118439
-36.25064927 50.1403114 -17.12279039
37.49175373 241.9394744 -156.0000974
-40.25064927 4.377758398 -113.5525494
-40.25064927 92.1014244 -103.0217124
-40.25064927 200.2873144 -17.32268839
-0.5505192718 67.9999754 -249.0660984
-40.25064927 26.5816244 -179.3931504
-36.25064927 166.6506294 -11.52030939
-36.25064927 124.3968394 -102.3578114
-36.25064927 163.2210424 -94.28606539
-14.66855727 99.2778294 -156.0000974
-19.59329127 79.4740294 -156.0000974
