# .PCD v0.7 - Point Cloud Data file format
VERSION 0.7
FIELDS x y z
SIZE 4 4 4
TYPE F F F
COUNT 1 1 1
WIDTH 1281
HEIGHT 1
VIEWPOINT 0 0 0 1 0 0 0
POINTS 1281
DATA ascii
-76.260171 73.02373539 33.74990261
-149.999785 162.7439754 60.35089561
-7.824118 -2.460722794e-05 -18.01226839
-36.12234 -1.455005607 -60.25009739
-39.786632 28.92563839 -54.25009739
-208.035827 51.66131639 -60.25009739
-237.467094 -2.460722794e-05 -39.54341639
-77.375732 67.38466239 -54.25009739
-235.097713 31.06064439 -54.25009739
-171.262391 -2.460722794e-05 -36.79013539
-231.462663 -2.460722794e-05 57.75870161
-157.999785 15.44477139 36.00570061
-109.970432 68.87675939 37.74990261
-14.804499 47.34663739 -60.25009739
-239.11478 -2.460722794e-05 35.94663261
-137.683092 210.3771144 37.74990261
-110.47891 -2.460722794e-05 46.74459461
-27.909848 -2.460722794e-05 4.281640614
-135.536627 45.80361839 37.74990261
-134.965667 12.91192039 -54.25009739
-203.860437 -2.460722794e-05 -35.06438839
-75.178402 -2.460722794e-05 -21.37331939
-149.999785 136.0606214 44.72384061
0.0002150000591 5.765647393 -36.08897039
-85.974608 10.93603339 37.45592261
-116.261118 -2.460722794e-05 -23.69531739
-33.668774 14.93913539 -60.25009739
-153.187419 159.8759564 38.25490061
-157.999785 17.55054639 6.934564614
-118.093367 99.90246739 33.74990261
-202.362389 30.55510539 -60.25009739
-146.354713 -2.460722794e-05 -43.74532939
-204.131403 -2.460722794e-05 3.080519614
0.0002150000591 12.92754439 9.421497614
-157.999785 49.21158539 9.831540614
-157.999785 13.04035339 -27.66281339
0.09132600006 62.23340139 -54.25009739
-133.557038 -2.460722794e-05 45.49014761
-197.102145 -2.460722794e-05 33.70398561
-135.420008 241.3793481 33.74990261
-190.285785 0.1049183928 -60.25009739
-64.350689 42.04856839 -60.25009739
-186.180701 -2.460722794e-05 -20.08092639
-128.941786 13.69171539 33.74990261
-83.346197 -2.460722794e-05 13.73231861
-24.629993 59.63535039 -54.25009739
-235.369029 -2.460722794e-05 -10.71538739
-79.480871 168.5228094 33.74990261
-153.999785 8.646244393 22.98410361
-226.065241 67.99997539 -55.67161039
-232.444343 0.5256023928 -54.25009739
-91.801457 142.0068754 33.74990261
-78.344775 -2.460722794e-05 30.12124561
0.0002150000591 8.759878393 -4.935288386
-153.999785 48.33917139 -30.49587739
-57.888133 -2.460722794e-05 46.15423761
-156.040974 0.4999753928 -8.319258386
-142.030515 -2.460722794e-05 58.92227461
-250.559049 57.46374039 -60.25009739
-52.289544 -2.460722794e-05 19.49421961
-157.999785 86.75638939 29.01159261
-90.133743 219.2108379 33.74990261
0.1855260001 10.55365939 -60.25009739
-8.588485 -2.460722794e-05 56.47730261
-114.065191 170.5053324 33.74990261
-118.796152 42.59004039 -54.25009739
-96.395243 240.3890288 37.74990261
-153.999785 130.8074874 57.39807361
-95.937758 50.07954739 33.74990261
-96.010291 205.8245944 33.74990261
-208.448259 -2.460722794e-05 42.36054661
-153.999785 203.0716604 44.06805061
-153.978511 185.4755944 41.53503461
-33.592773 -2.460722794e-05 54.98028561
-138.106951 57.87170239 -54.25009739
-49.996563 57.65034439 -54.25009739
-23.765898 -2.460722794e-05 20.55105161
-94.47035 40.97120839 -60.25009739
-96.750812 12.44090239 -54.25009739
-96.505278 112.7512574 37.74990261
-153.999785 40.37588239 -12.44923739
-153.999785 54.95092539 -46.52215139
-80.464853 33.28295739 -60.25009739
-97.401396 -2.460722794e-05 41.86128661
-161.557954 67.67903939 -54.25009739
-180.007911 -2.460722794e-05 59.71692261
-156.631798 0.4999753928 59.18188761
-149.635557 109.6702364 34.66407761
-182.061141 36.09269839 -54.25009739
-157.999785 26.32875039 -48.26236139
-58.672332 -2.460722794e-05 -16.64690739
-216.751168 11.30316639 -60.25009739
-53.05151 -2.122669607 -60.25009739
-107.043515 67.99997539 -60.20982539
-11.953243 -2.460722794e-05 -48.48331639
-163.346816 -0.3709446072 -60.25009739
-84.775426 4.660990393 -60.25009739
-149.999785 240.1674205 49.92887561
-14.41414 35.26783339 -54.25009739
-149.999785 49.25192739 46.37196561
0.0002150000591 36.64374839 9.211659614
-135.005151 75.23766739 37.74990261
-111.423937 21.66140939 33.74990261
-157.999785 33.66719139 13.80934761
-177.481132 21.90850339 -54.25009739
-78.34924 24.28005139 36.94712661
-153.999785 49.73450239 -2.762121386
-52.962953 27.98969339 -54.25009739
-138.310893 183.5566814 33.74990261
-70.880719 13.48494539 -54.25009739
-148.608265 72.62296739 38.77484361
-36.987888 56.68971739 -60.25009739
-117.134593 215.2933602 37.74990261
-139.732764 32.28198439 33.74990261
-153.999785 83.55281539 56.11290461
-153.342577 252.4999294 38.62471361
-110.730237 89.72590739 37.74990261
-108.684031 116.8952774 33.74990261
-89.197818 96.96318339 37.74990261
-83.577797 -2.460722794e-05 48.19843161
0.0002150000591 36.33632739 58.11264461
0.0002150000591 41.88074339 -17.10370839
-113.10685 138.5299344 33.74990261
-129.190307 -2.460722794e-05 -11.60976139
-39.878245 -2.460722794e-05 -34.99771539
-59.24604 -2.460722794e-05 2.112377614
-66.472935 -2.460722794e-05 -30.84029639
-131.98795 149.7362664 33.74990261
-10.579957 -2.460722794e-05 29.73011561
-73.722198 55.57858739 -60.25009739
-125.758144 63.21385439 33.74990261
-153.999785 169.8336164 50.66183561
-153.999785 78.44713939 1.802593614
-79.91667 140.4711664 37.74990261
-146.243141 51.19835839 33.77391861
-94.025228 53.58338539 -60.25009739
-153.999785 155.0937484 49.85377961
0.2322250001 49.99997539 -41.94801339
0.0002150000591 33.01678439 -44.28006139
-96.295674 159.2409524 37.74990261
-241.178508 -2.460722794e-05 8.281722614
-225.079868 -2.460722794e-05 -28.93863839
-50.08182 -2.460722794e-05 35.47040161
-121.953342 -2.460722794e-05 40.00789561
-153.999785 61.88303039 -8.104953386
-91.215359 30.57093739 -54.25009739
-123.022495 239.8002001 37.74990261
-138.743556 0.9395173928 -54.25009739
-153.999785 226.3237486 46.31798561
-153.999785 24.12685439 45.65934961
-96.030212 185.5317034 33.74990261
-175.954894 44.99858039 -60.25009739
-157.999785 23.50093939 -34.30013739
-158.265402 38.70901939 -54.25009739
-155.673091 10.01316839 -54.25009739
-87.185785 122.5982034 33.74990261
-240.798063 40.77682139 -60.25009739
-189.273856 10.75026939 -54.25009739
-108.053622 205.4207754 37.74990261
-157.369265 119.0584174 43.53165761
-83.098403 -2.460722794e-05 -0.2409563864
-148.037927 32.78163139 -60.25009739
-137.176777 135.7441104 37.74990261
-127.793118 -2.460722794e-05 25.38843961
0.0002150000591 41.52361539 44.77431261
-220.148879 51.25932139 -60.25009739
-141.443451 221.3177875 33.74990261
-219.965744 25.79715039 -54.25009739
-116.236563 152.6568114 37.74990261
-133.720936 120.9728104 33.74990261
-194.644672 -2.460722794e-05 21.73510761
-113.556662 187.2206964 33.74990261
-100.073835 22.18892339 -60.25009739
-63.356562 -2.460722794e-05 -42.59704939
-157.999785 63.36634439 -23.16159739
-187.413739 55.30580439 -54.25009739
-149.999785 90.23545839 44.18437261
-149.999785 60.76011439 55.32315761
-157.999785 61.71601839 22.42487661
-151.731815 -2.460722794e-05 30.66101161
-248.307782 -2.460722794e-05 -34.93052339
-155.273431 50.61372639 -60.25009739
-245.061753 9.912219393 -54.25009739
-107.515959 246.5194819 37.74990261
-69.783107 -2.460722794e-05 42.00914161
0.0002150000591 30.98620639 -12.80903939
-153.999785 31.87747639 30.39078861
-24.046628 -2.460722794e-05 -6.764925386
-153.999785 193.1592054 57.38590061
-157.993417 25.81264139 -60.25009739
-156.915071 0.4999753928 -38.41112539
-157.999785 24.95092839 -2.536319386
-136.508508 67.65658139 -60.25009739
-26.838919 -2.460722794e-05 36.31969061
-249.381164 -2.460722794e-05 41.26863261
-249.828773 31.42945339 -54.25009739
0.0002150000591 17.16939839 22.72035461
-216.069046 -2.460722794e-05 6.810286614
-157.999785 70.00596239 48.08012061
-226.672516 -2.460722794e-05 33.11339861
-153.999785 105.6583574 52.45778261
-63.659331 52.14525439 -54.25009739
-127.679792 111.3190834 33.74990261
-194.252256 -2.460722794e-05 -48.96572339
-39.974138 -2.460722794e-05 -22.02317739
-47.742629 -2.460722794e-05 -11.14710739
-117.459536 53.90549839 -60.25009739
-106.850808 57.72450739 33.74990261
-4.880326 -2.460722794e-05 10.24219961
-116.639364 40.20113039 33.74990261
-94.819134 229.9828138 33.74990261
-232.836888 59.85505039 -60.25009739
-117.259071 227.3857201 37.74990261
-251.314396 67.99997539 -56.41249039
-218.701742 -2.460722794e-05 -5.826077386
0.0002150000591 36.40633939 -2.270166386
-99.141567 7.515028393 33.74990261
-153.999785 215.7340895 49.94190961
-76.372015 40.48658639 33.74990261
-195.207219 -2.460722794e-05 57.89607261
-157.999785 28.20597539 -15.24601839
-118.541351 74.67532339 33.74990261
-177.788907 -2.460722794e-05 -27.84071439
-157.999785 50.51942339 37.22956761
-128.278818 94.39626439 33.74990261
-90.480271 26.37922539 33.74990261
-153.999785 76.61910639 12.68570861
-93.577836 1.701398393 -54.25009739
-178.746646 -2.460722794e-05 -11.96011939
-12.891919 -2.460722794e-05 18.89029861
-105.312834 -2.460722794e-05 56.44643561
-153.999785 4.239875393 -18.44487639
-103.03306 136.7964074 37.74990261
-27.717166 -2.460722794e-05 -28.26207039
-113.140036 35.41675439 -60.25009739
-98.461851 -2.460722794e-05 17.95557961
-176.596575 11.03578639 -54.25009739
-169.471277 -2.460722794e-05 10.62866161
-87.141969 81.75206739 33.74990261
-136.986761 -2.460722794e-05 -24.73741439
-144.334506 96.90238139 37.74990261
-83.388991 60.62760439 -60.25009739
-6.210892 17.11627339 -54.25009739
-12.842082 57.59263539 -54.25009739
2.218781 -2.460722794e-05 56.74888261
-212.935184 -2.460722794e-05 -29.19223139
-129.71301 173.3866404 37.74990261
-137.656106 38.78191739 -60.25009739
-208.924982 37.31445039 -54.25009739
-207.319217 -2.460722794e-05 30.33259961
-166.672828 -2.460722794e-05 -6.917338386
-241.556755 58.10384139 -54.25009739
-124.340758 18.18718939 -54.25009739
-157.999785 4.585826393 40.29312361
-111.430203 24.27251539 -60.25009739
-79.421953 245.8760627 33.74990261
-84.414139 -2.460722794e-05 -35.18230839
-157.999785 92.81628439 52.54147861
-111.596227 -2.113410607 -54.25009739
-128.848168 -2.460722794e-05 14.63467761
-181.572841 -2.460722794e-05 3.637695614
0.0002150000591 25.74389839 58.97475161
-83.681637 64.95920439 33.74990261
-170.366423 -2.460722794e-05 40.56198261
-135.97302 200.4901054 33.74990261
-241.664605 1.240943393 -60.25009739
-193.799865 32.09882739 -54.25009739
-60.110106 20.93116939 -60.25009739
-142.058872 -2.460722794e-05 39.25965461
-18.723319 15.00659139 -60.25009739
-238.911463 -2.460722794e-05 46.46189561
-182.206716 -2.460722794e-05 -46.01454039
-38.99353 6.684534393 -54.25009739
-147.245934 228.9846835 37.98523761
-42.133628 40.63475539 -60.25009739
-27.928902 67.58562339 -60.25009739
-157.999785 31.69537939 51.64913061
-201.583565 20.16568139 -60.25009739
-142.785913 160.0693414 37.74990261
-50.810234 67.99997539 -54.93021639
0.0002150000591 19.80615839 -27.41473739
-247.87109 -2.460722794e-05 -14.69827939
-113.120091 128.1504324 33.74990261
-46.128424 19.79038039 -54.25009739
-163.623884 -2.460722794e-05 -29.71439739
-225.962734 38.00609939 -54.25009739
-85.814385 209.8907224 37.74990261
-87.109681 -2.460722794e-05 36.41752161
-107.087662 164.0879204 37.74990261
0.0002150000591 49.59597239 25.97036661
-157.999785 42.60400539 47.95530261
-0.5829189999 36.23320439 -60.25009739
-131.181016 25.44669639 37.74990261
-106.70761 227.7785098 36.53663761
-98.023816 -2.460722794e-05 -16.70229539
-157.999785 55.25623739 52.23856661
-171.449029 60.97787539 -54.25009739
-148.901449 131.6323624 34.30837761
0.7171120001 -2.460722794e-05 35.18449061
-28.079631 0.1476093928 -54.25009739
-90.019536 166.1485764 33.74990261
-153.999785 9.081679393 3.017935614
-87.076676 133.3257084 37.74990261
-111.283658 -2.460722794e-05 27.88490061
-86.790781 184.6631884 37.74990261
-228.065549 -2.460722794e-05 -45.17371939
-217.781297 -2.460722794e-05 -50.51412339
0.0002150000591 3.176861393 -23.51650739
-60.681208 32.66169439 -60.25009739
-71.810157 -2.460722794e-05 -49.85649439
-151.941491 177.0425294 36.42363261
-157.999785 44.32716339 -22.18568939
-108.180232 78.76846939 37.74990261
-153.332605 144.3017404 38.60402261
-149.999785 7.995964393 57.22398161
-75.999785 202.5630974 35.79316761
-111.105824 -2.460722794e-05 -33.52857839
-9.87739 8.135195393 -60.25009739
-121.157271 18.41047239 37.74990261
-106.639693 12.54371239 -54.25009739
-153.999785 16.92533639 -19.51407739
-68.113902 -2.460722794e-05 23.63631761
-73.131591 35.95352139 -54.25009739
0.0002150000591 22.84723539 14.67903161
-168.000842 42.28544539 -54.25009739
-146.831849 41.37749839 33.83201461
-210.171521 25.85283639 -54.25009739
-143.986174 52.86804639 -60.25009739
-109.191241 30.26291739 37.74990261
-127.176032 42.83206739 33.74990261
-146.007842 207.3607074 33.75069761
-148.326352 64.09173239 34.13546861
0.0002150000591 3.481836393 -13.44730339
-111.727621 108.5968864 37.74990261
-140.630299 248.5135117 37.74990261
-64.317909 6.356769393 -54.25009739
-239.546694 22.46291639 -54.25009739
-238.478077 13.69539139 -60.25009739
1.121169 -0.5442716072 -60.25009739
0.0002150000591 23.54636839 30.55994061
-100.340094 90.97690439 37.74990261
-157.999785 75.03981739 35.62151061
1.239118 54.83982639 -60.25009739
-37.07986 -2.460722794e-05 0.9466576136
-224.425448 57.35171439 -54.25009739
-125.497552 210.6667334 37.74990261
-86.400102 50.62962239 33.74990261
-1.011282 -2.460722794e-05 -1.282477386
-121.424884 130.5632384 37.74990261
-116.137253 246.2525101 33.74990261
-205.990469 62.32107639 -54.25009739
-125.547566 35.10083239 -60.25009739
-110.37978 46.97102239 37.74990261
-76.82582 193.3911674 33.74990261
-97.259585 74.05316239 37.74990261
-234.483926 -2.460722794e-05 -28.53042939
-149.999785 18.07851339 51.63182361
-250.381308 -2.460722794e-05 -44.08987739
-110.190909 0.4999753928 37.19840761
-14.781074 -2.460722794e-05 -8.221443386
-99.95367 60.84821739 -60.25009739
-186.018963 67.99997539 -56.70623339
-200.152079 10.84040739 -60.25009739
-153.999785 54.41807439 18.14411661
-157.999785 8.563455393 14.52656961
-130.873781 4.537868393 33.74990261
-182.005416 15.75424139 -60.25009739
-137.266251 232.2285423 33.74990261
-56.586092 51.09823439 -60.25009739
-135.53707 26.02915339 -60.25009739
-153.999785 70.77994739 -17.51233639
-17.092295 -2.460722794e-05 36.34669361
-236.332655 -2.460722794e-05 24.40404561
-149.999785 113.2339464 59.18491561
-125.02054 190.6674524 33.74990261
-85.419688 158.3858704 37.74990261
-202.515655 44.26390539 -60.25009739
-118.982149 -2.460722794e-05 50.32562561
0.0002150000591 20.88858039 48.26315061
-157.999785 110.4423904 40.34571161
-149.999785 38.44118539 58.38752861
-73.231833 23.95339939 -60.25009739
-168.920251 25.20653939 -54.25009739
-76.450612 101.0235614 37.74990261
-181.436482 29.20266339 -60.25009739
-153.999785 70.43479039 -3.543901386
-153.999785 172.9620574 60.33888361
-138.909749 -2.460722794e-05 -38.47156339
-220.123451 -2.460722794e-05 23.53444161
-197.571918 52.50826939 -54.25009739
1.255379 29.65642539 -53.25009739
2.131349 16.77561039 -48.55634139
-237.966292 51.84191539 -60.25009739
-153.999785 55.18711139 -24.33403239
-96.775872 214.261857 37.74990261
-157.999785 47.91855639 -40.18069039
0.0002150000591 19.74671339 -5.269322386
-75.214018 42.68690539 -60.25009739
-149.999785 60.21045839 46.29616361
-153.999785 85.62990339 37.23857261
0.0002150000591 49.67718339 5.908487614
-157.999785 138.4441684 60.09819161
-149.999785 117.0960784 48.31302161
-112.165778 -2.460722794e-05 -0.3673443864
-158.315988 -2.460722794e-05 17.19067761
0.0002150000591 32.74388439 -35.31511239
-157.999785 24.06900439 56.34657561
-63.423175 -1.994113607 -60.25009739
-174.13505 54.91000439 -60.25009739
-157.999785 81.98898539 20.61037661
-83.994261 -2.460722794e-05 23.19304761
-116.962239 65.00491439 33.74990261
-153.999785 93.25686839 20.04825461
-157.999785 33.36580439 60.42545661
-153.999785 2.323549393 -47.73824739
-195.364013 -2.460722794e-05 -1.007714386
-37.43223 49.20047939 -54.25009739
-133.098625 162.6236004 33.74990261
-28.54196 9.051484393 -54.25009739
-153.999785 25.33085939 8.618922614
-46.151483 27.23791839 -60.25009739
-30.441593 -2.460722794e-05 28.18153561
-91.399249 176.5508974 33.74990261
-226.471894 24.94855039 -60.25009739
-91.380338 42.45270839 33.74990261
-39.394549 -2.460722794e-05 10.19887161
-157.999785 58.46932139 30.66924861
-107.215387 9.248316393 37.74990261
-157.999785 34.20149339 -32.40031139
-55.537819 -2.460722794e-05 27.72005661
-103.270181 -2.460722794e-05 -37.62513439
-149.999785 144.5268594 47.26901861
-10.737119 21.76490239 -60.25009739
-40.613547 -2.460722794e-05 30.52324361
-122.754058 220.7951578 33.74990261
-149.999785 109.1164504 43.80231461
-111.581098 177.9521284 37.74990261
-81.158551 -0.6748466072 -54.25009739
0.0002150000591 41.34702739 35.05554961
-161.062942 -2.460722794e-05 2.153249614
-149.999785 154.2144314 57.69245161
-63.445908 -2.460722794e-05 56.06442161
-91.044352 57.52178739 37.74990261
-122.7153 -2.460722794e-05 -46.09032039
-92.983399 -2.460722794e-05 -33.39676339
-149.999785 164.1388274 45.35484761
-157.999785 25.07455639 37.94523461
-107.951245 61.69541339 -54.25009739
-97.565246 34.76052939 33.74990261
-149.923166 26.74185539 -54.25009739
-85.53773 13.66381539 -54.25009739
-19.015979 30.95327339 -60.25009739
-45.50437 63.61445139 -60.25009739
-243.537853 31.37543439 -60.25009739
-117.469382 193.8709804 37.74990261
-250.66107 -2.460722794e-05 32.67396561
-130.267557 67.01195639 -54.25009739
-157.999785 32.29386739 -7.147073386
-75.999785 236.5957458 33.90967061
-85.10427 149.5937734 37.74990261
-153.999785 42.13624239 6.196432614
-157.999785 54.77953939 -34.63513139
-88.157422 51.54096639 -54.25009739
-227.558106 -2.460722794e-05 -7.034965386
-71.224513 66.80000339 -60.25009739
-149.999785 71.87446839 52.83731161
-187.235127 42.22931339 -60.25009739
-165.755475 58.66423639 -60.25009739
-122.165162 174.2406084 33.74990261
-48.628203 4.369883393 -54.25009739
1.036974 49.99997539 -19.66224839
-70.44074 46.51635639 -54.25009739
-26.108532 -2.460722794e-05 59.14455161
-153.999785 194.9965274 46.89394361
0.2146760001 49.99997539 45.84006061
-75.999785 63.57570239 37.21071761
-135.989289 11.01002239 37.74990261
-202.230537 -2.460722794e-05 -45.95804439
-48.462308 47.34994239 -60.25009739
-177.296568 -2.460722794e-05 50.71057061
-120.80628 26.85312739 33.74990261
-129.645824 53.09440639 -54.25009739
-83.122206 92.25853339 33.74990261
-88.463208 41.23997839 -54.25009739
-108.803738 55.46485339 -60.25009739
-247.036681 50.19398939 -54.25009739
-78.132407 -2.460722794e-05 -29.50719339
-149.999785 82.36446239 47.29382061
-77.950946 -2.460722794e-05 -9.351537386
-18.885729 67.99997539 -54.35899439
-184.843112 -2.298124607 -54.25009739
-196.416322 17.22372939 -54.25009739
-143.323696 11.71611539 -54.25009739
-157.999785 72.53797139 6.492061614
0.0002150000591 5.349819393 16.03641061
-31.416734 50.28994139 -60.25009739
-6.305282 2.355406393 -54.25009739
-74.077425 -2.460722794e-05 49.50872861
-133.288413 7.275191393 -60.25009739
-153.708783 58.90488539 -60.25009739
-153.999785 247.057078 44.95957061
-130.570315 84.52171939 33.74990261
-153.999785 93.94235139 30.55930561
-78.662309 120.3347704 33.74990261
-141.52625 -2.460722794e-05 -3.945136386
-124.824953 7.857426393 -54.25009739
-136.785595 93.31038139 37.74990261
-244.655956 -2.460722794e-05 -3.252786386
-89.588796 61.28374939 -54.25009739
-76.14463 -2.460722794e-05 4.335092614
-76.114412 32.26311339 36.22542061
-92.677736 -2.460722794e-05 -23.06791439
0.0002150000591 41.65744939 15.83206661
0.0002150000591 8.286415393 45.23447461
-157.999785 12.16909739 43.65683861
-149.999785 99.20740839 49.11698161
-157.999785 35.74712339 -19.85989839
-79.985111 22.43222639 -54.25009739
-134.127776 37.65130639 37.74990261
-215.353687 43.96464639 -60.25009739
-153.999785 36.14214239 -47.62502039
-93.14879 105.2067854 37.74990261
-153.999785 46.70099539 -47.29610539
-153.999785 100.8723444 36.02502761
-112.455596 199.7019074 33.74990261
-103.825984 -2.460722794e-05 -3.320562386
-157.999785 31.00009339 22.20394661
-200.934038 -2.460722794e-05 51.98234961
-211.393794 -2.460722794e-05 -43.38692339
-194.887944 -2.460722794e-05 -15.14382239
-232.62941 41.52933339 -60.25009739
-124.264881 -2.460722794e-05 -25.43032539
-242.283381 -2.460722794e-05 16.39498561
-61.886767 -2.460722794e-05 -5.711883386
-157.999785 3.240372393 51.59120561
-104.81122 -2.460722794e-05 -50.20708239
-96.875999 149.9659294 33.74990261
-142.458869 5.034349393 -60.25009739
-158.468644 -2.460722794e-05 25.34120761
-153.999785 7.575385393 -32.19782739
-139.504805 69.15046039 33.74990261
-149.999785 33.14101339 51.24740661
-209.869702 46.47795639 -54.25009739
-153.999785 44.40553439 40.81028261
-121.899987 49.02156239 33.74990261
0.0002150000591 43.18868239 -35.59362539
-149.999785 187.5174074 48.31381061
0.0002150000591 13.18085339 -32.08343739
-148.078027 60.57375939 -54.25009739
-98.678412 224.0119758 37.60431561
-157.999785 57.36521439 4.185801614
-140.639452 108.3107694 33.74990261
-144.813567 -2.460722794e-05 5.755834614
-152.770689 124.8541134 37.54037961
-129.095196 69.73604439 37.74990261
-57.180579 -2.460722794e-05 -37.39867539
-157.999785 39.11938439 29.42678961
-124.198673 151.4451454 37.74990261
-88.768002 18.48131639 37.74990261
-212.071656 -2.460722794e-05 -1.292362386
-55.472657 6.253840393 -60.25009739
-125.672537 57.90783539 -60.25009739
-228.460046 -2.460722794e-05 -16.21290039
0.0002150000591 7.919980393 3.028790614
-90.817672 13.31369739 -60.25009739
-153.999785 69.89299639 29.30801961
-144.294484 139.3142314 37.74990261
-148.232915 81.14288839 34.10682761
-15.037595 8.867853393 -54.25009739
-127.135867 22.58477539 -60.25009739
-153.999785 233.3515019 53.00586361
-149.638074 -2.460722794e-05 55.45739261
-36.340552 19.38083739 -54.25009739
-141.830543 35.74205339 -54.25009739
-99.814936 -2.460722794e-05 49.39770961
-23.168058 -2.460722794e-05 -42.79749439
-153.999785 123.9228994 48.77409561
-97.961543 29.79737239 -60.25009739
-86.560622 67.99997539 -60.02058739
-215.477742 63.21165939 -54.25009739
-153.999785 11.83680539 -4.352157386
-120.142442 -2.460722794e-05 16.14637861
-217.557145 -2.460722794e-05 49.75148061
-151.946429 191.0923074 36.42970861
-111.776394 47.41940739 -54.25009739
-178.267258 -2.460722794e-05 -3.472951386
-80.48683 80.65886339 37.74990261
-119.395866 140.9561994 37.74990261
-28.867216 36.85484039 -54.25009739
-172.659796 32.23109939 -54.25009739
-149.999785 218.3696325 56.12851661
-162.551308 41.32648939 -60.25009739
-157.999785 74.77799039 54.26970461
-233.082493 8.330598393 -54.25009739
-104.44104 50.08277039 33.74990261
-126.396496 40.80606339 -54.25009739
0.0002150000591 8.206041393 29.29265661
-153.999785 103.8466284 60.04648261
-157.999785 90.65302339 41.65396361
-122.874352 10.81138539 37.74990261
-184.995379 49.69099039 -60.25009739
-120.965369 0.2581743928 -60.25009739
-149.999785 209.4787434 42.16465961
-150.746038 10.48192339 -60.25009739
-157.082656 20.94791139 -54.25009739
-129.469044 247.1932601 37.74990261
-146.607477 25.13996839 33.80987261
-185.179397 -2.460722794e-05 24.59253061
-197.793923 57.47991439 -60.25009739
-114.504281 160.2219464 37.74990261
-153.999785 16.39395739 13.48252961
-157.999785 40.97308739 19.86276861
-231.672846 -2.460722794e-05 39.03901061
-102.905092 234.4251266 37.74990261
-103.992364 63.94436439 37.74990261
-5.332535 67.84007939 -60.25009739
-41.874987 -0.4721856072 -54.25009739
-128.393461 126.5456014 33.74990261
-158.544052 -0.7327036072 -54.25009739
-220.719877 18.14660139 -54.25009739
-222.65634 4.604212393 -54.25009739
-157.999785 94.27548039 60.07154161
-149.999785 53.26596239 52.90636261
-214.896342 25.17068539 -60.25009739
-154.311668 65.17873039 -54.25009739
-114.795967 -2.460722794e-05 -14.24822539
-43.965243 35.34801239 -54.25009739
-209.560056 -2.460722794e-05 -53.73761839
-103.558921 176.5824074 37.74990261
-160.865745 -2.460722794e-05 -15.73470039
-225.024977 -2.460722794e-05 53.65694761
-153.999785 21.69990839 -43.70122539
-153.999785 25.11145339 -9.540009386
-148.491705 167.6494164 34.18353761
-153.999785 21.95900039 32.28352961
-208.881913 -2.460722794e-05 -22.49432539
-24.786708 53.98865839 -60.25009739
-147.410135 90.57731739 33.88908261
-150.046216 3.417023393 -54.25009739
-12.427095 43.38141839 -54.25009739
-188.785877 -2.460722794e-05 -27.18925539
-137.090285 191.5339254 37.74990261
-153.999785 29.45013539 -36.72325939
-8.008683 -2.460722794e-05 -4.858781386
-157.999785 65.66324339 -13.64201939
0.0002150000591 23.16358739 38.10713961
-66.963925 11.10605739 -60.25009739
-35.7431 31.06240139 -60.25009739
-34.716931 41.99440039 -60.25009739
-153.999785 207.1286524 50.42308361
-31.663274 5.743534393 -60.25009739
-94.85231 14.78866339 33.74990261
-113.070145 -2.460722794e-05 10.35231461
-149.999785 16.29237339 58.93193961
-96.729094 135.9690814 33.74990261
-107.444277 100.8392894 37.74990261
-129.178505 204.1219474 37.74990261
-78.860585 -2.460722794e-05 -47.14085239
-59.880088 41.51821639 -54.25009739
-138.346767 154.0231274 37.74990261
-28.121692 -2.460722794e-05 48.42127561
-60.371531 -2.460722794e-05 -26.48378039
-154.88963 61.92534539 -43.92205639
-87.079636 113.7295544 37.74990261
-153.999785 15.60516439 -49.55257739
-157.999785 66.36193839 1.291906614
-116.256648 209.0325704 33.74990261
-70.40114 32.41923039 -60.25009739
-107.014682 23.60483039 -54.25009739
-26.269767 16.01608139 -60.25009739
-149.999785 119.6714424 55.32126261
-87.480251 71.37565339 33.74990261
-90.20206 239.3086885 33.74990261
-186.315065 -2.460722794e-05 -12.63331939
-179.49134 47.58945039 -54.25009739
-149.999785 172.4936214 45.01993861
-55.9299 -2.460722794e-05 13.04350361
-18.669293 0.1875513928 -54.25009739
-149.999785 225.8746847 52.66925461
-117.719338 -2.460722794e-05 24.22706761
-122.497082 233.5951895 33.74990261
-153.468479 223.1880495 38.98709361
-223.518952 44.98329439 -54.25009739
-114.082645 80.65396539 33.74990261
-78.038005 174.5463974 37.74990261
-236.663227 25.61204439 -60.25009739
-56.278973 0.6549603928 -54.25009739
-191.855488 36.50600939 -60.25009739
-146.287588 115.6934934 37.80128661
-101.710218 39.84930539 -60.25009739
-246.512343 20.19672139 -54.25009739
-37.110507 -2.460722794e-05 48.55659561
-117.996273 67.26630039 -54.25009739
-153.999785 136.3001644 52.55843161
-238.798096 44.45333039 -54.25009739
-29.369499 -2.460722794e-05 -37.07247139
-203.74192 12.98058639 -54.25009739
-180.496125 -2.460722794e-05 -35.88485039
-132.805741 56.33250839 -60.25009739
-149.999785 25.36014339 53.89679561
-67.883457 -2.460722794e-05 -21.65006039
-4.739415 36.28315439 -54.25009739
-233.796611 -2.460722794e-05 3.240084614
-201.257148 -2.460722794e-05 26.28530261
-97.601536 -2.460722794e-05 33.46462261
-157.999785 66.70139539 55.75889461
-209.337686 -2.460722794e-05 51.35274261
-243.248343 35.48761839 -54.25009739
-224.012301 11.78547439 -60.25009739
-171.903165 16.59145239 -54.25009739
-148.135284 202.2382304 38.45390361
-252.137956 14.25134939 -60.25009739
-34.522727 64.52670239 -60.25009739
-129.872031 -2.460722794e-05 -20.80753339
-50.622179 -2.460722794e-05 46.13232661
-139.253529 -2.460722794e-05 -45.72366839
-157.999785 44.08932839 0.4740826136
-162.25275 48.56880439 -60.25009739
-153.999785 46.85360739 31.59458661
-131.166925 60.53198239 37.74990261
-149.999785 54.68598339 60.00052161
-149.999785 29.15437139 42.33456461
-160.73508 60.49443639 -54.25009739
-226.409776 -1.883117607 -35.79105239
-102.627345 12.85273239 -60.25009739
-134.236089 22.22392339 -54.25009739
-80.900929 8.128842393 -54.25009739
-153.999785 18.90577639 -28.93617939
-13.215758 -2.460722794e-05 -41.14553139
-104.206335 86.21404139 33.74990261
-135.120725 -2.460722794e-05 -7.526126386
-93.507866 88.16756939 33.74990261
0.4194140001 6.593121393 -54.25009739
-114.0072 16.27050139 37.74990261
-66.127696 63.57364939 -54.25009739
-126.513462 144.4005584 37.74990261
-89.92822 6.052624393 33.74990261
-128.901565 48.56251539 37.74990261
-98.806909 48.22240139 -60.25009739
0.0002150000591 25.39339139 -17.31676039
-19.575594 54.53325839 -54.25009739
-53.638826 59.16076939 -60.25009739
-41.602189 -2.460722794e-05 -7.429059386
-67.703931 19.37772239 -60.25009739
-153.999785 45.44979639 14.44355561
-171.72164 0.4518483928 -60.25009739
-157.999785 14.52550739 22.09842761
-178.564148 60.14064939 -54.25009739
-100.88864 144.3215124 37.74990261
-102.488183 -2.460722794e-05 11.36274161
-149.999785 176.1413824 53.89792161
-75.999785 159.6753664 36.51840761
-245.177839 46.87076439 -60.25009739
0.0002150000591 16.18271439 42.94565061
-142.294117 48.84745139 -54.25009739
-153.999785 78.92392239 30.62051861
-85.891913 -2.460722794e-05 -42.11742739
-163.592832 29.88395539 -54.25009739
-153.999785 27.07350639 15.49056061
-111.337608 37.72520739 37.74990261
-101.010688 57.41054239 37.74990261
-153.999785 145.0683154 54.44909061
-153.999785 18.01282639 -37.66168439
-123.520196 91.01927839 37.74990261
-247.748945 -2.460722794e-05 48.77111161
-51.60803 50.77612239 -54.25009739
-5.402385 -2.460722794e-05 -45.85055939
-119.994212 147.4252184 33.74990261
-168.595725 67.99997539 -54.60392039
-153.999785 64.58051239 50.35158761
-90.549468 155.6712854 33.74990261
-103.481048 188.0045894 33.74990261
-93.153635 250.2786687 33.74990261
-194.388387 58.91436839 -54.25009739
-243.402227 22.18879639 -60.25009739
-164.310914 -2.460722794e-05 -37.91952039
-153.999785 75.64419039 46.77419861
-128.498936 218.7874973 37.74990261
-95.056529 119.6266484 37.74990261
-11.628918 -2.460722794e-05 50.14749961
-153.999785 38.88971739 52.36984361
-153.999785 39.96263939 -32.56117939
-90.929219 190.3231264 37.74990261
-78.796678 45.70727739 37.74990261
-156.82162 -2.460722794e-05 -31.42194139
-157.999785 30.37060939 -42.40142039
-149.999785 246.3176544 53.28322161
-134.31529 215.0146087 33.74990261
-109.828964 222.144242 33.74990261
-39.765274 18.39559039 -60.25009739
-146.643806 102.1784274 33.81345761
0.0002150000591 41.45397139 -47.98707139
-86.385963 223.5131728 37.74990261
0.0002150000591 8.362519393 37.20450861
-123.6477 54.55487739 37.74990261
-153.999785 19.70598839 1.671535614
-153.529108 47.56411639 -54.25009739
-148.013986 246.762501 34.03726061
-5.931243 56.89816139 -54.25009739
-100.824475 202.8166554 37.74990261
-204.305411 1.046781393 -60.25009739
-230.294395 -2.460722794e-05 -23.01118039
-157.999785 82.23276839 13.36858461
-22.683494 -2.460722794e-05 -16.82555039
-157.999785 45.62933839 -14.50712339
-157.999785 42.88373439 -7.409821386
-123.525585 77.27881439 37.74990261
-81.528907 38.98379639 -54.25009739
-153.999785 69.81884739 11.61705061
-157.999785 122.8363384 55.19173261
-2.618525 50.77385339 -54.25009739
-56.94646 -2.460722794e-05 35.37566761
-120.224794 2.218577393 33.74990261
-215.316669 40.63962439 -54.25009739
-121.187069 106.0238054 33.74990261
-236.518344 37.99549939 -54.25009739
0.0002150000591 38.04304439 -25.99936539
-129.435738 -2.460722794e-05 -47.29568639
-161.345975 34.47388639 -60.25009739
-136.935167 26.05618739 33.74990261
-153.999785 181.0710174 46.74875561
-15.096818 -2.460722794e-05 58.53077661
0.0002150000591 41.61819039 26.32166061
-53.368893 24.77555939 -60.25009739
-228.586281 -2.460722794e-05 47.41245861
-172.554435 47.35274539 -54.25009739
-149.431927 149.7614314 39.78018161
1.423084 67.99997539 -57.62287839
-153.81492 237.2449874 40.11808961
-201.292843 -2.460722794e-05 9.271852614
-77.884943 28.91109039 -54.25009739
-157.999785 64.06103539 16.03138361
-194.284714 4.292734393 -54.25009739
-217.393688 32.86960339 -54.25009739
-131.921567 131.4219414 37.74990261
-151.633668 54.77368539 -54.25009739
-84.404172 243.545438 37.74990261
-90.090548 -2.460722794e-05 14.52906861
-184.257734 21.58439739 -54.25009739
-74.025892 13.17725039 -60.25009739
-125.60459 167.2600884 33.74990261
-40.020488 13.37229939 -54.25009739
-176.110762 19.12946039 -60.25009739
-194.790446 -2.460722794e-05 -8.393666386
-157.999785 9.509265393 -19.78671939
-132.100739 14.03003539 -60.25009739
-157.999785 21.28938339 -16.29161239
-204.995142 51.23847439 -54.25009739
0.0002150000591 39.77362839 51.27046561
-130.760759 39.35179539 -60.25009739
-13.746905 50.14986839 -54.25009739
0.0002150000591 19.98408739 55.54860461
-105.821583 5.894326393 -54.25009739
-130.815657 -2.460722794e-05 60.38390161
-85.751315 42.46097139 -60.25009739
-95.795109 -0.2740436072 -60.25009739
-157.999785 68.34597439 35.63177461
-77.990621 -2.460722794e-05 20.24258661
-149.999785 197.3207114 51.71569261
-34.923895 -2.460722794e-05 -53.83951539
-133.13409 179.1258004 37.74990261
-239.415335 60.98656139 -60.25009739
-82.14318 71.13702439 37.74990261
-157.999785 49.15536839 49.20730961
-81.454358 184.6070174 33.74990261
-107.90925 37.14538139 -54.25009739
0.0002150000591 10.62834839 21.43500461
-157.999785 7.139681393 -41.53826039
-157.999785 83.18854639 4.218893614
-200.016754 50.98164239 -60.25009739
-168.149514 51.75158539 -60.25009739
-216.332241 -2.460722794e-05 42.18066261
-150.20658 -2.460722794e-05 -5.169414386
-141.635477 203.4385244 37.74990261
-142.105243 25.03155339 -60.25009739
-140.431941 -2.460722794e-05 -32.00765439
-95.386897 58.05414039 -54.25009739
-121.954629 40.67880039 -60.25009739
-124.651044 60.54954939 -54.25009739
-157.999785 7.038139393 34.13196961
-155.903572 18.38746539 -60.25009739
-1.034783 -2.460722794e-05 -33.00212739
-247.32452 63.18878839 -54.25009739
-53.225937 12.49787139 -54.25009739
-157.999785 93.80631139 25.29834161
-95.231728 130.9261184 37.74990261
0.0002150000591 28.36526739 24.94499561
-213.977478 -2.460722794e-05 -16.38509239
-85.334711 -2.460722794e-05 7.433147614
-200.161484 28.93279739 -54.25009739
-144.061467 -2.460722794e-05 -26.50572139
-153.999785 55.65217139 -10.25221539
-161.869517 12.24767639 -54.25009739
-58.742507 24.83871339 -54.25009739
-236.067396 -2.460722794e-05 -4.178484386
-153.999785 18.38063939 42.46917561
-17.308587 21.81362039 -60.25009739
-157.999785 12.46595239 30.15050161
-133.257108 169.5701394 33.74990261
-124.136627 227.2361232 33.74990261
-133.331184 20.56709239 33.74990261
-90.75105 47.61959639 37.74990261
-130.676765 31.00760339 -60.25009739
-10.80612 65.12637739 -54.25009739
0.0002150000591 27.44896939 -7.291839386
-157.999785 94.97542939 35.63069161
-13.187722 37.55031039 -60.25009739
-144.619907 237.6367874 33.74990261
-157.999785 19.52072339 27.75828661
-149.999785 252.1768669 45.41105561
-153.999785 12.18493739 50.22494361
-4.982905 28.09842239 -54.25009739
-238.364172 -2.460722794e-05 -16.48706639
-54.197634 32.22451939 -60.25009739
-186.416008 31.27504939 -54.25009739
-126.899944 117.5818684 37.74990261
0.0002150000591 11.49595839 -39.14301739
-226.424266 58.83477439 -60.25009739
-153.999785 154.3112524 43.40870461
-2.035999 16.65336739 -60.25009739
-157.985818 128.5322384 51.01171461
-149.567991 103.4946624 39.97424361
-122.162443 41.84362139 37.74990261
-20.271517 65.65902339 -60.25009739
-117.196104 164.5498674 33.74990261
-91.906604 34.53719239 37.74990261
-153.927026 132.4004634 41.10226761
-148.233969 160.2940454 34.10559861
0.0002150000591 13.48890539 49.08132061
-52.883825 21.52980239 -54.25009739
-125.67414 -2.110256607 -37.28604339
-75.999785 133.0340654 34.69350061
-223.758972 31.83393339 -54.25009739
-128.990322 241.8423887 33.74990261
-161.320145 63.33508139 -60.25009739
-183.352524 13.86870839 -54.25009739
-142.621823 74.73862339 37.74990261
-19.331315 18.86325639 -54.25009739
-40.445746 -2.460722794e-05 -41.39585639
-157.999785 60.46144039 57.27770061
-163.815227 -2.460722794e-05 38.81734761
-157.999785 110.6133704 51.67584561
-116.137923 12.41162139 -54.25009739
-73.084318 52.35996139 -54.25009739
-157.999785 31.18627439 36.00232761
-157.999785 66.53303039 -28.73327039
-139.001566 67.99997539 -54.35855639
-153.999785 5.734949393 45.16114961
-31.490119 -2.460722794e-05 17.89818461
-104.802819 67.25984839 -54.25009739
-171.436796 63.18566839 -60.25009739
-78.161789 96.29109839 33.74990261
-185.878628 4.728029393 -60.25009739
-33.331178 66.36281839 -54.25009739
0.0002150000591 43.20917439 56.68719761
-142.677703 189.9668884 33.74990261
-227.129312 17.34651439 -60.25009739
-153.999785 24.55746739 -24.45949739
-149.332061 57.82327939 34.50294561
-101.68475 58.92995239 -54.25009739
-143.179225 59.17342839 -60.25009739
-126.787374 -2.460722794e-05 35.51353461
-160.856389 47.02312339 -54.25009739
-120.917494 114.6880054 33.74990261
-149.999785 65.58299939 42.91354661
-18.114929 -2.460722794e-05 -46.96127239
-157.999785 41.83592339 59.66976261
-58.931117 38.75085639 -60.25009739
-62.231689 58.58008639 -54.25009739
-96.16487 180.6247784 37.74990261
-8.391209 9.502007393 -54.25009739
-45.606466 52.78705839 -54.25009739
-153.999785 26.21614239 27.56356661
-53.68814 18.45716339 -60.25009739
-115.299585 123.7604874 37.74990261
-99.198394 12.54412439 37.74990261
-156.602671 -1.121964607 -60.25009739
-62.380333 19.67396439 -54.25009739
-151.888268 206.8682844 36.36028361
-114.052713 29.76856839 33.74990261
-224.24073 -2.460722794e-05 14.87742661
-3.85505 -2.460722794e-05 30.83976561
-218.253686 9.120535393 -54.25009739
-213.821161 62.13876439 -60.25009739
-149.999785 125.9293804 54.60259761
-153.999785 86.82540739 49.23574061
-137.691881 125.8595224 33.74990261
0.0002150000591 7.226751393 57.63291561
-52.411119 -2.460722794e-05 -15.99680939
-65.097108 53.39048539 -60.25009739
0.0002150000591 34.57234239 47.72824061
-135.750917 -2.460722794e-05 1.617709614
-199.212076 -2.460722794e-05 -24.59558539
-157.999785 21.40209139 11.90438161
-238.183373 3.093993393 -54.25009739
-153.999785 56.93055739 26.07130361
-206.592992 -2.460722794e-05 -14.60533839
-41.687593 -2.460722794e-05 58.46923761
-115.54738 -2.460722794e-05 -49.85681439
0.0002150000591 40.28237939 2.663401614
-153.999785 159.0665294 54.70838661
-100.829983 38.25388039 -54.25009739
-153.999785 59.00877339 -37.92558139
-83.796752 214.2673897 33.74990261
-113.383865 251.8778688 33.74990261
-23.362978 9.184191393 -60.25009739
-189.185888 55.13666039 -60.25009739
-153.999785 20.40486439 -4.546994386
-100.21324 -1.243157607 -54.25009739
-126.862202 -2.460722794e-05 -5.813092386
-143.822373 25.25928339 -54.25009739
-149.999785 188.4165254 56.70484461
-157.999785 7.218000393 8.436432614
-68.184481 -2.460722794e-05 7.382772614
-202.986391 -2.460722794e-05 60.19482661
-237.253132 14.79317139 -54.25009739
-149.999785 44.50500439 54.66919661
-46.793038 18.31731739 -60.25009739
0.0002150000591 41.76388439 -10.89597439
-222.274817 -2.460722794e-05 6.900001614
0.0002150000591 26.82271539 -43.98393639
-18.699882 29.42025839 -54.25009739
-74.596476 48.85350539 -60.25009739
-157.999785 58.80879639 46.84147361
-134.367307 87.34354239 37.74990261
-90.000332 -2.460722794e-05 -49.49006839
-107.516615 -2.460722794e-05 -16.42761339
-232.771741 9.822334393 -60.25009739
-50.776061 53.23059139 -60.25009739
-77.036563 4.588505393 -60.25009739
-159.35848 53.76514539 -54.25009739
-153.999785 89.75393739 13.61963961
-107.782326 -2.460722794e-05 22.81102861
0.0002150000591 43.14957939 -42.06147239
-114.021159 37.94019239 -54.25009739
-89.847838 23.95283739 -60.25009739
-94.079801 21.38094439 33.74990261
-153.999785 61.80124539 35.06341461
-58.562064 -2.460722794e-05 52.31634061
-148.830673 47.14998439 38.92531561
-101.936321 44.46942739 33.74990261
0.0002150000591 45.44992639 21.43382361
-128.914218 74.39382139 33.74990261
-79.612831 53.84306939 -60.25009739
-84.564357 140.8028894 33.74990261
-82.78561 115.5365324 33.74990261
-110.949293 63.26607539 -60.25009739
-77.832888 111.2722644 33.74990261
0.0002150000591 19.16645839 9.769154614
-84.484684 27.68230139 33.74990261
-153.999785 140.5234394 43.41742361
-141.945715 -2.460722794e-05 -20.74946539
-238.064004 67.47832739 -54.25009739
-23.863748 60.63541639 -60.25009739
-77.742829 57.54537339 33.74990261
-141.876169 52.83546739 37.74990261
0.0002150000591 28.60688739 53.55684461
1.786863 49.99997539 0.05984861361
-210.113185 37.01326839 -60.25009739
-157.999785 67.05480939 -6.715460386
-64.004937 -2.460722794e-05 46.00024061
-49.946487 3.630595393 -60.25009739
-43.81558 -2.460722794e-05 36.82712461
-108.153513 10.22969539 -60.25009739
-41.0239 40.94376839 -54.25009739
-97.565906 31.02499339 -54.25009739
-157.999785 19.60743939 -23.26229439
-198.82777 67.53912339 -60.25009739
-149.999785 236.6857066 56.17524361
-116.816826 89.41163339 37.74990261
-195.575848 17.81818339 -60.25009739
-153.999785 77.85668639 -4.244511386
-135.8617 66.41253339 37.74990261
-92.72483 16.97259939 -54.25009739
-148.024127 235.7087748 38.37838261
-110.460226 190.5565204 37.74990261
-157.999785 69.97528139 41.46791061
-101.020552 2.576765393 37.74990261
-71.246606 -2.460722794e-05 0.7800006136
-153.56172 31.57334239 -54.25009739
-93.676641 10.07797839 37.74990261
-174.003181 32.88611739 -60.25009739
-157.999785 28.59781539 5.475436614
-38.328153 6.357934393 -60.25009739
-216.621564 56.16227739 -60.25009739
-101.473482 183.9497524 37.74990261
-115.136126 58.21153839 33.74990261
-212.690264 -2.460722794e-05 37.36779561
-157.999785 61.03118239 -1.535799386
-149.999785 211.2688634 52.22464461
-157.999785 81.87124939 34.03480561
-191.985322 38.78250039 -54.25009739
-98.018211 5.776920393 -54.25009739
-153.999785 95.32799839 40.25915261
-169.592294 -2.460722794e-05 31.84058661
-250.964664 8.748204393 -54.25009739
-86.238749 168.5762544 37.74990261
-153.999785 62.67983539 -18.73358339
-91.29602 30.80738339 -60.25009739
-174.118996 54.70929439 -54.25009739
-157.8244 0.4999753928 44.68592061
-106.848718 212.0921648 33.74990261
-60.206855 64.54183839 -54.25009739
-58.269799 -2.460722794e-05 19.81432861
-153.999785 2.080800393 -24.02670439
-197.032624 33.27415839 -60.25009739
-151.93669 136.3310154 36.41740261
-116.644787 -2.460722794e-05 -4.321824386
-152.121329 26.90095839 -60.25009739
-88.960022 126.6515214 37.74990261
-118.778811 -2.460722794e-05 6.935905614
-153.999785 114.8439914 40.78841661
-71.82599 19.37301239 -54.25009739
-153.999785 84.34598339 25.30982461
-121.12875 66.45786839 37.74990261
1.418789 -2.460722794e-05 -18.68385639
-96.102876 165.1903664 37.74990261
-157.999785 50.92462739 -26.92688639
-194.520824 41.82468339 -60.25009739
-142.257787 -2.460722794e-05 11.12699061
-223.435695 34.25634239 -60.25009739
-123.715165 -2.460722794e-05 20.89814461
-149.738942 167.3715914 40.38456161
1.046567 37.13568539 -53.25009739
-164.578064 -2.460722794e-05 46.94080361
-78.773926 207.8148884 37.74990261
-78.895361 16.61894739 -54.25009739
-138.681551 172.1007314 33.74990261
-183.757821 -2.460722794e-05 -30.28656639
-149.999785 170.5960384 55.92412261
0.0002150000591 36.46671339 -8.298577386
-81.83168 130.6253144 37.74990261
-149.999785 252.0050587 60.34979061
-141.706913 6.054725393 -54.25009739
-84.96758 20.53137239 33.74990261
0.0002150000591 18.37835639 -34.83483139
-123.865863 21.76323239 33.74990261
-153.999785 51.15943239 -37.34423139
-157.999785 10.07854739 -8.281993386
-243.564048 26.73850539 -54.25009739
-149.999785 3.074255393 60.44005361
-152.452257 45.47120839 -60.25009739
-102.25953 240.3198884 37.74990261
-157.999785 49.59409139 43.36369861
-199.01173 -2.460722794e-05 17.82918661
-90.930069 48.61354139 -60.25009739
-110.378131 161.3262304 33.74990261
-78.325922 85.86364039 33.74990261
-115.286265 4.020043393 37.74990261
-85.587424 41.66783739 33.74990261
-166.059005 58.08666039 -54.25009739
-5.259298 66.95424739 -54.25009739
-181.943635 39.75839639 -60.25009739
-157.999785 5.613829393 -50.42633239
-153.999785 71.96334439 17.04361461
-207.892772 56.80501439 -54.25009739
-124.834861 124.2293294 37.74990261
-145.10482 -2.460722794e-05 34.28526961
-124.682625 196.4877304 33.74990261
-102.732292 105.7630714 33.74990261
0.0002150000591 17.43910939 0.07130961361
-135.551327 1.920802393 -60.25009739
-24.484077 65.44452939 -54.25009739
-115.727144 240.427723 33.74990261
-153.999785 31.74616039 56.53403361
0.0002150000591 31.08927839 38.64017561
-157.999785 26.13331939 31.85284161
-110.475637 -2.460722794e-05 52.54148361
-16.132168 61.60197639 -60.25009739
-157.999785 4.150665393 -12.88192539
-231.131627 -2.460722794e-05 -38.55865739
0.0002150000591 45.48177739 40.55360661
-149.999785 109.8364874 52.53183561
-108.414857 198.6461894 37.74990261
-141.137792 145.6899394 37.74990261
-107.654247 19.86804939 37.74990261
-74.589321 2.523946393 -54.25009739
-135.27045 237.2178581 37.74990261
-102.951017 199.2403354 33.74990261
-187.946625 -2.460722794e-05 -46.59529839
-9.05526 46.89549539 -60.25009739
0.0002150000591 7.314765393 -17.75382939
-153.999785 11.34691539 36.64766361
-28.887484 -2.460722794e-05 9.959131614
-157.999785 7.514285393 -26.06006339
-232.685027 42.28484939 -54.25009739
-157.999785 19.45385839 -48.04740339
-90.762546 24.84493239 -54.25009739
-83.795326 -0.9985486072 -60.25009739
-121.300384 211.7733624 33.74990261
-166.481799 20.01151539 -54.25009739
-137.168441 14.95007639 33.74990261
-5.1616 -2.460722794e-05 25.08545161
-157.999785 104.9916014 38.55858061
-105.947192 139.6847254 33.74990261
-82.314837 50.22988839 37.74990261
-225.727847 20.93002139 -54.25009739
-157.999785 59.21765039 -16.24765239
-108.255453 -2.460722794e-05 -28.56987439
-142.605908 90.16911539 37.74990261
-182.518601 -2.460722794e-05 -24.63268039
-99.007579 162.2845284 33.74990261
-97.475877 176.7653194 33.74990261
-139.759152 194.8751144 33.74990261
-82.653721 146.3375484 33.74990261
-104.722374 95.82028639 37.74990261
0.0002150000591 28.52604339 14.08895661
-159.992749 -2.460722794e-05 -4.230898386
0.0002150000591 32.34589439 29.86642361
0.0002150000591 15.08510639 -24.23884439
-147.612106 18.51214739 38.10920861
-162.446322 22.27861539 -60.25009739
0.0002150000591 24.66822439 -30.35449039
-123.636978 -2.460722794e-05 11.66745061
-157.999785 107.9872104 56.71283361
-157.999785 39.26044439 39.43639561
-149.999785 90.81121939 55.97831361
-131.03923 17.53962439 -54.25009739
-105.623103 60.71567939 -60.25009739
-157.999785 101.9871324 29.11530661
-144.256756 106.5688734 37.74990261
-120.086876 244.6440767 37.74990261
-244.508921 -1.166186607 -54.25009739
-113.929437 231.0887755 33.74990261
-221.705623 64.68404839 -54.25009739
-107.732976 55.82834439 -54.25009739
-153.999785 98.70685939 56.47041461
-57.896047 0.7828563928 -60.25009739
-148.351848 -2.460722794e-05 10.15298061
-156.406539 43.47400239 -51.25009739
-157.999785 101.6826944 52.33302961
-92.555002 113.2083054 33.74990261
-153.999785 30.08989339 -0.9374493864
-157.999785 56.80632339 9.794948614
-97.819091 17.02534539 -60.25009739
-120.686738 32.26898139 -60.25009739
0.0002150000591 17.64801739 28.32521261
-127.983047 87.50415539 37.74990261
-157.999785 50.41599639 -49.94924839
-115.127 59.01486939 -60.25009739
-115.247418 102.6262424 37.74990261
-108.239654 35.31703939 33.74990261
-127.372682 52.57172139 -60.25009739
-176.375856 -2.460722794e-05 19.06080361
-22.917876 -2.460722794e-05 40.30457361
-153.999785 10.43243539 11.09768461
-217.863243 -2.460722794e-05 -11.34914439
-250.7178 54.39478239 -54.25009739
-153.999785 12.57996939 -38.93885839
-133.381235 139.8288724 37.74990261
-94.961527 153.3446414 37.74990261
-157.999785 46.81545039 -34.06301439
-153.999785 52.84506439 29.85630061
-153.999785 26.87073039 -29.52533239
-46.256649 -2.460722794e-05 49.58503961
-135.224778 -2.460722794e-05 -49.55771439
-7.959535 22.39552539 -54.25009739
-151.763098 -2.460722794e-05 -15.62621939
-153.518207 53.18316239 39.14170861
-207.647195 -2.460722794e-05 -39.12155939
-125.456725 67.99997539 -56.83366539
-9.932063 -1.844712607 -54.25009739
-153.999785 18.94379039 55.37252961
-153.999785 38.85319239 -3.754608386
-157.999785 52.09487439 -5.787874386
-187.720412 42.66249739 -54.25009739
-198.849515 10.39358039 -54.25009739
-147.330707 -2.460722794e-05 -50.85023839
-115.409233 20.15538839 -60.25009739
-102.135331 128.3778114 37.74990261
-153.999785 96.00798639 47.05511561
-136.924719 42.26061939 33.74990261
-89.812141 200.2056884 37.74990261
-140.348102 186.7695214 37.74990261
-157.999785 11.00029939 -49.23071839
-157.999785 83.04243639 48.87182061
-157.999785 58.63545039 14.99831061
1.477279 49.99997539 53.36176761
-75.906258 10.45600039 -54.25009739
-111.231667 100.7673314 33.74990261
-96.097628 102.4166464 33.74990261
