# .PCD v0.7 - Point Cloud Data file format
VERSION 0.7
FIELDS x y z
SIZE 4 4 4
TYPE F F F
COUNT 1 1 1
WIDTH 1203
HEIGHT 1
VIEWPOINT 0 0 0 1 0 0 0
POINTS 1203
DATA ascii
-179.093648 -2.460706901e-05 -235.6224564
-213.192386 -2.460706901e-05 -195.5762644
-80.459782 -2.460706901e-05 -140.1757014
26.555244 -2.460706901e-05 -87.27556039
-183.295523 18.37797939 -9.738597828e-05
241.714452 -2.460706901e-05 -162.1235614
421.500215 61.20317839 -96.02102939
48.989494 -2.460706901e-05 -155.7035284
294.289368 -2.460706901e-05 -196.4365284
301.276548 -2.460706901e-05 -100.4739014
-335.748715 -2.460706901e-05 -60.34186539
-86.565517 -2.460706901e-05 -122.0953784
-411.317686 31.56531339 -9.738597828e-05
351.376549 -2.460706901e-05 -210.2155584
-221.567128 -2.460706901e-05 -228.6468204
-117.914192 -2.460706901e-05 -178.5418194
389.787025 -2.460706901e-05 -15.23987539
-425.245288 48.59537439 -9.738597828e-05
113.434632 -2.460706901e-05 -98.25635939
-393.808933 -2.460706901e-05 -39.89794939
-332.130037 14.69542039 -9.738597828e-05
121.803517 28.78136239 -9.738597828e-05
421.500215 35.21431539 -186.0246354
-241.172645 -2.460706901e-05 -105.3392654
-252.492369 -2.460706901e-05 -80.05265439
332.957048 -2.460706901e-05 -148.4304064
-313.223184 -2.460706901e-05 -140.6424154
421.500215 218.3592172 -167.9808064
12.603334 33.73549039 -9.738597828e-05
-398.892581 -2.460706901e-05 -148.1435904
417.500215 185.9419834 -73.38187139
100.028683 -2.460706901e-05 -139.8542294
314.891578 14.46021439 -9.738597828e-05
145.213482 13.88924839 -9.738597828e-05
314.250411 -2.460706901e-05 -15.95557039
417.500215 134.5873824 -59.66770139
-101.138056 -2.460706901e-05 -177.4932544
178.332472 -2.460706901e-05 -156.4342734
-105.804904 -2.460706901e-05 -18.88104039
271.436463 -2.460706901e-05 -66.68743739
166.716671 -2.460706901e-05 -35.36822939
389.276218 -2.460706901e-05 -201.9656634
305.575585 -2.460706901e-05 -144.8238034
-129.404641 46.64411739 -9.738597828e-05
-270.255777 -2.460706901e-05 -65.80998339
413.500215 126.5315094 -76.64260839
-327.027007 -2.460706901e-05 -40.49426439
-380.480204 -2.460706901e-05 -218.4386174
44.919152 -2.460706901e-05 -91.95229539
-426.128662 -2.460706901e-05 -185.8635264
422.4864 -2.460706901e-05 -192.4074734
-422.620698 -2.460706901e-05 -59.38297039
130.215434 -2.460706901e-05 -9.491632386
-307.728125 -2.460706901e-05 -16.41650839
296.417189 -2.460706901e-05 -15.15961839
420.767471 193.8702904 -198.4189534
-391.230299 -2.460706901e-05 -8.179473386
277.551361 -2.460706901e-05 -157.5575254
-221.395721 -2.460706901e-05 -98.56093639
-246.83521 -2.460706901e-05 -49.16529839
75.578927 -2.460706901e-05 -59.42779339
227.273564 -2.460706901e-05 -240.9783144
372.869869 -2.460706901e-05 -78.18570639
-201.175125 -2.460706901e-05 -74.01919939
-61.564765 34.61150239 -9.738597828e-05
413.500215 65.88777639 -226.5363854
-351.985983 -2.460706901e-05 -207.8289004
-27.663409 -2.460706901e-05 -147.7819654
395.636528 -2.460706901e-05 -105.9397994
96.414625 56.19325939 -9.738597828e-05
413.500215 33.56341739 -67.96370839
34.071958 50.62308639 -9.738597828e-05
121.741629 60.36660239 -9.738597828e-05
-172.936932 -2.460706901e-05 -163.5327074
-341.271276 -2.460706901e-05 -27.91992139
417.500215 92.54608539 -131.2713424
-117.363191 -2.460706901e-05 -65.94889739
180.563605 -2.460706901e-05 -75.68335939
374.279097 -2.460706901e-05 -195.5242694
-226.032866 -2.460706901e-05 -146.9384454
424.465514 47.96942539 -195.7959634
-86.036038 -2.460706901e-05 -67.54585839
64.819777 47.34563239 -9.738597828e-05
271.004239 -2.460706901e-05 -196.5970474
-369.956387 -2.460706901e-05 -111.5807244
410.610942 -2.460706901e-05 -82.32660039
421.500215 246.3176544 -180.4667784
-286.664856 -2.460706901e-05 -239.1583604
419.696618 37.22334539 -9.738597828e-05
-38.182695 -2.460706901e-05 -92.82178739
-376.331739 -2.460706901e-05 -29.43765839
276.746467 7.839183393 -9.738597828e-05
-287.487866 -2.460706901e-05 -83.74389039
101.16009 -2.460706901e-05 -210.0431854
45.145312 -2.460706901e-05 -239.7946454
-24.50574 -1.415525607 -9.738597828e-05
-259.540943 54.73619239 -9.738597828e-05
379.988339 -2.460706901e-05 -43.74215439
-330.692896 -2.460706901e-05 -169.4592184
-300.694521 -2.460706901e-05 -58.23010439
-333.968538 -2.460706901e-05 -232.8952974
125.754906 -2.460706901e-05 -67.73593839
-126.073581 -2.460706901e-05 -237.1474064
354.42637 -2.460706901e-05 -104.3389634
-373.527988 -2.460706901e-05 -128.3163474
-111.528464 -2.460706901e-05 -138.3239724
383.131331 -2.460706901e-05 -66.11874739
358.809736 -2.460706901e-05 -196.3822044
2.895713 -2.460706901e-05 -222.6237614
421.500215 199.4158624 -97.49306739
-436.714128 14.32243039 -9.738597828e-05
242.762669 -2.460706901e-05 -83.92118839
176.651914 -2.460706901e-05 -184.0389324
-207.612461 -2.460706901e-05 -121.2081304
246.472343 -2.460706901e-05 -233.3253234
353.32659 -2.460706901e-05 -161.9659254
-305.767478 -2.460706901e-05 -121.3212434
-102.217211 -2.460706901e-05 -247.5924634
-60.661635 -2.460706901e-05 -216.6529074
417.500215 28.60050839 -96.55441239
433.851158 219.5779907 -44.00009739
18.132675 -2.460706901e-05 -166.0900444
68.583863 12.62301839 -9.738597828e-05
-94.835779 -2.460706901e-05 -90.41030239
347.060417 -2.460706901e-05 -118.3933254
-379.751955 -2.460706901e-05 -234.4394524
417.500215 46.23371339 -31.77257639
-329.144334 -2.460706901e-05 -9.881543386
12.185384 -2.460706901e-05 -107.2991434
-46.180805 -2.460706901e-05 -170.5982054
-158.031507 -2.460706901e-05 -170.0831824
413.500215 36.15607239 -215.1019684
-361.170853 -2.460706901e-05 -7.187669386
417.500215 205.5963214 -51.32165339
-404.041741 -2.460706901e-05 -87.33050039
-132.074081 -2.460706901e-05 -98.44996039
414.069739 12.33198639 -73.03795139
240.229542 -2.460706901e-05 -42.88436539
354.56584 -2.460706901e-05 -65.98082639
402.941188 -2.460706901e-05 -41.75526939
-384.824408 -2.460706901e-05 -63.45791139
-338.407627 -2.460706901e-05 -188.7532714
130.669366 -2.460706901e-05 -152.9332794
-6.963159 -2.460706901e-05 -54.57813539
325.460699 1.163696393 -9.738597828e-05
417.500215 236.2536675 -59.81056539
413.500215 14.18590239 -15.01055339
346.512812 -2.460706901e-05 -45.92570039
421.500215 31.50125039 -53.71515239
78.739585 1.699081393 -9.738597828e-05
-225.983811 -2.460706901e-05 -188.0585974
421.500215 170.6590234 -109.7952074
-34.84079 9.443621393 -9.738597828e-05
376.135987 -2.460706901e-05 -234.7577144
321.549685 -2.460706901e-05 -29.60578239
215.829377 -2.460706901e-05 -84.87705439
-418.172982 -2.460706901e-05 -166.0916724
-159.497026 -2.460706901e-05 -88.06543139
100.620948 -2.460706901e-05 -239.3358804
417.500215 113.9109774 -103.4698624
-142.044479 -2.460706901e-05 -146.0350394
-176.709167 -2.460706901e-05 -106.8838944
-146.930004 50.66194039 -9.738597828e-05
3.816244 -2.460706901e-05 -42.92180839
-273.582369 11.75596039 -9.738597828e-05
40.412349 -2.460706901e-05 -116.5677904
-66.85409 15.97601239 -9.738597828e-05
160.335677 -2.460706901e-05 -105.6098574
296.103609 -2.460706901e-05 -228.9906904
413.500215 51.29408739 -149.7538374
11.587165 -1.434301607 -9.738597828e-05
170.810841 -2.460706901e-05 -212.7564874
194.06821 -2.460706901e-05 -159.4653064
-328.875899 -2.460706901e-05 -105.6956434
-129.490275 -2.460706901e-05 -160.4184364
423.846458 152.3464314 -40.18958139
-8.878834 -2.460706901e-05 -85.15212439
-143.14952 -2.460706901e-05 -216.2609164
110.920294 -2.460706901e-05 -55.08827739
437.759951 -2.460706901e-05 -20.46267139
421.500215 156.0654654 -81.82089239
112.557344 -2.460706901e-05 -128.5564564
-266.861781 -2.460706901e-05 -126.4181614
28.973276 -2.460706901e-05 -148.4996884
-63.102802 -2.460706901e-05 -146.9533494
-6.816206 16.84252039 -9.738597828e-05
417.500215 218.3899639 -116.2575264
417.500215 128.2432114 -154.6375544
47.960594 -2.460706901e-05 -65.03763639
417.500215 124.3403264 -172.0907224
-330.569919 -2.460706901e-05 -249.3088474
130.506769 -2.460706901e-05 -134.1186364
188.078999 -2.460706901e-05 -226.5109294
-214.216449 -2.460706901e-05 -178.0035554
253.317524 -2.460706901e-05 -146.0190584
154.881094 -2.460706901e-05 -78.57250139
-264.15956 -2.460706901e-05 -19.32347539
29.005842 -2.460706901e-05 -52.30436639
-237.826771 -2.460706901e-05 -237.9238904
-316.869808 -2.460706901e-05 -79.89182839
-363.36581 50.76409839 -9.738597828e-05
221.408292 62.86132839 -9.738597828e-05
423.887894 18.51214739 -195.6407914
423.008295 167.6494164 -199.5664624
-70.71759 -2.460706901e-05 -98.04442339
413.527539 61.27167539 -12.06689239
-210.193877 49.52196039 -9.738597828e-05
-199.25508 -2.460706901e-05 -132.7683864
421.500215 75.37674139 -54.07300439
366.054246 67.65204139 -9.738597828e-05
187.008966 -2.460706901e-05 -90.81091839
-290.556647 -2.460706901e-05 -107.5276204
-246.754822 -2.460706901e-05 -157.8508124
93.479962 -2.460706901e-05 -5.335705386
41.608029 -1.539633607 -9.738597828e-05
15.804616 -2.460706901e-05 -121.0688694
52.422864 31.54441639 -9.738597828e-05
421.500215 230.7777361 -159.0243804
-373.244047 6.422417393 -9.738597828e-05
-227.449842 53.20074739 -9.738597828e-05
277.807834 -2.460706901e-05 -103.8763184
230.112678 -2.460706901e-05 -107.8519684
353.892744 3.933748393 -9.738597828e-05
-279.43227 -2.460706901e-05 -222.3003404
410.60511 -2.460706901e-05 -152.6349404
413.500215 90.04811039 -212.2276264
417.500215 38.85319239 -237.5046084
-79.795562 -2.460706901e-05 -0.09983938598
421.500215 89.96381339 -86.50880239
-78.333434 -2.460706901e-05 -199.6508614
-342.074274 -2.460706901e-05 -81.03027939
375.717118 29.30426839 -9.738597828e-05
296.639249 -2.460706901e-05 -69.41127139
-122.564703 -2.460706901e-05 -48.54218939
435.95164 -2.460706901e-05 -174.3495774
413.500215 117.0199874 -144.9101934
-168.694378 -2.460706901e-05 -56.23296239
417.500215 169.8336164 -183.0881644
413.500215 13.94137639 -229.7118704
-34.87725 -2.460706901e-05 -198.0772964
-9.351807 -2.460706901e-05 -170.6027044
310.18835 -2.460706901e-05 -244.1837744
208.611228 -2.460706901e-05 -3.190114386
136.783064 53.88478439 -9.738597828e-05
417.500215 180.5965454 -100.8581704
-397.82202 -2.460706901e-05 -74.84302739
-71.127974 -2.460706901e-05 -245.4997064
421.500215 11.49669239 -101.6780044
-114.82556 -2.460706901e-05 -83.09915739
422.710043 43.94485239 -45.14257539
221.614924 -2.460706901e-05 -190.1386634
-128.261293 29.55923339 -9.738597828e-05
162.711229 8.880808393 -9.738597828e-05
105.554166 -2.460706901e-05 -161.7210844
-35.945673 -2.460706901e-05 -159.1692824
80.57326 28.38311939 -9.738597828e-05
70.484068 -2.460706901e-05 -11.14595939
280.940086 39.62620739 -9.738597828e-05
413.500215 49.28970039 -3.562325386
-91.750423 -2.460706901e-05 -217.4931344
1.524105 -2.460706901e-05 -134.1180014
-117.056488 -2.460706901e-05 -209.2117024
-102.665759 -2.460706901e-05 -148.9812314
-169.728472 -2.460706901e-05 -78.73784739
173.004238 -2.460706901e-05 -18.30618839
324.314604 -2.460706901e-05 -159.2926194
391.467914 55.59844039 -9.738597828e-05
-184.686571 -2.460706901e-05 -29.18271139
-254.001389 -2.460706901e-05 -30.78686139
417.500215 19.53530439 -46.48529339
-53.271525 -2.460706901e-05 -123.8841774
194.08225 23.31838539 -9.738597828e-05
-250.379961 -2.460706901e-05 -93.68023439
426.624306 -2.460706901e-05 -147.1873184
-80.381481 -2.460706901e-05 -167.6724804
198.391629 -2.460706901e-05 -71.14873239
-301.956086 28.10246239 -9.738597828e-05
-179.702772 -2.460706901e-05 -151.5513624
-66.363294 -2.460706901e-05 -45.59707839
421.500215 218.6545427 -82.98532639
421.500215 186.9229104 -128.4955684
-288.295271 59.36156239 -9.738597828e-05
417.500215 244.5955642 -48.16392039
30.78141 -2.460706901e-05 -27.18761539
-91.956224 -2.460706901e-05 -19.95194539
417.500215 113.4312554 -76.40148139
100.791306 -2.460706901e-05 -18.67771839
69.955644 -2.460706901e-05 -44.21844239
-34.833879 -2.460706901e-05 -223.6677514
249.849175 -2.460706901e-05 -70.64488039
376.156899 -2.460706901e-05 -123.2827284
-229.281034 67.70741339 -9.738597828e-05
301.201119 51.64238539 -9.738597828e-05
299.294239 9.754451393 -9.738597828e-05
302.573153 -2.460706901e-05 -173.2209724
413.500215 53.81692939 -68.30142139
413.500215 70.00596239 -185.6698794
428.691107 120.1045434 -44.00009739
403.973916 -2.460706901e-05 -116.6695014
128.854462 -2.460706901e-05 -227.9040734
347.166725 40.93879739 -9.738597828e-05
393.862747 13.56055239 -9.738597828e-05
281.167 -2.460706901e-05 -43.59697139
266.500113 -2.460706901e-05 -21.96415439
305.664261 -2.460706901e-05 -82.25815439
-186.108647 -2.460706901e-05 -13.73816339
-96.867135 67.81031939 -9.738597828e-05
413.83746 24.29163339 -152.4332744
-43.200988 -2.460706901e-05 -26.59040039
30.159285 17.94660739 -9.738597828e-05
-297.903539 -2.460706901e-05 -138.3629634
292.744395 -2.460706901e-05 -129.7412254
-127.710746 -2.460706901e-05 -192.7741004
-257.541483 -2.460706901e-05 -234.3108604
-298.711689 -2.460706901e-05 -233.0355014
-42.731583 -2.460706901e-05 -243.0431214
274.125793 53.29634339 -9.738597828e-05
-188.185425 -2.460706901e-05 -78.58946339
-246.215869 9.831927393 -9.738597828e-05
245.069618 16.77867639 -9.738597828e-05
-214.290674 -2.460706901e-05 -38.51645939
417.500215 209.8071914 -69.81209039
414.548695 0.4999753929 -59.10934139
-51.740743 -2.460706901e-05 -196.0696694
422.891735 72.62296739 -194.9751564
-257.417863 -2.460706901e-05 -219.4931244
421.500215 85.03913939 -115.6036614
392.031383 -2.460706901e-05 -154.2221324
428.123679 93.68582039 -200.0000974
54.72408 -2.460706901e-05 -36.62474239
325.988248 -2.460706901e-05 -220.4258494
-191.480596 -2.460706901e-05 -230.4488674
-238.422626 44.68698939 -9.738597828e-05
-419.324422 -2.460706901e-05 -32.24970839
259.114234 -2.460706901e-05 -242.1435054
-12.163397 -2.460706901e-05 -213.1868194
-15.93595 57.47839539 -9.738597828e-05
-437.016056 -2.460706901e-05 -127.9805254
-417.825339 -2.460706901e-05 -234.1479524
-65.330968 47.53828839 -9.738597828e-05
413.500215 50.61484639 -121.5084724
-16.161093 -2.460706901e-05 -251.8314544
413.500215 12.16909739 -190.0931614
434.138049 -2.460706901e-05 -74.22488439
-432.676331 -2.460706901e-05 -245.2771684
-9.195971 -2.460706901e-05 -18.11597039
218.236625 -2.460706901e-05 -33.55336339
58.921108 -2.460706901e-05 -239.7571504
230.027544 -2.460706901e-05 -10.78241939
-335.989263 67.99997539 2.316422614
417.500215 203.6097404 -152.6221044
3.710242 -2.460706901e-05 -148.3454334
413.500215 24.85539439 -78.03032939
340.533164 -2.460706901e-05 -73.49478139
421.500215 76.46212139 -169.5682644
413.500215 33.36580439 -173.3245434
198.774897 -2.460706901e-05 -44.86118939
197.846596 -2.460706901e-05 -207.1152114
-45.133802 56.22691539 -9.738597828e-05
413.500215 109.0679944 -89.02061539
423.475873 235.7087748 -195.3716174
-116.949413 -2.460706901e-05 -225.4927014
-177.671441 -2.460706901e-05 -120.0961044
41.005492 -2.460706901e-05 -78.22015639
424.219531 108.0498334 -199.8737134
201.876705 -2.460706901e-05 -128.7000714
413.500215 33.76624839 -24.66506139
413.500215 44.19135039 -202.6886794
-410.667375 62.04656539 -9.738597828e-05
-152.864893 -1.640538607 -9.738597828e-05
73.082059 -2.460706901e-05 -152.4380824
-242.222413 -2.460706901e-05 -204.0501164
245.308863 -2.460706901e-05 -191.3861974
-32.637593 51.78708539 -9.738597828e-05
153.321616 63.50034039 -9.738597828e-05
417.500215 67.61238539 -75.54667539
64.685664 -2.460706901e-05 -102.2371184
-399.162306 -2.460706901e-05 -236.5584874
308.727967 -2.460706901e-05 -225.3258934
421.500215 239.7571118 -131.6902644
421.29342 -2.460706901e-05 -238.9194144
277.039368 -2.460706901e-05 -170.6876884
138.21866 -2.460706901e-05 -56.12209439
413.500215 100.5672274 -155.7970434
408.819092 -2.460706901e-05 -10.82722039
57.329727 -2.460706901e-05 -14.36266339
421.500215 157.8063594 -68.83004339
421.500215 170.9193454 -87.90470939
-69.314445 66.63348139 -9.738597828e-05
16.562704 -2.460706901e-05 -250.3415314
-73.828196 -2.460706901e-05 -119.2202554
417.500215 66.71043039 -139.9431724
417.500215 124.1534514 -51.88222139
421.500215 42.16784739 -115.1114484
419.485369 67.99997539 0.762661614
-165.366207 58.78702739 -9.738597828e-05
142.111633 -2.460706901e-05 -105.6736824
142.500337 -2.460706901e-05 -19.44167639
323.887105 -2.460706901e-05 -119.7862414
-259.617399 -2.460706901e-05 -51.22608939
-227.963954 10.90438639 -9.738597828e-05
243.660547 48.22166239 -9.738597828e-05
421.500215 54.68598339 -173.7494784
-76.479683 -2.460706901e-05 -154.7390494
173.974342 -2.460706901e-05 -125.9042654
87.767815 -0.6320226071 -238.1834514
-381.267978 32.99969739 -9.738597828e-05
-21.032336 -2.460706901e-05 -159.2034574
421.500215 43.46715439 -73.34156939
417.500215 233.0282176 -172.3146374
352.798258 -2.460706901e-05 -239.5760774
-182.589223 50.90907739 -9.738597828e-05
-347.025692 -2.460706901e-05 -150.4096474
65.460217 -2.460706901e-05 -86.69814839
235.357896 -2.460706901e-05 -69.51829839
-191.818403 -2.460706901e-05 -206.9274644
-369.842191 24.66440739 -9.738597828e-05
-64.745821 -2.460706901e-05 -25.59805239
-370.767586 -2.460706901e-05 -147.0766274
-330.105577 -2.460706901e-05 -200.9050104
413.500215 168.9382484 -142.7522204
-18.094543 10.69861939 -9.738597828e-05
-351.241461 -2.460706901e-05 -60.22927339
413.500215 155.1699254 -142.4798264
-150.325365 -2.460706901e-05 -199.0227624
183.466424 42.60776439 -9.738597828e-05
294.115852 -2.460706901e-05 -38.88281639
-410.332118 -2.460706901e-05 -55.79998839
421.500215 148.6927004 -126.9074194
-29.888687 35.19652039 -9.738597828e-05
108.967834 53.76256539 -9.738597828e-05
-302.083139 -2.460706901e-05 -208.7142464
421.726583 -0.3539186071 -158.9789624
421.500215 60.21045839 -187.4538364
421.500215 136.3059024 -71.65576839
430.39464 150.3134024 -200.0000974
278.329486 -2.460706901e-05 -134.3188204
59.366282 -2.460706901e-05 -128.7138884
-138.331436 -2.460706901e-05 -86.44947539
413.500215 12.46595239 -203.5994984
189.479909 -0.8757206071 -9.738597828e-05
178.797456 -2.460706901e-05 -59.90129039
-4.977185 -2.460706901e-05 -100.7383904
-434.253854 57.55657739 -9.738597828e-05
421.500215 191.3455224 -107.2930304
209.902861 -2.460706901e-05 -65.82361639
421.500215 89.69439739 -170.3490414
427.364127 244.9577584 -40.00009739
-13.676392 -2.460706901e-05 -133.3042554
425.563248 -2.460706901e-05 -125.9921564
21.165332 -2.460706901e-05 -62.78470439
366.608614 -2.460706901e-05 -21.03591139
-430.22954 -2.460706901e-05 -215.3032654
-418.166981 -2.460706901e-05 -116.6067544
-99.598118 -2.460706901e-05 -191.1324924
-335.980945 55.37596539 -9.738597828e-05
167.915392 55.61629639 -9.738597828e-05
155.681189 -2.460706901e-05 -61.52149839
-234.137852 -2.460706901e-05 -220.0742104
285.635322 -2.460706901e-05 -250.2125154
420.66267 -2.460706901e-05 -28.43077439
436.985703 193.7038964 -44.00009739
332.588537 -2.460706901e-05 -187.2881044
149.529521 -2.460706901e-05 -170.8689054
-20.068839 -2.460706901e-05 -31.48046839
421.500215 186.2449384 -60.69282939
-269.879071 45.68057739 -9.738597828e-05
325.487179 -2.460706901e-05 -201.3148414
417.500215 148.8922824 -100.6332074
318.349848 28.00144639 -9.738597828e-05
167.720976 -2.460706901e-05 -199.7514354
-279.065555 -2.460706901e-05 -250.3134654
413.500215 74.34654439 -119.6722184
241.650225 -2.460706901e-05 -134.6985764
91.893757 -2.460706901e-05 -34.24310339
-145.762914 -2.460706901e-05 -10.59183639
166.329823 -2.460706901e-05 -225.1685384
-249.809783 -2.460706901e-05 -127.4857254
-138.829897 -2.460706901e-05 -34.47293539
-168.029022 -2.460706901e-05 -147.1232954
202.432032 -2.460706901e-05 -144.8998294
255.005158 42.79905239 -9.738597828e-05
-268.043184 -2.460706901e-05 -156.0665464
413.500215 53.49521039 -250.1322654
-411.487784 -2.460706901e-05 -138.5270424
295.696414 24.50544339 -9.738597828e-05
334.362895 -2.460706901e-05 -40.36052339
421.500215 10.72611139 -141.0383794
314.316884 -2.460706901e-05 -53.66605239
-102.429966 12.21767039 -9.738597828e-05
34.571869 -2.460706901e-05 -209.4955734
191.303424 67.99997539 0.339341614
-82.602122 -2.460706901e-05 -88.27918939
-427.967678 -2.460706901e-05 -41.15112939
425.540624 30.00903839 -200.0000974
-208.534333 -2.460706901e-05 -147.0262724
-325.351478 35.14086139 -9.738597828e-05
-373.110626 -2.460706901e-05 -248.1421284
189.023708 -2.460706901e-05 -131.9289534
-238.501854 -2.460706901e-05 -21.99022939
-193.459668 -2.460706901e-05 -100.7764864
-89.132708 30.09026539 -9.738597828e-05
-355.870336 -2.460706901e-05 -39.20667639
404.827172 -2.460706901e-05 -240.6673384
421.500215 139.1117584 -137.5596794
-419.060327 -2.460706901e-05 -97.85124939
139.833995 -2.460706901e-05 -248.9088334
417.500215 63.25674739 -215.1624254
-23.437502 -2.460706901e-05 -193.4812494
413.500215 100.7830664 -139.5196124
422.037196 101.9703664 -40.79383139
63.587788 -2.460706901e-05 -64.07854439
184.432317 -2.460706901e-05 -102.8127744
-357.497027 -2.460706901e-05 -103.9189504
421.500215 237.8508304 -117.3827574
118.879678 -0.6011006071 -9.738597828e-05
156.246859 -2.460706901e-05 -139.6437164
359.737613 -2.460706901e-05 -148.6561394
264.414001 -2.460706901e-05 -172.7619744
51.683416 7.076273393 -9.738597828e-05
430.430611 33.83581739 -44.00009739
413.500215 53.84626339 -56.06291739
-104.49343 -2.460706901e-05 -40.61218039
-275.495758 -2.460706901e-05 -175.6903444
438.231545 232.3475692 -44.00009739
417.500215 195.4712644 -186.7559694
-106.839969 -2.460706901e-05 -109.7326174
421.500215 89.66235539 -99.59599639
-201.883539 -2.460706901e-05 -172.1928214
228.136922 33.13737439 -9.738597828e-05
-262.334244 67.99997539 0.378492614
421.500215 126.9279124 -102.6419074
-368.770344 -2.460706901e-05 -189.5333434
421.500215 107.1599994 -149.4344014
272.441567 -2.460706901e-05 -53.29306639
323.676315 40.19271939 -9.738597828e-05
421.500215 243.7475672 -105.0137444
323.577651 -2.460706901e-05 -137.5292724
123.963085 -2.460706901e-05 -104.2678534
-57.33195 -2.460706901e-05 -63.09012139
261.060757 -2.460706901e-05 -212.1069624
-163.53428 -2.460706901e-05 -10.95026139
417.500215 218.2097659 -182.6374544
421.500215 14.55728039 -122.2241304
223.11415 -2.460706901e-05 -212.9280394
421.500215 188.4165254 -177.0451554
417.500215 45.61851339 -137.5621614
-202.527135 12.09702539 -9.738597828e-05
421.500215 9.206122393 -167.3536884
326.261472 -2.460706901e-05 -63.83656239
-112.98069 -2.460706901e-05 -236.8890774
-227.51328 -2.460706901e-05 -159.3196364
437.779064 120.9728104 -200.0000974
421.500215 113.2339464 -174.5650844
-437.632207 40.58830639 -9.738597828e-05
1.3613 43.95307639 -9.738597828e-05
-186.763998 -2.460706901e-05 -182.6228364
203.133297 -2.460706901e-05 -167.3985194
-147.15186 -2.460706901e-05 -55.56912339
365.351756 -2.460706901e-05 -215.5251824
173.830759 -2.460706901e-05 -250.1838374
-330.554804 -2.460706901e-05 -141.9149844
254.007412 67.99997539 2.229850614
-50.172899 -2.460706901e-05 -101.8896444
417.500215 204.5651634 -164.5835084
418.031521 223.1880495 -194.7629064
13.029843 -2.460706901e-05 -194.8108774
-133.192255 -2.460706901e-05 -60.16544739
-353.638851 24.37961339 -9.738597828e-05
413.500215 106.8346954 -190.4483914
-102.445434 -2.460706901e-05 -164.5326874
258.299973 -2.460706901e-05 -131.9784824
422.576819 83.44726039 -45.31329139
-268.761286 -2.460706901e-05 -77.90356739
-21.263751 -2.460706901e-05 -15.84888739
-260.781772 -2.460706901e-05 -100.1755944
-251.993048 -2.460706901e-05 -3.506630386
344.688017 -2.460706901e-05 -177.0419444
-310.092654 62.83086339 -9.738597828e-05
87.824294 -2.460706901e-05 -62.23426239
420.216922 -2.460706901e-05 -93.55704839
-37.782271 -2.460706901e-05 -67.40592139
173.82179 16.86646039 -9.738597828e-05
-124.601526 -2.460706901e-05 -117.0047114
111.470229 -2.460706901e-05 -186.5068284
-231.308351 -2.460706901e-05 -76.71493439
-221.003868 -2.460706901e-05 -126.2355774
-95.88993 -2.460706901e-05 -114.5267154
321.754474 -0.8037676071 -80.91714939
77.767343 -2.460706901e-05 -27.02175039
-314.292488 -2.460706901e-05 -26.48712939
189.75808 -2.460706901e-05 -240.0653984
229.686196 -2.460706901e-05 -80.61152939
417.500215 70.43479039 -237.2939014
-329.730337 -2.460706901e-05 -130.1020624
0.5342820001 -2.460706901e-05 -191.6007594
381.283307 -2.460706901e-05 -2.725263386
417.500215 42.51424339 -91.86360039
421.500215 249.8840257 -155.4839294
417.500215 65.48746839 -126.8333474
249.764391 -2.460706901e-05 -30.24334539
131.635923 -2.460706901e-05 -201.5361894
111.463894 -2.460706901e-05 -69.43881839
345.937879 29.22817439 -9.738597828e-05
-395.74366 -2.460706901e-05 -127.5928244
421.500215 55.01317339 -160.1288124
316.874637 -2.460706901e-05 -147.9826374
421.500215 70.73143639 -110.8240424
-306.587135 42.04903239 -9.738597828e-05
153.941969 -2.460706901e-05 -39.22062339
-159.636875 36.28659739 -9.738597828e-05
376.612056 -2.460706901e-05 -248.8938224
-303.205465 -2.460706901e-05 -194.1528654
342.237096 -2.460706901e-05 -155.5744704
-11.662395 -2.460706901e-05 -195.9859644
-303.347681 -2.460706901e-05 -109.8741704
-284.060386 30.62125539 -9.738597828e-05
161.974796 -2.460706901e-05 -236.0185984
421.500215 87.03480839 -185.4524274
-373.983246 -2.460706901e-05 -85.70676139
340.054872 -2.460706901e-05 -94.34481639
143.031388 -2.460706901e-05 -127.8249634
-213.369586 -2.460706901e-05 -245.1162884
-324.924309 -2.460706901e-05 -221.1493134
413.500215 130.1631864 -89.83956939
280.994254 -2.460706901e-05 -77.97893339
90.842142 -2.460706901e-05 -204.6437114
-337.586991 0.8365133929 -9.738597828e-05
-348.243381 -2.460706901e-05 -237.1484654
131.130364 19.22902839 -9.738597828e-05
423.148152 -2.460706901e-05 -223.5970194
367.736406 12.51006239 -9.738597828e-05
-347.243226 -2.460706901e-05 -196.2421614
421.500215 93.74227239 -72.68596739
-148.497586 -2.460706901e-05 -120.7255024
294.068317 -2.460706901e-05 -156.0413224
413.500215 26.86826339 -186.2334534
-296.679975 -2.460706901e-05 -172.4411854
41.250779 -2.460706901e-05 -251.2222234
-290.428323 -2.460706901e-05 -12.51076139
419.356428 213.3050971 -42.93295539
28.481163 -2.460706901e-05 -15.90982939
309.844442 -2.460706901e-05 -182.1408164
-156.644057 -2.460706901e-05 -31.27211139
-169.292337 -2.460706901e-05 -204.1171834
143.198367 -2.460706901e-05 -152.7824884
264.977759 -2.460706901e-05 -184.3956324
421.500215 145.6555464 -158.2002734
25.446779 58.17603039 -9.738597828e-05
-398.876867 -2.460706901e-05 -248.8916344
-287.014698 -2.460706901e-05 -188.6701094
425.992429 -2.460706901e-05 -58.75783739
43.033206 -2.460706901e-05 -54.69167439
262.061563 29.14053639 -9.738597828e-05
149.74857 -2.460706901e-05 -195.8403734
-123.800054 56.62468339 -9.738597828e-05
75.651474 -2.460706901e-05 -201.2823404
-43.119131 31.06259039 -9.738597828e-05
9.078565 -2.460706901e-05 -30.58942839
-187.980351 67.99997539 0.286532614
6.750269 -2.460706901e-05 -81.74975739
-429.421204 -2.460706901e-05 -16.88017539
421.500215 19.99205639 -69.11361739
421.500215 216.3275336 -131.9714754
-91.145202 -0.5525986071 -9.738597828e-05
434.75156 211.0913824 -196.0000974
251.548583 -2.460706901e-05 -43.81180839
-36.722072 20.62883639 -9.738597828e-05
185.61678 11.09029039 -9.738597828e-05
98.022253 10.15325039 -9.738597828e-05
-229.607739 -2.460706901e-05 -135.4850444
396.919681 -2.460706901e-05 -190.2755494
268.198601 -2.460706901e-05 -112.6803494
77.603123 -2.460706901e-05 -113.3558414
-361.52758 -2.460706901e-05 -251.9330814
413.500215 82.23276839 -220.3814154
417.500215 53.65950139 -103.4091824
-434.810178 -2.460706901e-05 -178.5793244
232.733871 9.267807393 -9.738597828e-05
413.500215 151.9538034 -88.63705239
-152.061185 -2.460706901e-05 -76.62428439
59.31056 -2.460706901e-05 -207.7335374
-393.595296 23.93296539 -9.738597828e-05
-373.131173 45.14169739 -9.738597828e-05
202.852064 30.37925039 -9.738597828e-05
413.500215 92.82266139 -63.87364439
-217.390968 29.29801539 -9.738597828e-05
250.706359 -2.460706901e-05 -168.8738844
413.500215 20.32417239 -167.8541974
427.346511 -2.460706901e-05 -5.554172386
-209.356147 -2.460706901e-05 -22.81118539
435.669912 230.1830757 -196.0000974
-280.106683 -2.460706901e-05 -53.27912439
418.006274 7.971144393 -180.2505924
410.515881 -2.460706901e-05 -126.9409564
421.500215 57.15703139 -144.5078654
102.680976 -2.460706901e-05 -221.1546364
89.55019 -2.460706901e-05 -73.71833939
-40.864864 -2.460706901e-05 -140.9558064
-341.067204 -2.460706901e-05 -173.7069664
421.500215 147.7533374 -115.4038644
417.500215 180.4096454 -163.2203684
21.595795 26.82945539 -9.738597828e-05
399.489841 -2.460706901e-05 -81.22985639
413.500215 36.61177039 -157.8626254
-321.035836 -2.460706901e-05 -69.53522939
216.373781 -2.460706901e-05 -235.5001014
421.500215 170.9846624 -65.35965139
228.753876 -2.460706901e-05 -135.9724034
-173.408631 13.20212239 -9.738597828e-05
-257.721921 -2.460706901e-05 -160.2819484
413.500215 38.99701139 -51.71999439
-24.803722 -2.460706901e-05 -133.3084914
417.500215 20.29020039 -216.8976694
-27.541718 -2.460706901e-05 -120.8633424
-111.545426 -2.460706901e-05 -7.703114386
-225.312002 -2.460706901e-05 -87.69388939
197.107272 56.34860839 -9.738597828e-05
-252.473543 -2.460706901e-05 -145.2141644
-223.774908 -2.460706901e-05 -29.48565839
-223.649394 0.6885483929 -9.738597828e-05
405.112174 34.85198239 -9.738597828e-05
286.424116 -2.460706901e-05 -96.92080239
368.865148 -2.460706901e-05 -226.4099784
-394.305148 -2.460706901e-05 -107.9291364
413.500215 68.10189439 -51.71908839
-34.36715 -2.460706901e-05 -234.7239694
-357.280885 -2.460706901e-05 -171.8730074
378.66297 -2.460706901e-05 -135.5754524
239.09353 38.18237839 -9.738597828e-05
-237.562478 -2.460706901e-05 -163.9437934
370.565962 -2.460706901e-05 -181.7676504
419.768185 -2.460706901e-05 -203.0889884
432.046379 -2.460706901e-05 -45.12031139
-175.265507 -2.460706901e-05 -6.787291386
325.832807 13.27651839 -9.738597828e-05
-432.139475 -2.460706901e-05 -137.8446984
-273.63661 -2.460706901e-05 -135.0864944
421.500215 219.7704556 -142.4184474
332.694315 -2.460706901e-05 -246.2432184
57.716058 -2.460706901e-05 -149.0184064
421.500215 187.1895804 -151.1837524
-44.482172 -2.460706901e-05 -10.87435939
-358.621435 -2.460706901e-05 -196.5521754
-162.042801 -2.460706901e-05 -183.8221764
-154.445014 -2.460706901e-05 -111.4840724
-318.616636 -2.460706901e-05 -14.95855339
-270.073456 22.83546039 -9.738597828e-05
413.500215 26.49857739 -3.109585386
431.995195 69.15046039 -200.0000974
124.16952 -2.460706901e-05 -214.3823404
-198.451781 -2.460706901e-05 -194.9556814
432.848552 190.6479704 -196.0000974
421.500215 236.1803391 -69.99752639
413.500215 9.923734393 -40.23527639
-123.124578 -2.460706901e-05 -132.7355254
413.500215 27.40745839 -130.1769454
81.376796 -2.460706901e-05 -131.6221114
380.537116 -2.460706901e-05 -157.2580654
-30.130623 -2.460706901e-05 -180.9501674
-335.735556 40.51495339 -9.738597828e-05
421.500215 165.0566794 -161.6795184
421.500215 79.14982439 -152.6964324
325.028696 -2.460706901e-05 -106.6672944
35.44171 -2.460706901e-05 -139.7052924
437.7722 146.6820204 -44.00009739
-98.67507 -2.460706901e-05 -100.6250994
-221.191138 -2.460706901e-05 -46.96491339
417.500215 196.8446434 -130.6255814
374.66553 55.77636939 -9.738597828e-05
-386.554554 -2.460706901e-05 -25.70218639
177.036776 -2.460706901e-05 -223.2236924
-378.759356 -2.460706901e-05 -207.6936114
-346.054804 -2.460706901e-05 -69.79118239
-33.513023 -2.460706901e-05 -212.1169404
429.376939 67.82886339 -40.00009739
-10.675661 46.07112239 -9.738597828e-05
152.874681 1.871132393 -9.738597828e-05
144.747313 -2.460706901e-05 -218.5696304
-106.209296 -2.460706901e-05 -228.2464044
413.500215 154.2716204 -163.7056364
413.500215 23.74356639 -36.47203939
203.664761 -2.460706901e-05 -111.8745684
413.500215 67.16321039 -100.2558944
-106.393893 40.80504439 -9.738597828e-05
-356.87041 -2.460706901e-05 -86.47901739
-367.708359 -2.460706901e-05 -167.5723964
-348.047444 14.07200039 -9.738597828e-05
417.500215 168.0454444 -123.6562894
164.389946 -2.460706901e-05 -90.19887439
301.632076 -2.460706901e-05 -5.690784386
106.159227 -2.460706901e-05 -82.60085439
94.944504 -2.460706901e-05 -185.0894894
390.771468 -2.460706901e-05 -43.84682639
421.730417 -0.2777386071 -81.00692339
357.423496 17.92311239 -9.738597828e-05
230.597443 -2.460706901e-05 -154.8955824
351.62118 -2.460706901e-05 -133.6581484
41.74539 -2.460706901e-05 -102.9618414
421.500215 63.12573039 -84.45619639
421.500215 135.0514114 -169.0472404
421.500215 44.50500439 -179.0808034
413.500215 92.81628439 -181.2085214
-51.435518 -2.460706901e-05 -83.60901139
404.165465 -2.460706901e-05 -55.77258139
80.442998 -2.460706901e-05 -86.09435839
-414.797151 41.70761339 -9.738597828e-05
-173.856836 -2.460706901e-05 -219.6161084
-385.194906 -2.460706901e-05 -129.4537134
435.510711 11.01002239 -196.0000974
-375.338428 -2.460706901e-05 -158.0371944
380.670024 -2.460706901e-05 -55.71762339
-113.311556 -2.460706901e-05 -149.9100624
-232.594176 -2.460706901e-05 -196.4543814
-283.777033 8.572245393 -9.738597828e-05
19.703696 7.678398393 -9.738597828e-05
435.249865 168.7315364 -44.00009739
424.725239 11.87393139 -9.738597828e-05
-104.642817 -2.460706901e-05 -200.6678994
-274.594074 -2.460706901e-05 -43.68538939
284.210479 -2.460706901e-05 -199.8853824
-131.200505 -2.460706901e-05 -20.82143439
126.983091 -2.460706901e-05 -38.45755139
361.720933 -2.460706901e-05 -8.369697386
159.37678 43.51091839 -9.738597828e-05
421.500215 78.24113639 -77.15746039
421.500215 12.12941139 -61.22431439
-78.015722 -2.460706901e-05 -234.1190544
417.825353 232.3457705 -45.86091239
177.121233 -2.460706901e-05 -85.72537239
111.377386 -2.460706901e-05 -19.44187339
20.881131 -2.460706901e-05 -98.94518139
421.500215 10.38398839 -80.34297439
-77.558524 -2.460706901e-05 -108.8480084
-271.222199 -2.460706901e-05 -101.9385274
417.500215 196.8553714 -73.47744739
-139.880252 -2.460706901e-05 -158.4024764
-216.854525 -2.460706901e-05 -215.8295244
-217.206184 -2.460706901e-05 -68.80197039
-388.640481 -2.460706901e-05 -150.7219264
413.500215 95.84149439 -104.2074074
134.668689 -2.460706901e-05 -80.58339639
421.500215 144.5268594 -186.4809814
421.500215 32.61096139 -105.4570604
-16.60891 67.99997539 0.402257614
389.927159 -2.460706901e-05 -230.1123044
205.488352 15.54834839 -9.738597828e-05
2.673126 -2.460706901e-05 -233.1667134
-112.11259 27.61986939 -9.738597828e-05
-140.368588 -2.460706901e-05 -135.6343844
421.500215 89.49250939 -159.8258934
417.500215 216.8822541 -61.42180639
264.867803 -2.460706901e-05 -90.10665439
216.001235 53.84595539 -9.738597828e-05
417.500215 11.13776039 -131.3259184
293.784525 -2.460706901e-05 -25.33064139
95.965343 33.43699639 -9.738597828e-05
74.651782 -2.460706901e-05 -179.0208444
285.883877 -2.460706901e-05 -68.69528739
-266.182303 -1.314967607 -211.2155024
141.695881 -2.460706901e-05 -89.94250439
417.500215 42.13624239 -227.5535674
-163.135455 -2.460706901e-05 -159.8363804
-173.537236 -2.460706901e-05 -244.4985184
-98.351863 -2.460706901e-05 -124.7019954
107.322409 -2.460706901e-05 -147.3615464
425.492158 207.3607074 -199.9993024
428.390752 80.24959939 -200.0000974
-206.499633 -2.460706901e-05 -64.11427539
-297.895096 -2.460706901e-05 -84.57177439
417.500215 24.28598039 -22.94798139
364.773025 -2.460706901e-05 -205.1175724
174.755994 -2.460706901e-05 -28.58072339
413.500215 82.68401039 -55.51601139
422.167939 57.82327939 -199.2470544
336.588626 61.35478239 -9.738597828e-05
417.500215 221.2541727 -92.44268039
-248.334965 -2.460706901e-05 -214.4260414
417.500215 238.105283 -97.24947439
413.500215 136.1574124 -80.56624839
413.500215 89.12983339 -140.9389834
300.028756 -2.460706901e-05 -238.6119454
-406.429083 -2.460706901e-05 -9.765407386
302.852117 -2.460706901e-05 -127.4084404
-76.68818 -2.460706901e-05 -189.4121494
-53.785231 -2.460706901e-05 -183.5823764
-77.373448 -2.460706901e-05 -47.52733439
209.427294 -2.460706901e-05 -55.47273039
-398.899934 15.03214839 -9.738597828e-05
413.500215 170.4923494 -101.8529494
-323.878851 8.454313393 -9.738597828e-05
-239.71671 -2.460706901e-05 -116.5337054
23.564484 -2.460706901e-05 -135.8635554
-45.108388 10.64374439 -9.738597828e-05
417.500215 123.8427624 -191.1245794
-244.084204 -2.460706901e-05 -35.09970939
413.184012 -2.460706901e-05 -216.5593224
417.500215 8.091264393 -248.9867754
104.221655 -2.460706901e-05 -28.41028239
-412.41305 -2.460706901e-05 -198.0903164
-407.970957 -2.460706901e-05 -177.5540534
-154.261747 8.578109393 -9.738597828e-05
261.357444 -2.460706901e-05 -68.83605439
-366.714267 -2.460706901e-05 -78.39341739
372.774017 -2.460706901e-05 -9.192385386
-438.249075 -2.460706901e-05 -40.66784739
-393.756666 -2.460706901e-05 -87.16339239
-427.407888 9.947912393 -9.738597828e-05
-55.94314 -2.460706901e-05 -165.4941974
239.374746 -2.460706901e-05 -217.4572954
48.512279 -2.460706901e-05 -229.8630694
391.492089 -2.460706901e-05 -174.0330774
419.558509 177.0425294 -197.3263674
436.227574 84.55130139 -44.00009739
-276.847056 -2.460706901e-05 -124.1152444
41.764869 31.93597639 -9.738597828e-05
417.500215 193.3925614 -117.9629464
421.500215 69.31170039 -162.2313474
-32.41389 -2.460706901e-05 -23.06071639
-339.997245 -2.460706901e-05 -17.76637339
387.678759 44.30306139 -9.738597828e-05
415.443845 178.7321344 -140.5303264
-310.774134 -2.460706901e-05 -130.2331604
413.500215 95.76645439 -89.11903639
-412.53035 -2.460706901e-05 -81.02035739
421.500215 207.5195214 -106.6678554
417.500215 65.34671239 -37.55104539
-205.073327 32.94187839 -9.738597828e-05
6.180203 -2.460706901e-05 -71.56098439
-400.931068 59.00629239 -9.738597828e-05
204.092095 -2.460706901e-05 -197.7936494
341.199498 -2.460706901e-05 -13.84399239
-284.474142 -2.460706901e-05 -33.14363139
413.500215 75.03981739 -198.1284894
-308.793641 16.90736139 -9.738597828e-05
421.500215 248.7203411 -69.29056239
284.513535 67.99997539 0.116981614
-351.587551 4.526952393 -9.738597828e-05
-24.292711 -2.460706901e-05 -109.5357734
-294.170776 -2.460706901e-05 -50.41724139
421.500215 249.9071461 -130.9547334
417.500215 161.6621564 -107.2262604
-157.291337 -2.460706901e-05 -54.71827739
250.541523 -2.460706901e-05 -208.0552364
413.500215 162.2307624 -83.02177139
344.827484 -2.460706901e-05 -200.6366014
-69.431155 -2.460706901e-05 -171.6457364
-231.468845 -2.460706901e-05 -99.93936039
386.59616 -2.460706901e-05 -30.64967339
413.500215 86.27591539 -81.44160939
-203.552226 -2.460706901e-05 -83.89884639
342.64119 -2.460706901e-05 -239.6871904
417.500215 95.32799839 -193.4908474
413.500215 82.71864439 -132.4583594
218.031729 16.00394939 -9.738597828e-05
18.509213 -2.460706901e-05 -227.3651224
417.500215 101.1350394 -123.4063804
143.172552 -2.460706901e-05 -162.9615974
179.698764 -2.460706901e-05 -116.0513804
413.806566 169.3213664 -155.3282944
428.714087 160.0693414 -196.0000974
-255.145908 -2.460706901e-05 -194.8865124
421.500215 23.57869839 -84.10036439
-20.376473 -2.460706901e-05 -75.25751039
413.500215 5.811263393 -23.47571839
413.867377 156.9616024 -127.1459654
151.699786 -2.460706901e-05 -122.6375834
200.672027 -2.460706901e-05 -22.51098339
7.959867 -2.460706901e-05 -244.9287204
-192.225301 -2.460706901e-05 -90.76052139
254.744002 -2.460706901e-05 -105.2886374
-94.867578 -2.460706901e-05 -43.62525839
-72.91091 7.912757393 -9.738597828e-05
82.421826 -2.460706901e-05 -158.1021404
76.72842 61.24695839 -9.738597828e-05
50.047792 -2.460706901e-05 -119.5215014
421.500215 160.8010584 -144.8945124
25.697015 40.21166539 -9.738597828e-05
-313.227861 -2.460706901e-05 -94.04171939
-426.912743 -2.460706901e-05 -153.6627874
276.623899 -2.225585607 -9.738597828e-05
428.617502 143.4883514 -40.00009739
425.668366 244.3698775 -200.0000974
-318.273183 -2.460706901e-05 -45.44409539
-6.275885 -2.460706901e-05 -110.7087664
-192.659511 33.84457239 -9.738597828e-05
428.510803 28.52453839 -9.738597828e-05
-386.941396 3.960501393 -9.738597828e-05
-156.107255 -2.460706901e-05 -17.71696239
109.60187 -2.460706901e-05 -204.6040954
417.500215 25.11145339 -243.2900094
367.969034 -2.460706901e-05 -109.3276704
248.599892 -2.460706901e-05 -92.06431139
-67.1179 -2.460706901e-05 -65.23715539
-198.044007 -2.460706901e-05 -41.25273139
-14.477544 33.15147639 -9.738597828e-05
-311.710919 -2.460706901e-05 -188.8977174
101.780397 -2.460706901e-05 -51.04301039
201.871733 -2.460706901e-05 -10.56499539
-421.622502 -2.460706901e-05 -71.44852239
417.500215 143.1506064 -53.92281339
-408.564958 -2.460706901e-05 -211.1566244
-422.69778 -2.460706901e-05 -176.4912424
413.500215 45.21895639 -41.52862839
148.403916 -2.460706901e-05 -240.6575374
-35.301876 -2.460706901e-05 -3.176378386
-289.998494 48.09111539 -9.738597828e-05
421.500215 45.36426539 -150.1023434
431.868554 132.0702194 -196.0000974
276.609557 -2.460706901e-05 -145.5271304
389.70628 67.77481839 -9.738597828e-05
413.500215 82.53363139 -92.76393539
421.500215 145.5546714 -176.2216704
353.942855 -2.460706901e-05 -183.9985194
421.500215 98.73777039 -60.81929839
365.150528 -2.460706901e-05 -31.38988039
413.500215 63.04230339 -90.44254439
-28.850708 -2.460706901e-05 -96.19771139
-55.621973 13.76511939 -9.738597828e-05
-74.488837 25.11739939 -9.738597828e-05
413.500215 43.46443539 -66.21985439
428.230269 50.38635639 -40.00009739
72.102094 -2.460706901e-05 -241.3649044
421.500215 86.42054339 -60.25827339
225.041524 -2.460706901e-05 -19.34513639
-97.764579 -2.460706901e-05 -233.4142084
74.282546 38.98824039 -9.738597828e-05
66.842625 -2.460706901e-05 -54.39761839
298.657515 -2.460706901e-05 -137.6759344
87.422522 -2.460706901e-05 -178.2630584
-298.407197 -2.460706901e-05 -162.7035564
413.500215 114.3796034 -66.53761439
-360.247989 -2.460706901e-05 -64.30369139
421.500215 63.60394239 -117.6684164
413.500215 107.9872104 -177.0371664
413.500215 45.81505639 -79.40650239
200.109436 -2.460706901e-05 -222.3122364
67.029948 -2.460706901e-05 -220.3223734
201.206909 -2.460706901e-05 -61.14388039
390.808045 -2.460706901e-05 -132.2739994
359.391841 -2.460706901e-05 -126.9623014
-172.981098 -2.460706901e-05 -97.33707139
414.296448 58.54619739 -9.738597828e-05
-121.007803 -2.460706901e-05 -200.0016744
-385.111872 -2.460706901e-05 -184.2785944
-331.724979 -2.460706901e-05 -49.15441039
-268.938653 -2.460706901e-05 -225.3376414
118.117985 -2.460706901e-05 -120.4343974
-136.077811 7.384452393 -9.738597828e-05
400.568049 -2.460706901e-05 -250.3775154
416.542746 128.7568904 -67.51642939
-57.416019 -2.460706901e-05 -229.5163374
188.932708 50.76725239 -9.738597828e-05
421.500215 121.7874614 -148.4157964
-76.050024 -2.460706901e-05 -130.3279344
264.614904 67.70796239 -9.738597828e-05
209.251653 -2.460706901e-05 -135.1338374
-307.000838 -2.460706901e-05 -178.6505504
-397.720661 -2.460706901e-05 -195.2892094
207.887614 -2.460706901e-05 -75.39414939
-248.833391 -2.460706901e-05 -238.7626554
213.160894 -2.460706901e-05 -109.5485414
-170.416716 -2.460706901e-05 -188.8644054
-183.383442 -2.460706901e-05 -99.48759039
-169.351018 -2.460706901e-05 -114.9793184
-328.129443 -1.593984607 -9.738597828e-05
357.781391 -2.460706901e-05 -52.94354039
-184.665517 8.584311393 -9.738597828e-05
417.500215 52.29976039 -224.5254154
10.935266 -2.460706901e-05 -131.5920414
-379.095899 61.78763439 -9.738597828e-05
417.500215 26.32397739 -143.6492644
421.500215 161.4582744 -53.70702939
413.500215 108.3768704 -166.1998434
100.144098 -2.460706901e-05 -128.2963644
176.289259 -2.460706901e-05 -204.7240534
413.500215 39.26044439 -194.3136044
89.422305 24.37345139 -9.738597828e-05
421.500215 147.8052104 -141.8807294
-213.892983 -2.460706901e-05 -8.653586386
-51.897749 47.92177339 -9.738597828e-05
-140.801007 -2.460706901e-05 -194.8092294
426.364989 130.7189404 -44.00009739
32.492229 -2.460706901e-05 -43.25511539
421.500215 115.0362804 -191.7215574
-177.882785 -2.460706901e-05 -59.31212339
-5.46151 -2.460706901e-05 -40.13366739
-331.253322 -2.460706901e-05 -81.07707539
96.515247 -2.460706901e-05 -230.5659414
-82.291063 -2.460706901e-05 -78.20106839
52.583064 -2.460706901e-05 -27.18463739
-192.322669 -2.460706901e-05 -6.320008386
-214.679319 8.363843393 -9.738597828e-05
-310.291794 53.16679539 -9.738597828e-05
209.455228 -2.460706901e-05 -40.78074039
203.796285 -2.460706901e-05 -251.1096564
148.721383 -2.460706901e-05 -12.04989539
220.469095 -2.460706901e-05 -131.0031084
400.706839 -2.460706901e-05 -96.34524639
421.500215 30.51988039 -72.43872439
421.500215 223.5811725 -101.5794644
-377.758503 -2.460706901e-05 -198.0896154
272.991989 -2.460706901e-05 -237.2012904
-200.062522 -2.460706901e-05 -115.2022754
413.500215 63.96258839 -162.7980684
305.045486 -2.460706901e-05 -202.5895314
-94.942203 -2.460706901e-05 -63.86143239
219.858503 -2.460706901e-05 -61.85823339
434.942905 11.58482839 -43.33677739
421.500215 179.1652714 -119.7058094
-44.882641 -2.460706901e-05 -59.81168339
225.495266 -2.460706901e-05 -181.3280214
-256.873168 30.69477739 -9.738597828e-05
356.70691 57.37998239 -9.738597828e-05
-167.835343 67.99997539 1.249821614
337.169575 15.56580339 -9.738597828e-05
221.24033 -2.460706901e-05 -165.7489104
434.205107 46.71596239 -9.738597828e-05
-326.501885 -2.460706901e-05 -57.22617539
-365.181027 -2.460706901e-05 -120.5182454
91.407128 -2.460706901e-05 -49.30084139
-219.18616 -2.460706901e-05 -169.7662744
81.368289 -1.948352607 -221.8520114
231.766187 -1.043063607 -9.738597828e-05
311.415651 -2.460706901e-05 -119.5148524
421.500215 107.1045344 -108.9350864
-315.203318 37.81498339 -9.738597828e-05
425.81921 -2.460706901e-05 -249.1022484
417.500215 242.2677694 -147.4094374
165.524178 -2.460706901e-05 -3.285303386
-213.573497 -2.460706901e-05 -104.1076274
-356.420473 -2.460706901e-05 -219.7689144
-156.98695 -2.460706901e-05 -232.6874754
413.500215 37.03969339 -9.193195386
347.25927 -2.460706901e-05 -218.8725734
382.276319 36.29192839 -9.738597828e-05
413.500215 55.89506239 -168.6192274
-257.654517 -2.460706901e-05 -247.2304444
421.500215 121.2798504 -163.9448724
-70.888217 -2.460706901e-05 -13.81561639
-213.167536 -2.460706901e-05 -206.9979874
143.213378 -2.460706901e-05 -116.9066924
421.500215 136.5879114 -100.8017024
421.500215 109.4658714 -68.35463739
421.500215 18.37623339 -108.6573504
321.7889 -2.460706901e-05 -210.1320894
112.811127 -2.460706901e-05 -174.3611654
-129.972829 -2.460706901e-05 -30.87357139
413.500215 10.25899639 -55.69359539
175.926586 -2.460706901e-05 -38.06468939
-355.780333 -2.460706901e-05 -129.5464234
-350.792011 -2.460706901e-05 -21.56386839
249.991497 -2.460706901e-05 -244.9442274
237.329164 -2.460706901e-05 -230.6048074
-252.722639 -2.460706901e-05 -105.2720864
413.500215 174.1508014 -91.94321239
404.491798 -2.231367607 -9.738597828e-05
-16.368376 -2.460706901e-05 -56.07132739
-192.013337 -2.460706901e-05 -239.9558764
-57.06578 -2.460706901e-05 -47.64507439
301.052121 -2.460706901e-05 -212.6475244
-309.344573 -2.460706901e-05 -201.4282014
-192.69674 16.92210739 -9.738597828e-05
237.829255 -2.460706901e-05 -113.4034014
417.500215 28.72821439 -210.1186334
-125.694333 5.257732393 -9.738597828e-05
-47.168164 -2.460706901e-05 -116.6062514
421.500215 71.87446839 -180.9126884
-157.353807 27.07251839 -9.738597828e-05
126.808258 -2.460706901e-05 -114.2349704
413.500215 53.56692439 -201.2290974
421.500215 141.3042254 -81.20704939
413.500215 72.57173139 -157.7749124
-198.707001 -2.460706901e-05 -224.3088404
49.542354 56.10756239 -9.738597828e-05
-236.877372 -2.460706901e-05 -48.06505939
423.227788 23.96007039 -40.36520539
109.549841 11.00658839 -9.738597828e-05
271.517767 31.11576539 -9.738597828e-05
-305.281878 1.765908393 -9.738597828e-05
286.445294 -2.460706901e-05 -7.395163386
421.500215 74.08045139 -144.4183014
-252.784065 -2.460706901e-05 -40.17044739
434.101323 -2.460706901e-05 -120.7143614
322.118836 -2.460706901e-05 -192.4813674
373.867994 -2.460706901e-05 -68.78746639
405.776988 18.60046139 -9.738597828e-05
82.771561 -2.460706901e-05 -102.8066594
437.132693 87.34354239 -196.0000974
-260.899894 40.93305939 -9.738597828e-05
413.500215 61.03118239 -235.2857994
368.873498 -2.460706901e-05 -43.45877139
413.500215 88.33008539 -119.3735414
421.500215 128.8738184 -81.05772639
413.500215 75.80675239 -62.91459139
342.488299 -2.460706901e-05 -135.9784024
59.177362 13.14266639 -9.738597828e-05
-403.502129 -2.460706901e-05 -62.89196139
-26.772516 -2.460706901e-05 -229.1530464
-87.29092 -2.460706901e-05 -96.47206439
30.341721 8.530496393 -9.738597828e-05
417.500215 182.5933784 -50.38729439
-377.910493 -2.460706901e-05 -119.3795474
