# .PCD v0.7 - Point Cloud Data file format
VERSION 0.7
FIELDS x y z
SIZE 4 4 4
TYPE F F F
COUNT 1 1 1
WIDTH 1255
HEIGHT 1
VIEWPOINT 0 0 0 1 0 0 0
POINTS 1255
DATA ascii
171.5813234 -2.46024274e-05 92.26989538
57.66447336 57.1164654 -144.6953856
130.5751134 23.2298324 149.3046144
99.72252336 10.3142484 149.3046144
226.1878134 -2.46024274e-05 -73.05332962
170.6604134 -2.46024274e-05 -94.76032562
129.1333934 -2.46024274e-05 -46.36626462
195.2733134 -2.46024274e-05 139.5671934
48.02592336 -2.46024274e-05 123.4855614
58.90426336 24.1934144 -144.6953856
33.18658336 -2.46024274e-05 -108.3797636
-10.03046664 17.8057724 30.87157838
126.5298934 59.9954294 149.3046144
-19.69353664 11.0519334 60.61114338
58.90473336 49.4006854 149.3046144
22.85060336 -2.46024274e-05 95.14343838
91.36486336 -2.46024274e-05 -117.1043036
-27.13561664 51.8381624 149.3046144
196.9172134 -2.46024274e-05 112.7363324
117.6040334 -2.46024274e-05 -10.93206162
98.08058336 -2.46024274e-05 117.6627184
156.9737734 -2.46024274e-05 135.7265104
90.45938336 -2.46024274e-05 27.94015138
109.9167534 -2.46024274e-05 -48.20084062
175.1976734 -2.46024274e-05 -60.78805762
-4.954146642 42.6624604 149.3046144
23.32976336 33.6921684 143.3046144
180.3836434 -2.46024274e-05 133.7370424
143.2122634 -2.46024274e-05 6.876440377
118.2267134 7.904684398 143.3046144
80.34412336 -2.46024274e-05 98.67040538
16.38831336 53.3885054 143.3046144
38.19428336 26.1455904 -117.5484936
236.5356784 -2.46024274e-05 33.77045538
171.3055034 -2.46024274e-05 -81.20791562
11.61073336 -2.46024274e-05 102.4980454
247.9862154 -2.46024274e-05 -7.487974623
176.6991834 -2.46024274e-05 120.6591494
103.7243334 -2.46024274e-05 92.51194838
218.7309424 19.4494024 143.3046144
40.21168336 4.341827398 -123.7594066
117.6055134 -2.46024274e-05 -22.46658362
-23.40919664 27.7849124 143.3046144
177.0259934 -2.46024274e-05 -34.64023262
53.17300336 9.718759398 -144.6953856
44.92270336 49.4669244 -143.1231786
88.28629336 -2.46024274e-05 -12.67962662
80.91628336 -2.46024274e-05 -69.58272862
120.9414034 20.2923024 143.3046144
252.2388254 -2.46024274e-05 -50.35985962
-43.38740664 12.1865924 149.3046144
105.2989134 49.8971874 149.3046144
267.4134024 -2.46024274e-05 -54.84993262
151.8849734 67.9999754 143.7419344
241.9835294 -2.46024274e-05 -30.25199262
111.1075434 -2.46024274e-05 29.21697538
81.14268336 -2.46024274e-05 7.376004377
203.1228534 -2.46024274e-05 96.53878938
135.1284034 -2.46024274e-05 141.3119844
22.59952336 -2.46024274e-05 129.4261824
42.63305336 -2.46024274e-05 -0.6246376231
166.3074234 -2.46024274e-05 4.425502377
57.54254336 45.4617634 -144.6953856
88.09006336 -2.46024274e-05 -80.91826362
-33.76219664 42.3736514 143.3046144
18.60156336 8.481470398 149.3046144
36.68710336 39.0431794 -112.9101126
176.5829234 3.676563398 143.3046144
138.8051934 -2.46024274e-05 -34.04579762
-41.91111664 -2.46024274e-05 121.7336474
151.0263734 21.5710834 149.3046144
58.90178336 -2.46024274e-05 -109.2777716
99.03420336 -2.46024274e-05 -43.02086962
159.0375234 52.3368294 149.3046144
25.39189336 -2.46024274e-05 25.09847838
126.7930134 -2.46024274e-05 -112.0792726
53.89573336 67.6769124 -144.6953856
66.08398336 32.2785834 -144.6953856
0.02297335773 41.9372904 -0.06960362305
121.0696034 -2.46024274e-05 -78.29225762
30.07683336 31.9494564 -92.56567062
135.6536334 -2.46024274e-05 -102.4158366
53.95143336 14.8685174 143.3046144
-24.21633664 18.6584864 74.53102438
207.8257434 -2.46024274e-05 -6.170658623
-9.621276642 59.7748584 149.3046144
159.9036234 11.4838074 149.3046144
8.103953358 0.1908353976 -24.94259162
53.00060336 31.0110444 -150.6953856
210.4413334 -2.46024274e-05 39.15961838
-22.76679664 -2.46024274e-05 84.50852938
-31.16228664 21.6343994 95.90843238
-1.317726642 -2.46024274e-05 110.9397654
36.91126336 20.5272664 143.3046144
24.17172336 -0.6079786024 149.3046144
-11.71603664 34.7687704 36.05944138
106.3685834 -2.46024274e-05 -97.33771262
103.3345634 -2.46024274e-05 51.40000138
131.6272234 37.5853414 149.3046144
220.3314494 -2.46024274e-05 -93.87957662
213.7737404 10.4839554 149.3046144
9.802503358 -2.46024274e-05 127.9551084
-25.87853664 -2.46024274e-05 103.7495674
67.26482336 -2.46024274e-05 47.25124538
24.40723336 39.2919414 -75.11657862
162.4070134 -2.46024274e-05 -86.82839562
138.2233734 10.9581714 149.3046144
229.7185674 -2.46024274e-05 78.18392338
7.702983358 48.6686354 -23.70635662
3.540903358 -2.46024274e-05 30.19501738
43.97985336 -2.46024274e-05 33.76419638
146.0775034 -2.46024274e-05 -101.2904056
150.3517334 -2.46024274e-05 -87.10578462
180.0798734 -2.46024274e-05 98.33783138
-11.16261664 -2.46024274e-05 39.73865938
19.02088336 13.7110664 -58.53897362
36.29724336 -2.46024274e-05 -27.75549562
79.90117336 -2.46024274e-05 -23.87686062
-19.99574664 36.5306224 61.54169238
61.87603336 -2.46024274e-05 67.72996138
114.7411134 29.6923774 143.3046144
102.4670134 67.9999754 146.0221064
-44.24368664 30.0869764 136.1687704
87.43577336 -2.46024274e-05 106.6506004
14.69906336 -2.46024274e-05 -13.32209162
11.46789336 -2.46024274e-05 7.028220377
38.47263336 -2.46024274e-05 55.66977938
62.75143336 -2.46024274e-05 -61.71357662
93.54133336 48.5011784 143.3046144
16.33740336 24.5036174 -50.27993162
73.91780336 66.9083584 149.3046144
123.8162034 -2.46024274e-05 139.2598274
70.80589336 -2.46024274e-05 -123.7851796
67.69123336 -2.46024274e-05 -47.94558662
217.1611434 -2.46024274e-05 -67.60747562
32.00883336 -2.46024274e-05 107.3528374
45.40682336 -0.5502586024 -144.6953856
47.11615336 -2.46024274e-05 103.5695724
24.03906336 17.4905344 -73.98322362
3.419273358 8.672604398 143.3046144
43.83942336 40.4430144 -134.9227196
126.0491034 -2.46024274e-05 -122.1758146
47.67095336 32.8075654 149.3046144
0.4029233577 9.390578398 -1.239214623
189.7681834 -2.46024274e-05 -72.06307662
105.9273634 -2.46024274e-05 -110.1188096
34.11358336 -2.46024274e-05 19.21735638
130.9959834 -2.46024274e-05 22.46287038
110.4783034 -2.46024274e-05 129.7123754
-23.95258664 59.2698234 143.3046144
194.2024734 55.8581714 149.3046144
202.6360634 -2.46024274e-05 79.51265238
67.91767336 58.7823084 -144.6953856
192.7407134 -2.46024274e-05 19.10479238
109.6611634 -2.46024274e-05 17.65058938
197.2381234 -1.306021602 149.3046144
137.3241534 -2.46024274e-05 106.7863224
22.50759336 30.5773764 -69.26991162
-41.34004664 41.1322084 127.2324794
18.87588336 -2.46024274e-05 118.3880714
30.62726336 -2.46024274e-05 136.5705154
53.20772336 -2.46024274e-05 47.45134238
251.7601024 -2.46024274e-05 -76.95486562
32.69205336 17.1410024 -100.6142806
106.8992434 -2.46024274e-05 -62.35995162
267.2200504 -2.46024274e-05 -75.26457362
-24.04912664 15.4225734 143.3046144
164.3179934 -2.46024274e-05 36.37820838
138.9939834 -2.46024274e-05 -46.21852762
11.54750336 31.4392664 149.3046144
184.0277734 -2.46024274e-05 -3.060790623
248.8847504 -2.46024274e-05 -64.93788862
148.8862134 51.5067144 143.3046144
139.8680034 -2.46024274e-05 -20.13769862
120.1532434 -2.46024274e-05 117.8166604
38.13830336 47.8378004 -117.3766266
227.1802174 -2.46024274e-05 -51.64060062
40.27487336 -2.46024274e-05 8.882500377
94.77920336 -2.46024274e-05 96.53137638
223.8391544 -2.46024274e-05 94.30661138
-40.75710664 33.9483444 149.3046144
-30.79348664 7.071809398 143.3046144
-35.78819664 34.5660904 110.1456394
84.91418336 -2.46024274e-05 -93.88030462
9.354733358 60.2949474 143.3046144
-41.10604664 27.0823254 126.5121204
258.7908894 -2.46024274e-05 18.92922338
8.808173358 -2.46024274e-05 50.85674338
145.6400834 -2.46024274e-05 61.14135138
97.89490336 -2.46024274e-05 -135.7732366
82.98830336 7.442137398 143.3046144
154.4889834 -2.46024274e-05 -64.18192762
-39.75052664 21.2475444 149.3046144
37.72299336 -2.46024274e-05 -41.14970362
-29.34321664 -2.46024274e-05 133.3758344
141.8392934 -2.46024274e-05 -110.7377726
226.0938284 -2.46024274e-05 120.5083434
144.5818934 -2.46024274e-05 97.63911938
66.78641336 -2.46024274e-05 30.22108238
181.9574734 26.0954164 143.3046144
87.54883336 56.7747334 149.3046144
166.1013234 -2.46024274e-05 24.36042638
32.39979336 -2.46024274e-05 -74.28495062
167.5796334 -2.46024274e-05 -13.27818962
185.8923734 -2.46024274e-05 69.98170838
58.46685336 -2.46024274e-05 -88.17577062
-11.11268664 3.177718398 149.3046144
234.8335964 -2.46024274e-05 57.01092238
206.9810034 52.6392254 149.3046144
146.9180434 -2.46024274e-05 37.54464738
54.31269336 -2.46024274e-05 -29.21802762
236.2107484 -2.46024274e-05 -40.39656162
-17.60135664 -2.46024274e-05 134.0102304
150.5375734 32.6372564 143.3046144
69.43324336 -2.46024274e-05 103.0740314
50.73424336 64.1956804 143.3046144
10.24052336 8.737178398 -31.51614962
77.25414336 -2.46024274e-05 -133.7780576
37.71699336 9.323163398 -116.0813356
-30.98362664 40.7884284 95.35883638
-10.28626664 -2.46024274e-05 62.60925438
19.13089336 49.9999754 -66.81968662
10.57757336 -2.46024274e-05 -3.160453623
226.5133774 -2.46024274e-05 -82.46882562
104.4474134 -2.46024274e-05 -78.47579562
9.207813358 36.0733164 -28.33752562
190.0407034 12.4279584 149.3046144
124.5011334 -2.46024274e-05 14.12000438
110.0431134 14.4295384 143.3046144
48.90970336 -2.46024274e-05 -42.45359662
11.36962336 46.1244544 149.3046144
64.36037336 -2.46024274e-05 -11.45261862
159.0029834 -1.393310602 149.3046144
74.15399336 -2.46024274e-05 -93.64343362
30.14400336 35.9497894 149.3046144
-29.65680664 23.7754474 149.3046144
172.0376234 -2.46024274e-05 41.66009638
53.85706336 44.3575804 143.3046144
105.6217034 -2.46024274e-05 -26.53919662
53.73346336 6.543927398 149.3046144
-12.94422664 35.3441294 143.3046144
2.086133358 21.1053954 143.3046144
58.24391336 -2.46024274e-05 78.70196538
83.64941336 -1.901558602 143.3046144
203.8652734 40.8507344 149.3046144
-3.276056642 -0.9996916024 11.70047538
3.226863358 5.318825398 -9.930564623
200.5609234 -2.46024274e-05 -89.73803362
45.34420336 28.6363284 -142.9862346
-30.50618664 11.1877424 93.88893638
87.06525336 29.7045794 149.3046144
-12.14945664 25.6548514 37.39323638
147.1019634 -2.46024274e-05 140.2870514
163.1289734 -2.46024274e-05 -33.73850062
130.6057834 -2.46024274e-05 71.61317338
56.51550336 -2.46024274e-05 132.1675444
124.9863934 -2.46024274e-05 99.21953838
20.24133336 -2.46024274e-05 41.20122138
81.24910336 -2.46024274e-05 -5.522339623
143.9857634 -2.46024274e-05 -80.51848662
40.03191336 -2.46024274e-05 79.79863538
-14.51339664 -2.46024274e-05 121.7594784
131.9708034 3.072645398 149.3046144
207.9719334 64.1924054 143.3046144
29.57292336 -2.46024274e-05 -0.8539756231
165.5861434 31.8382584 143.3046144
108.5295134 -2.46024274e-05 -122.0452196
45.00554336 -2.46024274e-05 88.61386138
-9.058156642 38.3031934 27.87931438
-5.267656642 27.9751534 16.21335038
58.31476336 58.5960744 143.3046144
65.59700336 -2.46024274e-05 9.352931377
83.32650336 -2.46024274e-05 81.77251838
108.7979834 -2.46024274e-05 99.98317238
-18.31490664 44.4004354 143.3046144
183.7620034 10.0293234 143.3046144
129.4701434 -2.46024274e-05 123.8864104
97.26969336 -2.46024274e-05 -12.21349662
142.4826134 49.6147984 149.3046144
-3.801986642 -2.46024274e-05 119.5648474
28.54749336 0.8442853976 -87.86092862
-7.769476642 -2.46024274e-05 104.3779684
228.9979314 -2.46024274e-05 45.57290138
108.1643634 30.5437894 149.3046144
56.58088336 -2.46024274e-05 -100.6512406
117.8360734 -2.46024274e-05 37.72859238
239.2416754 -2.46024274e-05 -4.369386623
-22.38380664 41.0324114 68.89139438
7.282453358 -2.46024274e-05 139.3619284
77.05598336 43.5407644 143.3046144
174.2073234 -2.46024274e-05 57.82552438
69.55519336 13.4252564 143.3046144
33.39377336 37.3203564 -102.7742736
89.48307336 -2.46024274e-05 -33.34554262
212.1807134 -2.46024274e-05 128.6230044
169.0773334 39.2573244 149.3046144
25.74585336 -2.46024274e-05 -14.10386262
-12.81298664 -2.46024274e-05 71.22618138
-5.173716642 45.0862064 15.92412438
89.05939336 -2.46024274e-05 -126.4042066
73.34145336 -2.46024274e-05 18.18718138
43.95190336 48.5384054 149.3046144
83.32641336 36.7847584 143.3046144
-0.6742566423 55.6844244 143.3046144
203.8213534 5.646691398 149.3046144
250.8531394 -2.46024274e-05 -27.61646462
-34.22459664 22.9856674 105.3332384
20.72392336 25.5713164 149.3046144
-4.946826642 31.7394454 143.3046144
178.4321334 -2.46024274e-05 -25.98226862
115.4418634 -2.46024274e-05 75.92835838
57.64759336 35.3821824 -144.6953856
103.1824334 -2.46024274e-05 -88.24142762
195.4325234 43.1028634 149.3046144
118.5704934 41.8019614 149.3046144
20.50646336 -2.46024274e-05 -56.11149862
-22.35688664 9.840953398 68.80801238
92.33567336 22.7902284 149.3046144
12.23214336 -2.46024274e-05 81.43596738
198.8466834 -2.46024274e-05 -17.81891562
72.58575336 29.4789784 149.3046144
94.83691336 5.007129398 143.3046144
25.01450336 49.9999754 -83.69779962
24.46095336 -2.46024274e-05 86.15395938
181.8166534 63.2603554 149.3046144
31.64539336 42.1741434 143.3046144
153.0501834 -2.46024274e-05 80.34678938
186.7704634 -2.46024274e-05 -39.17469662
30.62328336 23.5040144 -94.24729862
-6.877566642 -0.02201860243 21.16731738
1.285303358 -2.46024274e-05 126.6707964
160.7233534 -2.46024274e-05 -74.91261362
5.337053358 43.0945414 143.3046144
9.814083358 67.9999754 147.0614054
124.6693234 -2.46024274e-05 -17.60484262
106.0198334 -2.46024274e-05 -133.0875856
-47.04560664 55.3699614 149.3046144
196.9170834 -2.46024274e-05 69.17324638
119.4530534 13.8577614 149.3046144
94.89833336 -2.46024274e-05 131.8267534
27.98900336 15.9941864 143.3046144
97.55248336 -2.46024274e-05 3.608929377
144.8031934 -2.46024274e-05 -66.40887562
48.66737336 -2.46024274e-05 -123.9084236
48.52447336 2.322085398 143.3046144
191.0010934 30.9696774 143.3046144
60.71339336 29.8489804 149.3046144
188.5139134 59.1507794 143.3046144
262.3757274 -2.46024274e-05 -15.53463462
61.29702336 -2.46024274e-05 57.19181738
36.24239336 -2.46024274e-05 -6.150598623
193.4411734 -2.46024274e-05 47.88364438
213.8673024 -2.46024274e-05 75.04872238
46.37441336 43.5980614 -150.6957556
31.04224336 54.0898914 143.3046144
121.7698934 -2.46024274e-05 -69.88447162
45.28932336 -2.46024274e-05 -86.24382162
110.5475234 -2.46024274e-05 141.0710974
188.3268134 -2.46024274e-05 -23.68455362
208.9393234 -2.46024274e-05 85.09454838
215.2350684 -2.46024274e-05 11.84834538
185.0606834 -2.46024274e-05 90.66596338
121.3685234 27.3186604 149.3046144
214.1386674 -2.46024274e-05 136.7939914
145.9084534 7.575366398 149.3046144
209.5365334 42.0631944 143.3046144
198.0411134 -2.46024274e-05 -71.09106262
-17.25075664 35.8501174 53.09350838
6.769083358 22.4535924 -20.83182562
12.53955336 13.9758754 143.3046144
123.8459934 -2.46024274e-05 63.53364938
-37.94214664 -0.9196686024 143.3046144
186.6659134 -2.46024274e-05 -79.76468762
112.6402934 -2.46024274e-05 54.08762138
17.32149336 -2.46024274e-05 60.70640638
133.4379434 29.0063564 143.3046144
237.1129314 -2.46024274e-05 4.863604377
61.06677336 -2.46024274e-05 -22.71300562
-34.04391664 1.703257398 104.7762364
128.9995034 45.4100214 149.3046144
25.32555336 65.0057884 149.3046144
125.5633034 -2.46024274e-05 0.6414533769
90.42311336 -2.46024274e-05 65.22225838
148.8120934 -2.46024274e-05 117.6008124
208.5320934 -2.46024274e-05 -82.01323162
105.5181334 -2.46024274e-05 108.5054054
140.1789334 19.1154164 143.3046144
85.42431336 -2.46024274e-05 40.15080638
14.67333336 47.5840734 -45.15888362
-40.16186664 9.626831398 123.6060784
167.3547834 -2.46024274e-05 -103.0631606
168.7541234 57.7591844 143.3046144
210.7608434 16.1585684 143.3046144
30.58709336 -2.46024274e-05 91.56213038
13.66688336 24.2492044 143.3046144
42.18739336 23.1316134 149.3046144
19.07334336 -2.46024274e-05 -37.90060362
100.2280834 41.3685404 143.3046144
-24.36635664 -2.46024274e-05 76.52495238
157.2044134 -2.46024274e-05 124.2979074
16.64143336 16.3187994 -51.21576062
30.98550336 10.7704574 -95.36228162
-19.41877664 -2.46024274e-05 115.2936894
-12.34636664 11.0874854 37.99898038
-27.62297664 -2.46024274e-05 111.6553284
212.6521434 -2.46024274e-05 -33.84916562
207.7540334 -2.46024274e-05 24.81242138
166.2281734 -2.46024274e-05 -58.09013062
59.22529336 13.3977374 149.3046144
198.7684334 -2.46024274e-05 -33.90340162
60.28888336 13.5105724 -144.6953856
89.25235336 -2.46024274e-05 -53.64763062
7.762713358 8.942140398 -23.89025262
224.6603524 -2.46024274e-05 71.96291338
2.363683358 -2.46024274e-05 70.06333638
198.1544734 -2.46024274e-05 7.400678377
62.04405336 37.6448974 143.3046144
-17.43767664 49.9999754 49.89284538
27.78383336 -2.46024274e-05 -59.35931362
-16.98511664 16.6166004 52.27570038
-17.68483664 60.2233334 149.3046144
-7.577996642 18.4049364 23.32371538
202.6343534 -2.46024274e-05 37.61211438
16.73973336 -2.46024274e-05 -28.67076562
107.2775234 6.976342398 143.3046144
-46.10567664 48.8923424 141.8996134
35.73644336 12.2349334 143.3046144
116.8292034 62.1868854 149.3046144
154.2198034 16.0598744 143.3046144
33.82651336 10.1077574 -104.1069476
-12.83467664 28.8762104 149.3046144
132.6557034 -2.46024274e-05 85.99491038
29.57912336 -2.46024274e-05 7.624940377
41.09001336 29.4602104 -126.4606956
1.475413358 49.3736164 -4.539882623
263.6783264 -2.46024274e-05 -31.08153162
10.47279336 -2.46024274e-05 73.15080938
88.78241336 -2.46024274e-05 -109.6432866
-34.60740664 47.4315154 149.3046144
154.9699934 -2.46024274e-05 -53.31625962
2.443363358 20.4655074 -7.518733623
-45.61314664 35.5233004 143.3046144
-23.71262664 44.7569824 149.3046144
68.84035336 67.0872764 143.3046144
169.3063734 23.7295264 143.3046144
99.26976336 18.1503314 149.3046144
217.5754454 -2.46024274e-05 99.80049038
119.7628734 -2.46024274e-05 85.13629438
-37.97332664 67.2484364 149.3046144
72.56852336 37.1203264 143.3046144
18.59225336 33.0747554 -57.21979662
188.2573534 21.4755964 143.3046144
200.9379334 15.6939984 149.3046144
190.2061534 -2.46024274e-05 -15.72851162
-3.384746642 8.168868398 10.41793438
251.0446724 -2.46024274e-05 18.27655438
34.47183336 7.462305398 149.3046144
132.9253334 55.5960984 149.3046144
-24.16444664 0.7180273976 149.3046144
46.30821336 20.2309344 143.3046144
136.3049934 -2.46024274e-05 -81.60473062
27.24629336 -2.46024274e-05 -45.37841862
-10.17771664 67.9999754 147.8072314
-2.070276642 38.2088994 6.372833377
153.2190034 60.0104804 143.3046144
192.5398134 39.2082424 143.3046144
95.29291336 -2.46024274e-05 39.20042338
96.32255336 -2.46024274e-05 -64.49317462
153.2214634 -2.46024274e-05 -105.0722776
103.1059534 -2.46024274e-05 81.26872438
86.19718336 50.8333804 143.3046144
132.3414834 -2.46024274e-05 -18.28330862
28.20484336 41.6293854 -86.80447662
63.80159336 -2.46024274e-05 88.43436838
26.33176336 24.3996614 -81.03936562
98.41298336 46.5227574 149.3046144
175.5757634 -2.46024274e-05 -17.56759462
-13.58114664 41.3763814 149.3046144
157.1197634 -2.46024274e-05 -26.87839662
244.1970244 -2.46024274e-05 -72.12817862
-36.89435664 27.8062844 113.5499414
97.56608336 -0.5892956024 149.3046144
161.6542034 -2.46024274e-05 46.15140138
63.73237336 25.7326594 143.3046144
97.16389336 61.4155284 149.3046144
165.8047634 -2.46024274e-05 -5.864580623
-12.29052664 -2.46024274e-05 97.84531738
35.86165336 28.8027614 -110.3694666
48.83725336 53.4813224 -150.6953856
50.36566336 -2.46024274e-05 -71.77583962
-22.03313664 -2.46024274e-05 92.06924038
161.7299834 7.200437398 143.3046144
140.6932434 -2.46024274e-05 124.2492354
8.457663358 27.7027754 -26.02865462
172.8443234 48.1388564 143.3046144
227.1369794 -2.46024274e-05 31.82682638
220.9777284 -2.46024274e-05 -37.01290762
68.04804336 -2.46024274e-05 -4.847524623
11.10749336 16.1738744 -34.18411962
66.57602336 -2.46024274e-05 -72.08809262
182.2428134 43.9281924 143.3046144
80.53612336 21.0078744 143.3046144
-48.07151664 24.8405284 149.3046144
-46.53505664 65.2922944 143.3046144
242.4360424 -2.46024274e-05 41.88916038
37.29380336 58.2963754 143.3046144
186.8031334 -2.46024274e-05 137.6818644
22.90574336 -2.46024274e-05 -74.84119262
43.53737336 -2.46024274e-05 -68.59988562
241.9149214 -2.46024274e-05 64.19269438
97.19363336 -2.46024274e-05 -21.46554862
203.1281034 27.7939864 143.3046144
194.3945834 67.9999754 149.2626664
-8.043306642 9.181479398 24.75547638
172.7128834 -2.46024274e-05 102.3948394
183.8144734 -2.46024274e-05 -52.34155862
184.0196634 33.7337364 143.3046144
32.90852336 -2.46024274e-05 44.25426138
175.3727034 -2.46024274e-05 -106.0217536
213.9569204 61.0292734 149.3046144
-1.232906642 18.0549064 149.3046144
47.12553336 -2.46024274e-05 -6.615622623
183.1385834 -2.46024274e-05 -95.09419562
82.01516336 -2.46024274e-05 133.2805874
135.0885234 -2.46024274e-05 14.56873138
141.6682434 45.2337314 143.3046144
116.2791634 -2.46024274e-05 21.11402238
229.9799994 -2.46024274e-05 -66.62236362
17.23581336 37.9006944 149.3046144
67.43707336 -2.46024274e-05 -28.01779162
88.51749336 -2.46024274e-05 6.219259377
198.4141634 57.2458054 143.3046144
155.0181434 42.3651594 143.3046144
21.19432336 59.0904394 143.3046144
217.4363434 8.016232398 143.3046144
-3.288516642 2.448874398 149.3046144
224.3806784 -2.46024274e-05 19.14203738
180.6838634 5.986045398 149.3046144
174.2438434 10.9112554 143.3046144
181.6331934 19.9471564 149.3046144
108.6797634 52.7061094 143.3046144
224.2805164 -2.46024274e-05 113.3182354
45.05524336 55.8708924 149.3046144
2.663613358 -2.46024274e-05 77.45989138
210.2000634 -2.46024274e-05 48.51214238
246.4463474 -2.46024274e-05 -0.2584886231
103.7984934 -2.46024274e-05 30.27528038
26.11509336 -2.46024274e-05 114.6649124
197.9317334 -2.46024274e-05 91.30210738
233.7285484 -2.46024274e-05 18.61863838
148.3503034 -2.46024274e-05 -5.209517623
50.16437336 -2.46024274e-05 20.47914438
70.64158336 -2.46024274e-05 110.3283984
-4.018806642 53.0630054 149.3046144
135.0138634 -2.46024274e-05 57.20213638
116.2867134 3.535736398 149.3046144
-10.88244664 -1.419640602 27.13872638
18.33514336 -2.46024274e-05 23.14349738
189.6155034 -2.46024274e-05 -86.46035262
-3.600746642 20.8608124 11.08306638
11.23101336 39.3369984 -34.56432962
3.253303358 27.6119744 -10.01134762
5.985633358 38.7730994 -18.42070662
5.777003358 4.096843398 -17.77909262
144.8956234 37.2453874 143.3046144
48.41880336 -2.46024274e-05 111.2490424
26.55255336 6.291134398 -81.72128662
120.5797134 -2.46024274e-05 55.01845938
126.6302234 -2.46024274e-05 106.2973364
122.3513534 -2.46024274e-05 -29.85386562
-7.018126642 35.2947394 21.60082538
79.19325336 -2.46024274e-05 61.40393338
-29.10451664 49.9407234 89.57545038
128.2243034 -2.46024274e-05 -34.47868062
49.96516336 57.5894704 -144.6953856
37.76043336 38.8425704 149.3046144
-36.35348664 7.169257398 111.8853154
231.9145154 -2.46024274e-05 -34.58777362
36.77231336 -2.46024274e-05 34.17653838
-8.889926642 -2.46024274e-05 48.80374738
36.96126336 -2.46024274e-05 133.1321124
68.93149336 1.958147398 149.3046144
23.02175336 10.7771384 143.3046144
272.2957904 -2.46024274e-05 -62.38322262
46.13129336 19.7308414 -142.7305116
-26.28171664 49.9999754 78.56305038
-34.74157664 6.970130398 149.3046144
55.18648336 -2.46024274e-05 -38.96823962
13.10243336 28.0245744 -40.32376862
37.45863336 -2.46024274e-05 -98.25452862
100.4136834 32.3963164 149.3046144
50.58404336 26.2699164 149.3046144
114.6427434 43.0126004 143.3046144
39.12734336 -2.46024274e-05 118.6616534
56.27458336 61.9057434 149.3046144
176.1675734 -2.46024274e-05 47.49464338
77.14295336 51.3086384 143.3046144
25.79702336 -2.46024274e-05 67.62315738
19.57886336 -2.46024274e-05 135.8849644
177.6192434 13.4253384 149.3046144
256.0990504 -2.46024274e-05 -44.37416362
49.48716336 -2.46024274e-05 -116.7289156
137.9951034 -2.46024274e-05 -64.35904562
76.51411336 -2.46024274e-05 91.07900138
142.4441334 -2.46024274e-05 -27.05222962
230.5870034 -2.46024274e-05 38.03296938
183.7291834 -2.46024274e-05 117.9343604
78.71978336 -2.46024274e-05 -141.5394356
147.6093034 27.7831994 149.3046144
163.5053134 -2.46024274e-05 -114.3896456
86.10035336 43.3018054 143.3046144
143.2257834 -2.46024274e-05 -73.33148362
-32.51552664 -2.46024274e-05 120.5390174
159.7176034 -2.46024274e-05 116.8286424
22.21946336 9.185366398 -68.38336262
-39.02695664 42.5289434 120.1135664
149.4583734 -2.46024274e-05 10.16655138
191.2501834 -2.46024274e-05 107.4801714
62.73560336 53.1016954 143.3046144
26.25955336 -2.46024274e-05 142.1016794
126.5388034 -2.46024274e-05 -64.70555062
63.47591336 2.065975398 143.3046144
-3.134966642 29.3252654 9.649668377
223.7558954 -2.46024274e-05 -1.145504623
-29.43059664 17.2916544 90.57878138
26.80492336 -2.46024274e-05 57.02589338
-29.61528664 54.4632024 143.3046144
50.23402336 -2.46024274e-05 36.90358138
77.36248336 22.7060574 149.3046144
87.26394336 67.5587184 143.3046144
-14.50749664 7.609326398 44.65007038
153.2946234 -2.46024274e-05 20.90562038
215.4624384 -2.178897602 143.3046144
35.49658336 27.3725624 143.3046144
183.0196334 56.3754384 149.3046144
-35.57795664 -2.46024274e-05 130.2304264
187.9913034 4.473583398 143.3046144
201.1911134 24.8091974 149.3046144
179.1768134 -2.46024274e-05 39.62824438
-14.04500664 22.3395304 43.22707738
-36.23328664 20.4668604 111.5152694
158.3758534 43.4995244 149.3046144
-9.646786642 -2.46024274e-05 80.35136438
193.9066434 4.804767398 149.3046144
4.153273358 26.4287574 149.3046144
50.08155336 11.4036144 -150.6953856
173.4496034 31.2138914 143.3046144
78.78900336 40.4909414 149.3046144
-30.36367664 34.1349354 93.45074738
152.1659734 -2.46024274e-05 66.24272238
114.3498834 55.5748094 149.3046144
13.58982336 11.3946894 -41.82407662
73.79978336 -2.46024274e-05 -44.65396062
-24.67029664 31.9768774 149.3046144
168.7334334 -2.46024274e-05 -37.81846362
69.43306336 30.9199014 143.3046144
208.6343334 -2.46024274e-05 14.65368638
142.9506434 -2.46024274e-05 -40.33360562
144.0816934 -2.46024274e-05 25.69969238
40.26865336 47.3428624 -123.9331556
99.60064336 -2.46024274e-05 -95.58226862
53.12525336 42.1487414 -150.6953856
144.6106734 65.5566384 149.3046144
69.81419336 7.182124398 -144.6953856
-20.79677664 -2.46024274e-05 58.31190838
52.83324336 -2.46024274e-05 86.46259938
-32.77284664 17.0442354 100.8651454
-25.15788664 28.1403594 77.42894338
3.271503358 5.326483398 149.3046144
129.8729034 59.8523884 143.3046144
135.5772834 -2.46024274e-05 -12.22554562
164.3820634 -2.46024274e-05 140.0700244
204.8197534 -2.088225602 143.3046144
16.00294336 -2.46024274e-05 96.27491938
166.9954034 -2.46024274e-05 86.96652838
157.3618834 -2.46024274e-05 31.59056338
20.55743336 -2.46024274e-05 32.91030638
128.8631334 -2.224517602 143.3046144
97.81833336 -2.46024274e-05 125.6426994
100.7473534 -1.384527602 143.3046144
-9.344906642 -2.46024274e-05 111.0315564
15.47996336 -2.46024274e-05 67.29130438
151.7317334 -2.46024274e-05 -93.80238262
-42.39545664 43.2392274 149.3046144
179.1327534 -2.46024274e-05 26.20322838
-22.84798664 52.5316684 143.3046144
160.4760134 -2.46024274e-05 101.4940374
-1.020896642 14.4208654 3.143048377
240.9753624 -2.46024274e-05 -23.50703662
194.3850334 -2.46024274e-05 132.8076804
87.83467336 15.0110534 149.3046144
98.03004336 -2.46024274e-05 -112.4524066
62.37429336 12.7058984 143.3046144
254.0319104 -2.46024274e-05 -4.395508623
122.5242034 34.2973054 149.3046144
229.4072984 -2.46024274e-05 -24.60748862
158.0762734 21.6987334 149.3046144
75.49512336 10.1547764 143.3046144
136.5461934 28.4967474 149.3046144
224.1605824 -2.46024274e-05 51.19642438
86.09852336 -2.46024274e-05 75.59342238
172.7171134 -2.46024274e-05 6.596765377
122.0880434 -2.46024274e-05 -89.70681162
-11.84985664 48.3762454 149.3046144
-40.72901664 20.4404204 125.3516544
151.2378634 48.6369084 149.3046144
25.23525336 17.3831594 149.3046144
122.4369834 -2.46024274e-05 -47.17922762
9.116603358 -2.46024274e-05 26.25755138
62.53804336 -2.46024274e-05 -118.8106186
82.99553336 -2.46024274e-05 -75.99439662
-41.00018664 -0.6477156024 149.3046144
128.7039734 16.7583144 149.3046144
49.74819336 8.940263398 143.3046144
82.76941336 -2.46024274e-05 88.47873838
163.3346534 -2.46024274e-05 -93.75036862
-0.3000166423 -2.46024274e-05 35.71507438
86.42694336 -2.46024274e-05 -41.88680762
-15.66836664 57.3576524 143.3046144
86.12050336 -2.46024274e-05 59.91992538
83.05018336 -2.46024274e-05 -35.23472162
166.2018434 13.7645984 149.3046144
52.45804336 47.5857214 149.3046144
-42.58237664 29.0912784 143.3046144
56.92483336 8.842146398 143.3046144
55.64929336 -2.46024274e-05 70.13333038
131.9323334 -2.46024274e-05 -91.94838862
228.8732524 -2.46024274e-05 64.05639138
239.0710584 -2.46024274e-05 -88.62932862
-38.40281664 6.171023398 118.1916454
-3.231636642 -2.46024274e-05 26.73317538
-22.16904664 18.1139324 68.23014338
81.57747336 14.4432434 143.3046144
48.91910336 -2.46024274e-05 29.32458738
213.9462134 37.1177014 143.3046144
-34.30970664 49.9999754 104.6205134
24.46299336 27.0972894 -75.28794162
209.2537034 9.711018398 143.3046144
68.76388336 -2.46024274e-05 -138.1264986
188.6405234 52.2675794 149.3046144
109.7668034 -2.46024274e-05 43.79864938
104.9951134 -2.46024274e-05 -10.59815262
75.58209336 -2.46024274e-05 -73.47971762
190.0928834 -2.46024274e-05 3.389038377
136.4206434 42.1167204 149.3046144
109.8882434 -1.880839602 -81.68800662
215.7642184 -2.46024274e-05 -42.96909062
4.132003358 32.6215664 143.3046144
7.130993358 61.8532004 149.3046144
213.6205464 -2.46024274e-05 -62.05491262
254.0478384 -2.46024274e-05 34.60386538
3.402603358 -2.46024274e-05 101.7657214
-11.66568664 41.3415854 35.90442138
210.0048634 -2.46024274e-05 121.0583044
199.1457334 5.013863398 143.3046144
18.79911336 7.190317398 -57.85673262
180.8536134 -1.301611602 143.3046144
145.3347934 -2.46024274e-05 104.1520544
247.6334904 -2.46024274e-05 -83.41976662
144.1536334 59.0903284 143.3046144
181.4535334 36.0113614 149.3046144
92.02803336 40.5425504 143.3046144
37.36020336 67.9999754 148.8786584
-0.6328866423 -2.46024274e-05 137.2190164
51.60917336 56.8314394 149.3046144
-37.74221664 34.1558954 143.3046144
-1.268106642 58.9804534 149.3046144
32.09290336 47.6167304 -98.77081762
205.2507734 50.1429954 143.3046144
127.1202834 -2.46024274e-05 117.8145134
0.3860733577 24.8465694 -1.187010623
79.72653336 67.9999754 146.6019404
73.00306336 -2.46024274e-05 72.06987138
15.82506336 37.7463054 -48.70333962
50.19758336 0.5021653976 149.3046144
20.62783336 56.6929664 149.3046144
-37.17214664 47.2893454 114.4050974
22.18430336 41.2566954 -68.27515162
18.42729336 19.8983014 -56.71199162
74.86555336 -2.46024274e-05 -17.80634062
-42.35496664 46.7094744 130.3561344
102.4536734 -2.46024274e-05 58.35688538
20.36166336 -2.46024274e-05 10.02001538
195.9980134 -2.46024274e-05 -53.94717562
88.81837336 31.3293114 143.3046144
63.91622336 46.7530614 143.3046144
270.0241854 -2.46024274e-05 -45.12711862
84.97419336 8.676577398 149.3046144
-34.11157664 29.2142214 149.3046144
34.71015336 21.2688334 149.3046144
106.8109634 61.3223324 143.3046144
181.1219634 -2.46024274e-05 20.09924338
80.16340336 30.8145454 149.3046144
171.7059234 -2.46024274e-05 79.93813738
-24.27198664 61.5005854 149.3046144
216.9624494 31.2780144 149.3046144
3.399073358 11.7317344 149.3046144
152.6920834 -0.7841286024 143.3046144
-9.826056642 46.4638494 30.24250038
103.1869634 -2.46024274e-05 -67.56560562
101.4421134 -2.46024274e-05 -31.36943462
-28.82919664 7.838941398 88.72709938
278.8157514 -2.46024274e-05 -41.39234562
-28.41430664 0.06327839757 87.45018838
67.72135336 -2.46024274e-05 63.55801438
148.4324734 14.3122274 149.3046144
100.8012234 39.3805274 149.3046144
126.1856134 -2.46024274e-05 -74.53878462
201.4355634 17.6968914 143.3046144
56.66287336 24.4556554 149.3046144
35.29889336 -1.759016602 143.3046144
188.9699434 31.0799454 149.3046144
149.4072634 -2.46024274e-05 -15.19496962
61.06338336 -2.46024274e-05 43.72354238
46.86907336 -2.46024274e-05 94.65747238
-2.589826642 27.9426684 149.3046144
246.8516464 -2.46024274e-05 -34.41404962
139.0374334 4.542261398 143.3046144
183.4429434 27.3887114 149.3046144
-9.217676642 3.694091398 143.3046144
64.97914336 -2.46024274e-05 -53.64442762
206.4785634 22.2164904 143.3046144
-17.53081664 0.2011533976 149.3046144
51.16688336 30.3799874 -144.6953856
156.6729134 34.0749774 143.3046144
125.6347034 11.2553474 149.3046144
-26.36068664 40.9975004 81.13094438
35.69288336 5.584499398 -109.8519196
172.7629734 5.926298398 149.3046144
-0.4095966423 31.3632464 1.261892377
153.4808234 -2.46024274e-05 89.71645038
150.5771634 23.3269954 143.3046144
173.5267434 -2.46024274e-05 -54.75953262
170.9677834 22.0872184 149.3046144
69.85894336 -2.46024274e-05 -33.97369062
216.2645604 -2.46024274e-05 36.16496138
77.68378336 0.3791423976 143.3046144
-26.16969664 21.2803894 143.3046144
213.3663774 22.6096804 143.3046144
162.8001934 -2.46024274e-05 17.97295338
171.5809134 64.3100154 149.3046144
75.25289336 -2.46024274e-05 -99.76220562
95.89491336 -2.46024274e-05 90.03347638
203.0575934 -2.46024274e-05 70.10717738
108.9976034 38.4574384 149.3046144
39.33796336 -2.46024274e-05 15.88241538
91.55194336 -2.46024274e-05 71.59789238
32.31269336 43.6492434 149.3046144
-34.44950664 38.9897934 106.0256394
197.9456034 -2.46024274e-05 60.65106338
170.6624934 1.884306398 143.3046144
-20.22213664 16.9947474 62.23817138
210.2358734 -2.46024274e-05 61.39560238
206.5350934 -2.46024274e-05 -34.73710062
63.28470336 -2.46024274e-05 -80.69093762
104.8805034 45.4314804 143.3046144
140.1384834 -2.46024274e-05 114.3336044
54.80800336 16.3545494 -144.6953856
27.42350336 49.9999754 -89.38325762
35.52465336 -2.46024274e-05 -114.0903966
53.60283336 -2.46024274e-05 -55.58609162
151.4493834 -2.46024274e-05 59.09578938
44.53683336 -2.46024274e-05 54.61044138
220.7168174 -2.46024274e-05 8.972196377
87.45051336 43.2408314 149.3046144
11.75686336 30.1087954 143.3046144
130.5728534 64.6202834 149.3046144
94.35112336 31.4103914 149.3046144
94.95908336 -2.46024274e-05 -99.60145362
6.041553358 13.9867974 -18.59286562
28.02700336 19.1679344 -86.25674862
163.0141734 26.2742024 143.3046144
136.4714534 48.4318304 149.3046144
36.12050336 -2.46024274e-05 -69.41974162
47.19244336 -2.46024274e-05 60.29444238
5.210743358 64.7998854 143.3046144
177.2944734 -2.46024274e-05 110.1064074
139.9185134 17.9445934 149.3046144
24.92857336 39.5811954 149.3046144
199.8703834 58.1562144 149.3046144
229.1205694 -2.46024274e-05 2.437218377
180.8157334 -2.46024274e-05 -57.66413362
63.14715336 40.8429594 149.3046144
-24.16788664 42.9865424 74.38220138
49.61004336 -2.46024274e-05 117.2238644
19.82125336 26.0825574 143.3046144
111.5081434 -2.46024274e-05 -24.99539862
-45.88584664 42.9762114 143.3046144
188.0932534 -2.46024274e-05 80.40273738
41.50353336 20.7274194 -127.7332036
148.4978334 -2.46024274e-05 -51.72172662
119.5075134 -2.46024274e-05 -60.76018362
163.8588334 -2.46024274e-05 61.60685438
109.2277234 14.9272764 149.3046144
15.42919336 29.8194964 -47.48482162
26.28969336 46.3759744 143.3046144
131.0067334 37.0314314 143.3046144
53.87194336 66.8848554 -150.6953856
69.53191336 49.3154854 149.3046144
130.3199834 -2.46024274e-05 65.57531238
137.5958134 10.4103574 143.3046144
144.5253734 37.8502084 149.3046144
120.1035234 -2.46024274e-05 9.986109377
65.64387336 -2.218745602 -144.6953856
5.494463358 45.3698304 -16.90918562
139.4740134 -0.3774736024 149.3046144
103.9908934 -2.46024274e-05 -46.44041962
91.98764336 23.1052284 143.3046144
176.7414234 -2.46024274e-05 138.5272914
86.53125336 20.5279664 143.3046144
130.8715534 -2.46024274e-05 -97.86475262
113.9505034 47.4247374 149.3046144
55.63140336 -2.46024274e-05 -63.15661562
22.15167336 49.7395414 149.3046144
141.3326834 -2.46024274e-05 40.46873038
189.5684434 20.1062874 149.3046144
-41.94668664 11.5769844 129.0984494
16.30037336 -2.46024274e-05 -7.548886623
61.32389336 40.1123154 -144.6953856
194.3227534 67.4018434 143.3046144
203.9245034 -2.46024274e-05 55.39058538
14.47938336 2.329465398 -44.56401462
35.95769336 -2.46024274e-05 24.89827538
30.38591336 -2.46024274e-05 97.53017238
75.86840336 -2.46024274e-05 -107.5609296
25.26097336 39.3385764 143.3046144
55.26052336 32.2588674 149.3046144
193.2940934 15.7870804 143.3046144
56.96688336 -2.46024274e-05 114.1494084
-21.18126664 31.5178774 65.19027638
-9.569056642 -2.46024274e-05 32.76426538
214.4206314 45.4386864 143.3046144
126.8735134 20.1864654 143.3046144
-34.73394664 28.9985924 106.9009224
115.0409334 19.7251684 143.3046144
151.7113834 36.5298424 149.3046144
93.97042336 11.7140014 149.3046144
117.4926634 -2.46024274e-05 123.7791784
33.12672336 -2.46024274e-05 -46.01629562
263.4468824 -2.46024274e-05 -42.84761562
21.13025336 -2.46024274e-05 100.8011824
184.8997334 15.8297384 143.3046144
1.333283358 49.4442614 149.3046144
31.73542336 -2.46024274e-05 -102.3575896
67.73619336 -2.46024274e-05 127.8263514
-16.86232664 6.373055398 51.89740438
275.8595914 -2.46024274e-05 -68.72214662
-25.93612664 16.6999944 79.82396838
123.3540934 -2.46024274e-05 -9.559993623
18.83291336 67.9999754 146.0834744
173.3536034 -2.46024274e-05 -66.38090562
165.8066734 34.3639394 149.3046144
-2.074896642 -2.46024274e-05 80.95049238
128.3896334 66.6085694 143.3046144
123.8035934 -0.9655326024 -107.0962606
210.2505834 -2.46024274e-05 -47.06198962
83.28993336 60.8079614 149.3046144
174.9144734 -2.46024274e-05 33.18573238
43.43113336 -2.46024274e-05 -56.75228662
41.07686336 -2.46024274e-05 -128.9964886
187.6176734 -1.401096602 143.3046144
234.8758514 -2.46024274e-05 -51.08694862
-37.59494664 12.9423934 149.3046144
87.84237336 -2.46024274e-05 -103.8783166
49.34554336 43.1580884 -144.6953856
250.1113364 -2.46024274e-05 26.78810338
-5.432626642 -2.46024274e-05 38.49411938
98.00646336 -2.46024274e-05 111.8276524
211.0624434 -2.46024274e-05 29.61321438
22.28029336 53.3645164 143.3046144
-30.75787664 28.4543924 94.66388938
121.0153034 -2.46024274e-05 74.25736538
182.4424134 -2.46024274e-05 -21.76851362
41.33922336 42.4515044 -127.2279596
129.8934434 -2.46024274e-05 -52.12957262
142.5421634 -2.46024274e-05 -5.186327623
40.03463336 -2.46024274e-05 -119.9175886
16.81220336 10.0566554 143.3046144
41.64991336 28.8999014 149.3046144
43.06251336 13.8301284 -132.5312886
200.6329834 -2.46024274e-05 108.3017144
179.8890734 -2.46024274e-05 -82.29250662
90.78251336 -2.46024274e-05 82.02255838
191.4651934 -0.9794666024 149.3046144
0.2266633577 61.3941704 143.3046144
18.66325336 39.2312634 -57.43841862
151.0613334 54.4128964 149.3046144
29.04700336 34.5283064 143.3046144
-3.504106642 37.3317044 143.3046144
-20.45602664 42.1040594 62.95827138
109.0256234 -2.46024274e-05 -127.7915806
-27.78029664 19.4629024 85.49973238
10.53194336 22.7391934 -32.41266762
169.5420834 -2.46024274e-05 117.5902184
31.72403336 34.1210704 -97.63526062
247.6597544 -2.46024274e-05 50.42424038
28.04880336 -2.46024274e-05 -6.399706623
-20.14504664 6.768275398 143.3046144
184.2383834 -2.46024274e-05 -100.7296416
13.86685336 42.4838524 -42.67669562
17.08940336 46.4414854 149.3046144
38.55988336 18.7853634 -118.6735446
-7.697706642 48.4464424 143.3046144
92.16773336 64.6018244 143.3046144
251.8085394 -2.46024274e-05 -39.91868562
127.5345734 -2.46024274e-05 134.9304714
38.88144336 -2.46024274e-05 -35.37155662
259.2139064 -2.46024274e-05 -76.55992562
42.97508336 -2.46024274e-05 -21.31584462
-18.29251664 37.3025494 143.3046144
65.52544336 -2.46024274e-05 136.6296794
-15.26303664 45.6268924 46.97581938
-24.44935664 -2.46024274e-05 117.9387164
25.71498336 15.8213394 -79.14117762
186.7044334 -2.46024274e-05 96.09083238
-27.74202664 31.4375584 143.3046144
-26.80107664 4.820014398 82.48586538
-32.18431664 9.589184398 99.05354538
113.6768234 -2.46024274e-05 108.5522104
73.82949336 -2.46024274e-05 -38.99975162
164.2886034 38.5270834 143.3046144
32.17661336 -2.46024274e-05 -10.61122762
31.47829336 28.4197774 -96.87885062
93.80598336 5.183401398 149.3046144
172.1168834 -2.46024274e-05 -46.36834462
20.83074336 32.0778664 -64.10913362
226.2696144 -2.46024274e-05 -89.49781762
23.23557336 23.1095544 -71.51025962
109.3699434 28.0118534 143.3046144
107.6294034 -2.46024274e-05 88.45987938
166.0137334 -2.46024274e-05 -76.82978562
57.78499336 33.6493974 143.3046144
209.3297434 -2.46024274e-05 -22.64574562
52.61256336 -2.46024274e-05 74.86729038
218.2769464 65.9771414 143.3046144
39.51100336 -2.46024274e-05 89.79569438
102.6886734 5.552001398 149.3046144
4.819463358 9.698743398 -14.83185862
101.3013634 51.9617204 143.3046144
42.79794336 24.6034004 -131.7170796
201.4819934 -2.46024274e-05 139.3238784
214.1324514 -2.46024274e-05 -2.013976623
-4.255306642 49.8274914 13.09743138
89.86651336 -2.46024274e-05 93.35190438
78.90564336 -2.46024274e-05 18.69329638
73.12568336 -2.46024274e-05 -130.0152416
53.61841336 -2.46024274e-05 -111.0879006
63.87910336 -2.46024274e-05 103.6184204
73.96730336 6.351746398 149.3046144
57.24546336 -2.46024274e-05 -2.832810623
173.0527734 47.2026594 149.3046144
61.92273336 -2.46024274e-05 130.8239354
117.5536134 -2.46024274e-05 -32.67640262
56.92864336 63.0120434 -144.6953856
104.0916234 -2.46024274e-05 -104.8718616
-45.30091664 22.6137324 139.4224764
-32.88933664 36.6666074 101.2239174
-25.82983664 23.0294454 79.49693038
122.2205534 -2.46024274e-05 -84.15568362
-44.05853664 46.0758124 135.5991594
-32.62264664 -2.46024274e-05 99.39711138
279.9982664 -2.46024274e-05 -54.80484162
182.6418534 -2.46024274e-05 74.47399738
241.2941574 -2.46024274e-05 -38.02178862
162.3527134 -2.46024274e-05 -100.3855906
65.21083336 26.6119534 149.3046144
70.98984336 6.932438398 143.3046144
7.696593358 38.7922804 -23.68649962
112.9657034 6.179549398 143.3046144
122.1404334 25.6908404 143.3046144
220.8200994 -2.46024274e-05 86.59807838
7.009393358 -2.46024274e-05 112.2815754
-32.79817664 -2.46024274e-05 141.5173834
42.24811336 45.8471254 143.3046144
236.8621904 -2.46024274e-05 -62.70128862
115.5476534 -2.46024274e-05 -75.05711662
89.40938336 -2.46024274e-05 19.63525238
-37.00485664 12.2694574 113.8897254
26.23366336 -2.46024274e-05 -30.81468062
54.55943336 67.9999754 144.3912444
159.4770834 2.179750398 143.3046144
28.34170336 33.8666804 -87.22552662
62.68093336 61.9387044 143.3046144
121.4507834 -2.46024274e-05 110.5998384
9.534793358 43.8171104 -29.34399062
-0.1195266423 47.5143154 0.3688673769
0.7558933577 14.7559524 -2.325314623
41.43371336 17.4264124 143.3046144
-10.15189664 23.2745824 31.24538638
67.41227336 -2.46024274e-05 40.29400138
207.8101834 36.8615774 143.3046144
-13.31538664 32.9671354 40.98168738
-17.09098664 41.3028844 52.60178338
34.68593336 32.7348234 -106.7510216
1.628693358 -1.317435602 -3.394777623
234.5613794 -2.46024274e-05 26.50024638
130.9156734 -2.46024274e-05 91.35820538
-19.38204664 30.1655064 59.65284038
71.05919336 13.1823444 149.3046144
-3.980186642 -2.46024274e-05 46.46925338
216.2208394 -2.46024274e-05 -29.09243462
11.88172336 40.7161134 149.3046144
137.5095334 -2.46024274e-05 69.95622338
21.30448336 -2.46024274e-05 46.51963538
22.23443336 4.459372398 149.3046144
45.81383336 61.9236674 143.3046144
141.8192434 -2.46024274e-05 92.97758438
158.4312334 -2.46024274e-05 -91.45548062
4.925823358 27.4907164 -15.15881462
-10.19436664 8.507200398 149.3046144
31.01672336 18.2491284 -95.45815862
21.19382336 17.8260524 -65.22650362
12.19613336 4.801243398 -37.53528862
-23.04371664 30.1694954 70.92226538
93.31384336 -2.46024274e-05 -57.19200562
172.0308334 19.0809614 143.3046144
33.02038336 -2.46024274e-05 -58.09778262
182.5500334 65.2138104 143.3046144
272.7864024 -2.46024274e-05 -54.51406162
79.94610336 51.9567354 149.3046144
57.77985336 -2.46024274e-05 -13.08292562
2.770683358 11.9778684 -8.526278623
216.5090404 -2.46024274e-05 125.4475374
-5.256496642 21.1652934 16.17893038
118.8414734 -2.46024274e-05 32.45994638
11.19441336 33.6519374 -34.45158462
0.5184133577 4.167238398 143.3046144
101.7181934 -2.46024274e-05 102.2986534
155.3695334 -2.46024274e-05 -74.61870162
88.63867336 -2.46024274e-05 35.87296338
45.84016336 -2.46024274e-05 -77.89369362
129.9520834 47.5883124 143.3046144
-12.73308664 -2.46024274e-05 131.7943574
198.1859134 -2.46024274e-05 -76.43060762
212.3806534 21.4960894 149.3046144
24.55912336 5.353443398 143.3046144
134.1764834 56.6958084 143.3046144
18.85358336 25.0526714 -58.02392062
177.3741734 -2.46024274e-05 88.22966738
-5.618966642 37.3745294 149.3046144
209.2897934 -2.46024274e-05 -65.16062362
21.17282336 -2.46024274e-05 70.67888638
182.6387434 11.6410084 149.3046144
68.02288336 64.1084614 -144.6953856
83.31946336 57.0893534 143.3046144
27.17108336 -2.46024274e-05 -19.23459762
-41.91731664 -2.46024274e-05 127.0575434
101.6267534 -2.46024274e-05 -38.37636762
33.83575336 20.9600844 -104.1342056
20.81890336 6.402777398 -64.07361262
135.8915634 23.1862814 149.3046144
37.65463336 -2.46024274e-05 41.87328738
-24.19571664 -2.46024274e-05 141.7153794
-5.141316642 26.0263604 143.3046144
-12.13373664 29.3341194 143.3046144
66.19678336 16.8020494 149.3046144
29.76359336 7.254586398 -91.60375562
31.98382336 -2.46024274e-05 -30.81342362
188.4776234 47.7068734 143.3046144
3.287613358 -2.46024274e-05 121.7005184
45.47047336 40.5484884 -139.9426056
-22.91314664 22.8115354 70.52030238
159.1760334 14.2517904 143.3046144
37.18812336 -2.46024274e-05 106.3571074
93.13669336 -2.46024274e-05 54.78753438
145.6488634 -2.46024274e-05 113.3844014
161.7490534 47.5483014 149.3046144
91.37267336 -2.46024274e-05 -86.77709862
20.06074336 48.9971804 -61.73964262
37.16733336 22.0692764 -114.3878036
-2.612106642 16.6872854 8.040307377
28.02851336 28.7109204 -86.26153062
-36.19344664 39.8922174 111.3929194
39.76422336 11.3506094 -122.3825036
177.9748234 47.0369174 143.3046144
94.18669336 59.0229744 143.3046144
38.36689336 -2.46024274e-05 -12.32740962
4.513643358 20.0134734 -13.89037062
41.35592336 8.049329398 -127.2801026
149.9202334 4.206393398 149.3046144
-18.55438664 17.8785764 57.10540738
-19.24984664 22.6193624 59.24587438
141.3868734 -2.46024274e-05 45.89342938
271.3527124 -2.46024274e-05 -71.35667462
182.8345334 -2.46024274e-05 55.97756738
222.1725644 -2.46024274e-05 46.37548638
37.47318336 14.4738914 -115.3290646
224.8333254 -2.46024274e-05 -56.29149762
32.56290336 41.7753394 -100.2171856
99.24623336 -2.46024274e-05 -78.60988462
-27.47170664 30.9377284 84.55016538
250.2878174 -2.46024274e-05 -55.18089262
115.7040434 -2.46024274e-05 -51.93739062
175.8104334 -2.46024274e-05 -95.47625862
66.09916336 -2.46024274e-05 3.229928377
35.03775336 43.8733914 -107.8340396
78.33406336 -2.46024274e-05 118.2155984
23.66369336 12.1144834 -72.82808162
52.80943336 65.7685734 149.3046144
24.34214336 -2.46024274e-05 -52.61891462
4.903613358 34.9465854 -15.09053562
-3.310116642 45.2843324 10.18854838
-37.25844664 -2.46024274e-05 118.4428354
119.6341434 31.4032104 143.3046144
39.48885336 29.4014554 -121.5328386
33.94593336 4.945482398 -104.4755196
44.43319336 45.2461894 -136.7502566
2.171443358 36.9765204 -6.681820623
145.5283334 -2.46024274e-05 17.87067338
101.6541534 -2.46024274e-05 -3.497165623
27.83816336 -2.46024274e-05 45.24224038
10.61267336 53.5796984 149.3046144
-23.89457664 11.2110534 73.54057838
105.1178234 -2.46024274e-05 35.26231138
117.9281634 -2.46024274e-05 -66.44590062
47.06431336 21.4652454 149.3046144
203.7788334 -2.46024274e-05 -19.27150162
93.66119336 -2.46024274e-05 120.2865734
-11.55376664 20.8652424 35.55983738
-18.33631664 4.096489398 56.43352138
25.49765336 35.1221494 -78.47245262
75.84890336 25.7599504 143.3046144
218.8720264 -2.46024274e-05 115.2700504
67.17941336 -2.46024274e-05 97.95984038
110.4788134 -2.46024274e-05 48.87993238
26.05523336 46.4048104 -80.18872962
202.1250134 10.4885654 149.3046144
-15.84109664 10.3834574 48.75456538
-34.74758664 8.949762398 106.9420394
77.48093336 -2.46024274e-05 -126.6235826
-6.846796642 30.1966014 21.07347138
-29.35989664 22.8223244 90.36126438
-1.180316642 -2.46024274e-05 132.1214794
-6.659126642 13.8500174 20.49562538
99.24105336 -2.46024274e-05 8.443507377
168.2462134 -2.46024274e-05 -31.63262362
185.4824534 -2.46024274e-05 -89.79428662
-13.93594664 42.8516504 42.89151038
-38.47369664 27.6596444 118.4106264
116.5898834 -2.46024274e-05 -38.62165262
184.5550134 -2.46024274e-05 5.086075377
-7.048836642 23.2144974 21.69517938
86.76863336 -2.46024274e-05 -114.3327946
36.88913336 -2.46024274e-05 75.77749038
135.5963434 -2.46024274e-05 125.1959744
192.7522734 -2.46024274e-05 -7.464671623
3.213623358 52.3828664 143.3046144
20.07118336 -2.46024274e-05 88.74972438
41.07565336 -2.46024274e-05 138.4170974
26.58396336 11.5719564 -81.81573162
133.7274134 -2.46024274e-05 -23.18395262
-45.53934664 31.7163924 149.3046144
166.3657434 5.113449398 143.3046144
115.2511434 -2.46024274e-05 119.1290684
92.73032336 -2.46024274e-05 -15.12558362
