# .PCD v0.7 - Point Cloud Data file format
VERSION 0.7
FIELDS x y z
SIZE 4 4 4
TYPE F F F
COUNT 1 1 1
WIDTH 1258
HEIGHT 1
VIEWPOINT 0 0 0 1 0 0 0
POINTS 1258
DATA ascii
197.999727 97.78908539 103.9119216
-19.000694 0.8043493942 -9.738546532e-05
-191.612688 -2.460583255e-05 87.36103961
208.309441 176.2817114 247.8066806
76.375194 -2.460583255e-05 48.97768761
186.800751 -2.460583255e-05 62.72232561
-219.664699 -2.460583255e-05 201.4616816
205.999727 44.56693339 188.3822936
-5.739899998 -2.460583255e-05 43.34034961
-204.564833 55.63347139 -9.738546532e-05
201.999727 170.5415254 116.7847246
167.574764 -2.460583255e-05 217.4493486
108.186176 33.67429839 -9.738546532e-05
-97.374409 -2.460583255e-05 249.7337236
-164.448613 40.21927339 -9.738546532e-05
205.999727 251.9657856 227.1500866
111.372497 -2.460583255e-05 66.35769361
201.999727 216.7908473 129.4952116
197.999727 39.32872139 171.7945416
17.891435 8.934902394 -9.738546532e-05
82.226244 -2.460583255e-05 148.4440616
39.316594 -2.460583255e-05 190.5902926
195.922818 -2.460583255e-05 170.0001726
25.803724 -2.460583255e-05 229.6570986
114.519576 -2.460583255e-05 158.1155956
-23.749372 -2.460583255e-05 151.3689036
197.999727 124.0439084 123.0416086
197.999727 136.9122964 140.5211706
-195.775263 -2.460583255e-05 31.00847961
87.517426 -2.460583255e-05 112.1942216
197.999727 71.88403539 183.9738726
-92.536828 -2.460583255e-05 222.5234696
-146.538404 -2.460583255e-05 241.5591936
203.135429 234.2012984 244.0543716
201.999727 193.5615364 165.6079816
-15.033841 -2.460583255e-05 171.6345706
-186.316798 3.645489394 -9.738546532e-05
-187.208502 -2.460583255e-05 184.8647616
-214.156328 -2.460583255e-05 230.6221316
-30.369255 -2.460583255e-05 73.07743561
131.538112 -1.628109606 225.0266846
197.999727 76.62443339 147.9587866
23.464976 -2.460583255e-05 108.7862056
-15.897785 -2.460583255e-05 129.2736836
-166.309149 -2.460583255e-05 71.79495561
117.252385 -2.460583255e-05 190.3646686
-145.860214 65.98364039 -9.738546532e-05
-176.149588 -2.460583255e-05 240.4555356
-116.517291 -2.460583255e-05 250.0308926
205.999727 234.7851608 212.0008576
222.484931 63.72647239 87.99990261
180.939699 19.37610139 -9.738546532e-05
211.482982 98.53356239 87.99990261
205.999727 11.67624339 192.2229026
-7.916217998 -2.460583255e-05 22.12224161
35.700015 -2.460583255e-05 50.82774061
221.581074 110.8982204 243.9999026
205.999727 216.5329038 182.4442796
-70.626895 -2.460583255e-05 184.1803666
205.999727 109.2645704 157.4799946
205.999727 116.9169994 194.8726526
-116.970835 -2.460583255e-05 148.4458056
-156.117503 -2.460583255e-05 209.4468076
88.886535 -2.460583255e-05 66.21614761
-102.768276 -2.460583255e-05 133.8941046
67.221652 -2.460583255e-05 145.0430936
-45.354136 -2.460583255e-05 213.2044596
222.487503 46.45379339 -9.738546532e-05
-190.767203 -2.460583255e-05 224.2008256
-127.50157 -2.460583255e-05 15.10363661
197.999727 83.87294139 76.94279361
-163.513464 -2.460583255e-05 49.68634761
87.0085 -2.460583255e-05 232.1601246
-63.1881 -2.460583255e-05 251.2897476
81.853644 -2.460583255e-05 12.83486561
148.120892 -2.460583255e-05 146.0141736
-7.451271998 -2.460583255e-05 98.30690361
6.236388002 -2.460583255e-05 197.7236746
-148.024854 -2.460583255e-05 156.6009786
141.584663 -2.460583255e-05 87.04360961
-108.429153 -2.460583255e-05 50.81827461
143.691902 17.89448439 -9.738546532e-05
-33.835993 -2.460583255e-05 54.89304661
-20.301263 -2.460583255e-05 32.40578661
-29.707178 37.46103239 -9.738546532e-05
-220.898081 -2.460583255e-05 142.9339556
-49.322061 13.28663139 -9.738546532e-05
197.999727 114.8118584 100.9435856
205.999727 235.6599261 104.3227646
205.999727 26.65253839 135.0518756
9.382306002 -2.460583255e-05 224.1395416
205.999727 17.23846639 156.9290516
218.491851 -2.460583255e-05 17.70309361
-83.868184 -2.460583255e-05 159.2288776
113.164326 -2.460583255e-05 47.13996361
205.999727 42.21513339 115.3081896
-81.114077 -2.460583255e-05 9.842614615
197.999727 61.81914539 32.88070161
-97.860778 27.78079539 -9.738546532e-05
205.999727 150.2849264 140.0915886
100.473551 67.99997539 -1.708303385
-41.705252 -2.460583255e-05 236.2675816
205.999727 166.7785044 213.5877686
24.970836 -2.460583255e-05 61.19032461
187.300322 -2.460583255e-05 226.2930726
-220.932517 -2.460583255e-05 217.4509356
137.070779 -2.460583255e-05 123.2440206
94.35493 -2.460583255e-05 212.5103096
197.999727 100.4267454 219.3300316
-169.288133 15.73590139 -9.738546532e-05
-120.522574 -2.460583255e-05 85.85543361
197.999727 173.2352414 141.9301456
197.999727 14.08278739 23.47461961
197.999727 140.0624374 201.3365266
207.540804 26.89807539 -9.738546532e-05
212.056697 -2.460583255e-05 95.59565161
197.999727 44.50047139 227.9205396
-53.99753 -2.460583255e-05 119.0279756
219.344881 214.4906255 247.9999026
221.854402 -2.460583255e-05 144.1328206
-131.863661 -2.460583255e-05 180.4478336
-202.392503 -2.460583255e-05 183.9388666
-20.075948 -2.460583255e-05 233.8929536
-205.764517 -2.460583255e-05 251.3247946
113.199782 -2.460583255e-05 98.44683061
201.999727 54.93568239 250.9587836
-173.51857 -2.460583255e-05 113.2068656
197.999727 64.75005239 213.1404206
167.701708 -2.460583255e-05 35.63413761
3.707627002 -2.460583255e-05 177.1125236
205.999727 164.1781974 165.2808706
-221.189389 -2.460583255e-05 20.43090461
168.03366 -2.460583255e-05 6.632304615
178.328094 -2.460583255e-05 107.0768606
197.999727 54.28583839 126.5946776
201.999727 31.89394939 68.52694261
-40.004711 -2.460583255e-05 184.5511116
201.999727 192.4457724 98.05572061
-68.027945 65.66557539 -9.738546532e-05
53.409054 31.17088839 -9.738546532e-05
197.999727 153.5310374 121.4287636
128.177399 -2.460583255e-05 168.0047966
-30.383311 61.95683439 -9.738546532e-05
39.420505 -2.460583255e-05 82.83680261
155.171672 -2.460583255e-05 19.94290161
-68.526067 -2.460583255e-05 131.3577356
212.335955 61.75334539 243.9999026
38.979449 -2.460583255e-05 135.3125256
194.950894 -2.460583255e-05 138.1609796
20.651716 -2.460583255e-05 194.4480396
201.999727 167.5174864 183.9802226
-47.709466 -2.460583255e-05 36.56404761
-131.766143 65.33055739 -9.738546532e-05
44.168768 3.046109394 -9.738546532e-05
100.066523 -2.460583255e-05 124.3541236
168.915922 54.32020839 -9.738546532e-05
201.999727 14.69739139 74.76489861
205.999727 246.8880693 178.1538096
201.999727 75.84628339 204.0185886
205.999727 63.69194939 168.8796416
-116.250414 34.43895639 -9.738546532e-05
205.999727 15.27100139 103.4964296
191.291549 -2.460583255e-05 89.72202961
208.513441 175.6205694 88.14886561
211.694428 138.6298034 247.9999026
198.89352 54.71512639 4.151596615
-133.333333 -2.460583255e-05 115.6835146
57.201474 -2.460583255e-05 31.87657161
-117.355271 -2.460583255e-05 25.90464261
197.999727 42.75537939 144.9828526
-105.87175 -2.460583255e-05 108.1184726
201.999727 225.4536826 157.5701536
19.466343 -2.460583255e-05 123.3634096
129.709034 -2.460583255e-05 51.59971161
-177.243707 -2.460583255e-05 10.86668361
-206.004074 -2.460583255e-05 198.7194996
218.891069 156.8557864 91.99990261
-190.919625 -2.460583255e-05 166.0042386
71.235608 29.08260439 -9.738546532e-05
72.204826 64.63698839 -9.738546532e-05
26.90524 -2.460583255e-05 25.02554161
201.999727 193.8893184 128.2325096
201.999727 191.0038144 151.8666416
-117.443272 52.11136439 -9.738546532e-05
87.239008 -2.460583255e-05 39.25136961
-187.108788 -2.460583255e-05 110.8211856
-206.782035 -2.460583255e-05 22.89919161
205.999727 81.69907939 178.8237056
-126.422805 -2.460583255e-05 130.7184956
198.799244 97.45215839 75.99836561
-142.891624 41.90882039 -9.738546532e-05
201.999727 109.0434684 143.8884716
-67.00674 33.11513339 -9.738546532e-05
-147.901491 -2.460583255e-05 138.8293976
-104.089538 66.08058339 -9.738546532e-05
-115.204364 -2.460583255e-05 203.1497636
211.032066 200.8922884 247.9999026
81.182314 -2.460583255e-05 161.8699616
-171.728765 -2.460583255e-05 138.3714336
205.999727 189.0314114 227.2099126
-95.764079 53.04446239 -9.738546532e-05
193.949485 10.81955339 -9.738546532e-05
222.661668 92.38731539 91.99990261
-28.39494 -2.460583255e-05 135.9814386
98.77828 -2.460583255e-05 11.77020761
201.999727 65.23384639 153.6624206
197.999727 84.52467239 105.3769996
-157.737325 -2.460583255e-05 184.1325666
-30.911802 6.774117394 -9.738546532e-05
198.684697 25.49997539 169.5179046
205.999727 126.7222424 179.5814356
211.704788 16.95990439 245.2349276
-179.965443 -2.460583255e-05 208.3328506
31.480491 -2.460583255e-05 177.1249796
205.999727 41.47225939 160.6705476
-140.152485 -2.460583255e-05 222.4126956
-177.674992 -2.460583255e-05 57.35757161
205.999727 99.39896539 200.6335306
222.604606 248.6147097 91.99990261
149.485051 -2.460583255e-05 242.0236566
-61.778536 -2.460583255e-05 98.82697761
54.071014 -2.460583255e-05 155.7634836
-111.657201 -2.460583255e-05 37.82629161
144.219568 -2.460583255e-05 69.80767761
207.59555 74.76259039 88.40889061
-82.349867 -2.460583255e-05 206.2792506
205.999727 207.4024134 231.9846896
38.473455 32.80267239 -9.738546532e-05
201.999727 144.4460384 226.4769076
-106.206954 7.103610394 -9.738546532e-05
167.134458 25.86761939 -9.738546532e-05
197.999727 10.79734039 119.7880416
-182.789496 -2.460583255e-05 29.64643361
201.999727 232.8652778 199.7062956
219.70343 244.8351541 243.9999026
15.894899 -2.460583255e-05 238.4381486
129.096645 -2.460583255e-05 145.1805886
-113.437759 -2.460583255e-05 160.9924616
-65.730032 -2.460583255e-05 17.99674561
78.066577 7.665535394 -9.738546532e-05
205.999727 211.2573144 209.4022466
205.999727 120.9899644 151.9488156
214.162704 10.47924539 -9.738546532e-05
-208.78577 -2.460583255e-05 157.3354956
201.999727 17.48545539 229.0368526
174.237364 -2.460583255e-05 191.6432756
201.999727 207.1378264 195.9860336
205.999727 142.8906864 110.6574396
-32.973254 -2.460583255e-05 250.9519486
205.999727 39.35993639 212.5264766
202.274101 103.0447374 241.9603966
221.801959 129.3920434 91.99990261
-64.815481 -2.460583255e-05 238.5324656
-147.043072 -2.460583255e-05 80.54608661
-3.237024998 -2.460583255e-05 56.26647161
197.999727 28.79319039 125.1717146
197.999727 123.3099454 202.9998166
-58.155408 -2.460583255e-05 64.82848661
205.999727 159.5591154 225.9399646
-54.870395 0.5412183942 -9.738546532e-05
214.045897 38.75859039 243.9999026
180.719418 -2.460583255e-05 177.8038116
205.999727 105.5513624 97.43285661
-102.084975 -2.460583255e-05 81.13868661
64.004049 -2.460583255e-05 52.47881561
205.999727 51.15864239 171.4268676
-132.613348 -2.460583255e-05 27.38071261
-8.476044998 -2.460583255e-05 9.442195615
87.778249 40.67345039 -9.738546532e-05
16.084012 55.40024939 -9.738546532e-05
166.478718 -2.460583255e-05 75.83206861
1.656978002 -2.460583255e-05 72.17832261
-24.103281 51.01151939 -9.738546532e-05
205.394414 162.9354614 246.5375586
197.999727 70.91602239 230.9023906
211.931601 -2.460583255e-05 42.07655861
-191.334411 20.83630539 -9.738546532e-05
89.191402 -2.460583255e-05 89.24678761
205.999727 184.2684654 118.4422926
9.800823002 -2.460583255e-05 106.5182556
64.319423 -2.460583255e-05 182.5662736
201.999727 67.41077539 51.67089961
7.398144002 -2.460583255e-05 150.7373246
-42.608994 -2.460583255e-05 91.83361561
24.895542 -2.460583255e-05 250.1849566
205.999727 225.3805612 232.6000986
-93.525657 11.33447839 -9.738546532e-05
197.999727 0.6596753942 40.01264561
-87.717225 -2.460583255e-05 236.0985246
-152.192779 33.38041639 -9.738546532e-05
205.999727 53.81537039 214.7887456
143.14406 -2.460583255e-05 166.7633436
-208.084288 -0.4546276058 -9.738546532e-05
201.999727 224.44796 173.7356816
201.999727 249.7813516 193.1173406
-193.155919 -2.460583255e-05 99.97525561
197.999727 161.3584654 204.0357456
201.999727 214.2300892 147.9231496
209.762088 -2.460583255e-05 170.2570366
-169.830032 -2.460583255e-05 181.3691016
206.211954 199.7454444 88.99329061
48.885873 -2.460583255e-05 99.04845961
201.999727 4.272826394 64.99537561
205.999727 184.0012054 190.8131626
197.999727 34.06728839 195.9349426
205.999727 68.63520639 113.4627316
205.999727 50.90991539 149.5914166
29.028187 -2.460583255e-05 217.7960226
168.966272 -2.460583255e-05 49.08844461
205.999727 113.7206404 124.7473596
122.668558 -2.460583255e-05 9.906360615
183.668623 43.82072539 -9.738546532e-05
117.084143 55.54478939 -9.738546532e-05
141.342424 -2.460583255e-05 135.8212376
205.999727 211.1923764 118.4327786
189.68928 -2.460583255e-05 117.6803676
-183.879468 -2.460583255e-05 251.4592266
100.613308 -2.460583255e-05 234.6761396
29.680669 19.56012539 -9.738546532e-05
31.289821 56.45155839 -9.738546532e-05
197.999727 170.3107204 172.1585586
2.352983002 -2.460583255e-05 209.2821416
45.211396 -2.460583255e-05 124.8353716
206.499727 -1.383799606 212.3844956
-209.294664 -2.460583255e-05 122.3083836
165.642457 -2.460583255e-05 153.4369796
82.988393 -2.460583255e-05 207.5366896
146.48823 -2.460583255e-05 193.0036336
189.096891 -2.460583255e-05 159.9809346
-136.957204 -2.460583255e-05 234.0888166
-220.942882 13.05907439 -9.738546532e-05
189.085068 -2.460583255e-05 75.92852161
201.999727 25.17522739 18.86102661
123.582101 -2.460583255e-05 26.48853261
-161.598403 -2.460583255e-05 36.88739361
197.999727 53.65698439 239.5218766
197.999727 119.8118844 217.2499846
199.410515 -2.337160606 -9.738546532e-05
177.953426 -2.460583255e-05 249.4370746
-204.587538 67.69002939 -9.738546532e-05
-111.273142 -2.460583255e-05 73.39596861
141.510475 -2.460583255e-05 49.37468461
201.999727 237.4883716 131.9667416
201.999727 15.89726039 206.0808006
205.999727 182.3054994 144.6309896
50.940589 -2.460583255e-05 203.5792346
171.670243 67.99997539 -0.3252383855
117.71664 -2.460583255e-05 235.5769716
203.691407 -2.460583255e-05 189.8552686
-156.874009 -0.3900986058 -9.738546532e-05
-17.356454 -2.460583255e-05 220.3966676
-89.337216 -2.460583255e-05 30.45098161
201.999727 97.32623739 180.7578576
205.999727 131.5238534 117.4181156
-81.941055 55.27189439 -9.738546532e-05
-202.989238 -2.460583255e-05 238.0086076
202.134998 244.545883 94.79899861
59.553322 -2.460583255e-05 11.01638461
205.391033 231.538117 117.4999026
139.43384 48.72604639 -9.738546532e-05
-75.271123 14.63043539 -9.738546532e-05
201.999727 88.70972839 157.1185406
201.999727 148.0124224 184.5961436
11.643802 -1.151431606 -9.738546532e-05
59.620417 -2.460583255e-05 70.12529661
123.543911 -2.460583255e-05 74.77077661
61.946287 -2.460583255e-05 105.9678166
-29.882797 -2.460583255e-05 116.6784466
197.999727 33.72503539 112.4221056
197.999727 44.63274639 58.37155061
155.434955 16.66798539 -9.738546532e-05
-134.146534 7.983045394 -9.738546532e-05
101.740161 -0.5802946058 -9.738546532e-05
71.910437 -2.460583255e-05 134.2477106
-80.159878 -2.460583255e-05 38.62294961
6.007543002 -2.460583255e-05 43.39921161
-147.276987 -2.460583255e-05 107.9726346
-192.926985 -2.460583255e-05 212.0861836
14.6935 -2.460583255e-05 165.3877316
-216.332376 -2.460583255e-05 173.3631356
197.999727 88.95526139 228.3831736
-212.121093 -2.460583255e-05 110.9739156
205.999727 123.9315384 103.1081546
-194.821516 -2.460583255e-05 128.0701456
-168.408645 28.11406139 -9.738546532e-05
201.999727 31.95443239 238.2710256
120.250453 -2.460583255e-05 122.2139566
212.829895 136.8243294 91.99990261
210.432345 55.01819239 -9.738546532e-05
205.999727 0.5227263942 130.1705306
201.999727 126.8029134 229.1107626
-120.889217 8.961575394 -9.738546532e-05
205.999727 99.60176339 117.7454906
-66.492634 -2.460583255e-05 78.57752661
119.388804 27.76014039 -9.738546532e-05
28.206388 -2.460583255e-05 72.33803261
40.860219 -2.460583255e-05 108.1425736
197.999727 52.37613339 191.4742426
191.853507 -2.460583255e-05 251.4907296
-79.352528 -2.460583255e-05 112.2438526
197.999727 73.51330139 136.1189996
-192.087944 -2.460583255e-05 51.92438461
-202.000273 28.99470939 -1.602522385
205.999727 152.7844274 163.9611126
204.821393 129.6581904 246.0644866
197.999727 140.1523184 119.0902086
-184.00945 -2.460583255e-05 136.5707666
201.999727 245.4946937 117.7211656
55.912405 49.76276539 -9.738546532e-05
-56.697378 44.22121539 -9.738546532e-05
205.999727 205.5203594 132.3949966
158.387679 -2.460583255e-05 225.8476956
205.999727 189.7490784 208.1698276
205.999727 63.80042039 184.9167966
205.999727 183.4345764 169.0167886
197.999727 30.41158339 248.9696196
-93.86397 -2.460583255e-05 11.18760361
-218.969289 -2.460583255e-05 99.08034861
105.200149 -2.460583255e-05 87.35162161
201.999727 3.807384394 89.93501661
195.223697 -2.460583255e-05 212.2155866
96.765642 -2.460583255e-05 145.0539526
205.999727 166.3235054 127.4506276
-84.523505 -2.460583255e-05 131.8618466
201.999727 24.26224839 53.77600961
197.999727 23.23144539 81.05236561
221.595486 200.2059834 243.9999026
197.999727 35.93974139 219.7614516
205.999727 101.0000504 137.0103356
205.999727 54.85225239 203.4451646
-50.98738 24.71461939 -9.738546532e-05
-19.240932 -2.460583255e-05 92.32181061
-140.426176 -2.460583255e-05 36.51488861
199.108952 0.4999753942 242.0373936
189.45069 -2.460583255e-05 196.6021536
-74.061093 -2.460583255e-05 172.0865256
201.999727 243.1281577 236.0542676
197.999727 100.7341414 160.3974696
197.999727 83.23556339 127.1460836
116.111306 -2.460583255e-05 146.9705956
201.999727 54.99964939 81.85263761
67.796276 -2.460583255e-05 79.72083061
222.615171 180.7397074 87.99990261
201.999727 245.3028378 214.7532106
-47.29295 -2.460583255e-05 8.757673615
201.999727 3.995321394 179.4936696
205.999727 166.3839424 102.8394706
163.583762 -2.460583255e-05 169.7294916
-112.764096 -2.460583255e-05 189.7070386
201.999727 78.08199339 55.11370161
204.039849 40.43804839 90.69394761
197.999727 30.32116539 141.9976796
204.795078 115.6256464 89.97133961
151.601052 -2.460583255e-05 120.6103276
-198.933467 -2.460583255e-05 6.402336615
201.999727 8.478281394 148.4377176
-131.047933 54.20405639 -9.738546532e-05
178.921419 8.412747394 -9.738546532e-05
-128.313567 30.09110939 -9.738546532e-05
212.663988 221.7610485 91.99990261
108.075604 -2.460583255e-05 182.7281266
201.999727 237.7938677 157.1202546
221.677453 178.4686304 247.9999026
201.999727 20.25897839 216.7005536
71.698547 -2.460583255e-05 111.2348156
214.518422 36.61200539 91.99990261
-81.861659 -2.460583255e-05 56.06941861
-84.817416 -2.460583255e-05 148.2042046
141.303998 -2.460583255e-05 33.60602661
125.528902 -2.460583255e-05 250.4264786
197.999727 139.9354654 216.7650656
-84.265074 -2.460583255e-05 250.8807916
-13.238439 49.15959439 -9.738546532e-05
-84.427666 -2.460583255e-05 74.78367961
44.143734 -2.460583255e-05 218.0603346
197.999727 89.01696139 139.9872196
197.999727 37.82134039 185.0716196
27.136902 44.99128239 -9.738546532e-05
130.899722 -2.460583255e-05 178.6287106
205.999727 91.96605939 221.4843586
-75.29432 -2.460583255e-05 231.7347896
205.999727 190.3614794 180.1123436
-159.067181 -2.460583255e-05 235.2203846
72.993679 -2.460583255e-05 5.931911615
-211.125127 44.32614239 -9.738546532e-05
197.999727 42.81213839 102.5343266
201.999727 114.6257754 182.5167526
135.80752 -2.460583255e-05 96.28998461
201.999727 35.32554539 4.310952615
169.363754 -2.460583255e-05 128.0630006
47.5279 -2.460583255e-05 241.5743386
-65.569091 -2.460583255e-05 218.8693346
64.193623 -2.460583255e-05 226.3689546
28.463768 -2.460583255e-05 10.57290461
101.553933 -2.460583255e-05 61.72011661
201.999727 24.10228739 192.5828996
122.352774 -2.460583255e-05 219.5681606
-161.008441 -2.460583255e-05 19.54273261
49.353402 -2.460583255e-05 63.33084061
135.644968 -2.460583255e-05 78.06353961
-181.960226 13.49051439 -9.738546532e-05
11.517346 27.25345339 -9.738546532e-05
-23.257708 -2.460583255e-05 42.98592461
-158.096993 -2.460583255e-05 96.47677261
201.999727 16.69876639 182.2066276
111.32882 -2.460583255e-05 215.3512256
205.999727 181.8203624 235.1151246
91.56347 17.78111539 -9.738546532e-05
197.999727 108.5692964 119.8021616
201.999727 56.72067339 60.31212261
-215.399353 -2.460583255e-05 85.11726361
157.011617 -2.460583255e-05 191.2358126
108.76016 47.70656939 -9.738546532e-05
205.999727 91.81065339 107.6692926
-139.402713 -2.460583255e-05 131.7087336
201.999727 149.2622004 150.2885756
209.265717 26.97921739 247.9146886
220.467124 10.29203939 246.4404066
205.999727 106.9061514 223.1773216
2.290375002 -2.460583255e-05 19.11425461
215.127993 -2.460583255e-05 220.6127466
125.06342 -2.460583255e-05 156.7786266
141.369265 -2.460583255e-05 214.3805696
17.702905 -2.460583255e-05 32.26505261
-34.166199 -2.460583255e-05 155.2970056
180.309952 -2.460583255e-05 54.34828261
212.498499 -2.460583255e-05 239.1023416
205.999727 85.95208639 147.7065756
47.329223 39.83899839 -9.738546532e-05
221.488791 138.7037194 243.9999026
160.658814 -2.460583255e-05 65.95834861
201.999727 28.50087039 89.34171361
197.999727 40.25052439 26.67670361
-56.572703 57.20915139 -9.738546532e-05
46.929192 -2.460583255e-05 74.98974961
-194.350537 53.03573039 -9.738546532e-05
197.999727 168.2182424 157.3654686
201.999727 223.5512517 209.8161536
201.999727 130.4349854 147.7848366
214.406165 -2.460583255e-05 120.6459296
201.999727 51.91080639 136.3371366
158.546225 -2.460583255e-05 47.79001761
211.429372 -2.460583255e-05 3.079573615
100.598374 -2.460583255e-05 28.70412261
76.399267 -2.460583255e-05 246.4135926
53.915183 -2.460583255e-05 169.0298696
34.76605 -2.460583255e-05 156.3344086
205.999727 85.37817939 210.7868356
-167.455446 50.23877239 -9.738546532e-05
197.999727 38.34776839 37.34984661
72.589659 -2.460583255e-05 210.0886976
-143.258677 -2.460583255e-05 208.7375116
179.551389 30.87524139 -9.738546532e-05
179.67373 -2.460583255e-05 91.94466561
-99.695614 -2.460583255e-05 177.7678896
205.999727 7.092994394 114.2408846
-210.954303 -2.460583255e-05 66.22352861
-202.90209 -2.460583255e-05 103.6044456
-14.975153 -2.460583255e-05 156.9512326
-178.918016 67.99997539 -0.3333753855
209.375006 149.8418204 88.06159161
96.202329 -2.460583255e-05 222.7375076
197.999727 80.22559039 172.3595946
-188.695604 40.84945239 -9.738546532e-05
212.061401 16.83923839 91.97552561
138.102208 -2.460583255e-05 199.1167096
26.85433 -2.460583255e-05 136.6455046
-131.342529 -2.460583255e-05 92.59608661
-52.72174 -2.460583255e-05 240.6211416
55.275856 -2.460583255e-05 121.7952606
201.999727 17.18906439 34.19493161
205.999727 135.8820874 222.2757766
-27.373976 -2.460583255e-05 103.4794176
-7.216323998 57.56775939 -9.738546532e-05
180.196053 -2.460583255e-05 11.88199761
205.999727 165.6415924 138.2923136
-211.474728 -2.460583255e-05 11.07305461
208.112934 238.7331723 88.24900761
204.411612 6.911439394 -9.738546532e-05
13.741307 -2.460583255e-05 76.84549561
213.836247 121.4461694 247.9999026
205.999727 3.492223394 140.1204926
104.471289 -2.460583255e-05 247.4877026
197.999727 63.21106939 43.15527261
107.290772 9.252664394 -9.738546532e-05
127.25744 67.99997539 -0.08878738547
-126.354868 -2.460583255e-05 240.3676036
72.118388 -2.460583255e-05 89.83277261
-201.77028 -2.460583255e-05 84.42698161
201.999727 20.80566539 142.4872056
-177.247239 -2.460583255e-05 71.34900861
205.999727 34.82433639 122.4312296
-145.393191 -2.460583255e-05 56.12369161
205.999727 73.31640139 190.2384796
209.571362 51.87452039 243.9500556
82.297397 -2.460583255e-05 58.37952761
201.999727 209.7471544 221.6097746
-6.635805998 -2.460583255e-05 164.9601666
201.999727 223.7905094 188.4370336
-4.057001998 -2.460583255e-05 107.9454086
144.743316 -2.460583255e-05 251.0721486
205.999727 101.2849594 170.9070936
197.999727 149.4883844 130.8050316
21.727288 -2.460583255e-05 92.95515561
-186.282542 -2.460583255e-05 149.6044276
205.999727 208.0972324 171.5469716
183.319262 67.99997539 -0.9391013855
-12.22248 -2.460583255e-05 51.18408061
67.730729 -2.460583255e-05 17.06948161
201.999727 122.5774064 112.3638586
107.889028 -2.460583255e-05 167.2115676
201.999727 60.94552039 97.68090061
207.387089 60.50503039 88.47228661
201.999727 12.38703339 237.7935126
64.890561 -2.460583255e-05 38.47090061
-222.82907 -2.460583255e-05 235.8516576
197.999727 78.29392739 85.39082461
-106.340118 -2.460583255e-05 60.72299161
-82.791881 -1.647714606 -9.738546532e-05
201.999727 137.7515694 183.7122296
197.999727 28.21310639 103.9444746
205.999727 94.45119939 129.3078246
205.999727 156.4324744 129.5215886
213.278767 157.1502714 243.9999026
152.710285 -2.460583255e-05 99.24436961
197.999727 45.48260539 121.6413166
197.999727 113.4347464 135.4512806
205.999727 140.0068414 207.4909876
54.243562 3.652398394 -9.738546532e-05
201.999727 74.28979439 70.92619161
205.999727 70.52869839 223.0733146
50.21704 -2.460583255e-05 182.9984426
217.180333 203.1031154 91.99990261
-64.12519 -2.460583255e-05 56.72365361
201.999727 130.5914844 129.5550086
201.999727 19.62797539 126.3091666
-91.256085 -2.460583255e-05 93.91076661
201.999727 75.96431139 244.1592996
-168.995391 -2.460583255e-05 233.3920536
-77.021426 32.23730039 -9.738546532e-05
193.549741 -2.460583255e-05 13.03004961
197.999727 67.51077939 173.6012486
197.999727 10.37839739 83.47949361
205.999727 199.8871254 154.2344176
201.999727 234.6811724 179.0015466
-72.338035 41.59792539 -9.738546532e-05
189.770319 -2.460583255e-05 146.7279756
-137.816403 -2.460583255e-05 158.6387956
197.999727 44.90065939 83.48798161
17.28416 -2.460583255e-05 133.7439206
201.999727 92.49721439 84.06920061
201.999727 45.68228839 49.27313161
205.999727 190.4691534 106.9917466
58.775291 -2.460583255e-05 90.90970161
189.3969 -2.460583255e-05 129.8775596
-160.505864 20.46106239 -9.738546532e-05
-144.424992 -2.460583255e-05 67.60014461
89.485196 53.07111139 -9.738546532e-05
179.22258 -2.460583255e-05 132.9438696
-40.35883 -2.460583255e-05 16.92843361
71.293586 -2.460583255e-05 174.9711016
158.051576 -2.460583255e-05 145.3825416
81.008201 -2.460583255e-05 192.9549716
201.999727 233.1584534 148.3287846
92.235407 -2.460583255e-05 55.80878361
197.999727 124.2410534 139.8510776
197.999727 65.96723539 203.2867486
-175.184887 -2.460583255e-05 36.02585061
205.999727 55.36830339 117.1169926
197.999727 61.29665939 118.3607246
-211.177784 14.68044639 -9.738546532e-05
208.523142 187.7534154 92.28799761
62.305763 23.85259839 -9.738546532e-05
197.999727 177.2403734 188.5399756
-117.10099 -2.460583255e-05 236.9393996
-120.841099 -2.460583255e-05 75.80682661
-90.763521 -2.460583255e-05 60.31815661
199.054662 21.88568039 -9.738546532e-05
205.999727 228.5322744 132.8629486
-41.190018 -2.460583255e-05 196.0285686
-165.689757 -2.460583255e-05 9.307747615
109.236405 -2.460583255e-05 77.45511361
197.999727 56.23551239 72.56766961
-108.997702 -2.460583255e-05 224.0619716
-47.220719 -2.460583255e-05 82.13557561
201.999727 25.48552939 39.46174161
205.999727 90.52357139 174.5709166
210.175325 187.4887644 243.9999026
212.211166 88.65467039 91.99990261
201.999727 7.495195394 46.21393961
191.101437 -2.460583255e-05 48.84116461
205.999727 25.78985539 161.6906336
205.999727 135.3940564 98.86206061
197.999727 101.5316704 207.8914406
87.271279 -2.460583255e-05 140.0773316
205.999727 97.36376639 213.3407846
197.999727 0.7590943942 222.6945696
151.311959 -2.460583255e-05 87.93484161
205.999727 107.2879764 233.9997986
215.60753 -2.460583255e-05 154.2452256
117.852338 -2.460583255e-05 35.48918761
201.999727 53.43006639 26.30778661
205.999727 80.09990039 101.9905306
-110.066342 -2.460583255e-05 141.5751316
-81.992414 -2.460583255e-05 122.3798346
210.077136 67.99997539 -1.386929385
201.999727 190.2471564 140.6585456
201.999727 200.2873144 226.6773116
205.999727 51.87112339 234.2748106
52.879281 -2.460583255e-05 21.52761561
-91.964318 -2.460583255e-05 141.6156916
-19.264239 28.27391339 -9.738546532e-05
31.005774 -2.460583255e-05 87.63963161
-140.506281 20.59072739 -9.738546532e-05
205.999727 46.65097539 106.7075726
205.999727 242.1658777 197.8261716
197.999727 151.5265574 205.0271036
-163.031119 -2.460583255e-05 116.0802846
-126.271092 -2.460583255e-05 49.04966061
205.999727 119.1127014 206.9847946
221.511659 222.8652524 87.99990261
-160.232561 57.30060839 -9.738546532e-05
213.656745 105.3694044 243.9999026
52.076854 13.05236839 -9.738546532e-05
205.999727 141.4367084 195.4112806
209.584254 -2.460583255e-05 104.9080506
-40.860747 8.706583394 -9.738546532e-05
201.999727 76.98230539 116.0528986
-181.184993 -2.460583255e-05 103.2549216
6.492143002 -2.460583255e-05 236.4704026
199.673495 65.82885239 20.62737161
214.615219 -2.460583255e-05 137.7185836
201.999727 217.0575948 229.9706866
97.699696 -2.460583255e-05 188.9127456
197.999727 55.18302139 145.7158116
201.999727 18.22268039 249.8064636
205.999727 21.99574539 236.5173846
-105.798661 33.14071639 -9.738546532e-05
205.999727 98.79110039 189.4372666
197.999727 6.890972394 32.74296161
205.999727 170.6902084 222.3259476
-65.290828 -2.460583255e-05 42.89968361
-61.654139 -2.460583255e-05 208.6033386
197.999727 8.000564394 109.0715426
-14.069935 -2.460583255e-05 181.1297136
-128.881761 -2.460583255e-05 154.2930106
178.260456 -2.460583255e-05 229.3261396
17.350896 -2.460583255e-05 218.9038486
-2.903070998 67.53012739 -9.738546532e-05
205.999727 39.34475639 223.6522396
201.999727 97.30225639 94.89536261
197.999727 70.36353739 160.6009956
201.999727 45.75838539 10.35799361
127.956322 52.65864539 -9.738546532e-05
-157.560172 -2.460583255e-05 193.9301786
113.867901 -2.460583255e-05 129.2520096
-217.156357 -2.460583255e-05 73.41362061
-196.294688 -2.460583255e-05 250.8093006
205.999727 38.99933139 176.8688656
205.999727 71.86169139 146.1784776
-21.59748 -2.460583255e-05 121.2815786
205.999727 150.3441374 117.4723686
47.38958 61.52019439 -9.738546532e-05
197.999727 36.71928439 162.3704896
-0.3455629978 16.54789039 -9.738546532e-05
205.999727 56.35164939 162.9209486
100.048169 27.43206539 -9.738546532e-05
-70.612631 -2.460583255e-05 31.15502661
161.899956 -2.460583255e-05 241.0889606
-184.699253 -2.460583255e-05 216.7020376
1.116444002 -2.460583255e-05 248.9559896
201.999727 205.7825494 110.4882176
-97.140627 -2.460583255e-05 236.0717486
-108.341952 54.55224339 -9.738546532e-05
-8.713958998 -2.460583255e-05 197.6355726
205.999727 64.86680239 237.7926216
28.524969 -2.460583255e-05 199.5794236
205.999727 34.92475539 143.7485186
214.782389 -2.460583255e-05 61.88544561
91.309556 8.404491394 -9.738546532e-05
197.999727 5.834937394 18.86313061
-2.792270998 -2.460583255e-05 136.7643836
119.71546 -2.460583255e-05 206.3454406
207.071248 68.70746939 247.4065796
201.999727 204.3931984 186.9597796
205.999727 167.2958924 192.4404796
197.999727 79.45136039 227.0771086
197.999727 50.40784339 218.2337686
205.999727 7.971558394 201.3591966
215.026227 54.96293039 87.99990261
205.999727 29.65699839 173.5833636
72.696691 -2.460583255e-05 154.8088716
49.404978 -2.460583255e-05 37.00910961
213.696298 -2.460583255e-05 86.40882761
161.698951 -2.460583255e-05 136.7932206
141.356734 -2.426016606 -9.738546532e-05
205.999727 54.77709139 187.2494296
-102.700281 -2.460583255e-05 40.38731361
143.223935 -2.460583255e-05 116.2630106
205.999727 202.3503064 102.6774386
-213.137385 -2.460583255e-05 134.1321926
201.999727 42.85513139 196.6002486
-13.961642 -2.460583255e-05 72.50848461
197.999727 76.10190139 195.6306306
214.892787 85.03872339 243.9999026
205.999727 65.55933339 122.7013726
221.754441 60.43126939 247.9999026
-97.222574 40.20615739 -9.738546532e-05
205.999727 151.3208594 231.2618016
201.999727 26.46086839 8.152237615
157.65071 58.95859339 -9.738546532e-05
59.264457 -2.460583255e-05 60.85778861
-168.275382 -2.460583255e-05 80.85322961
205.999727 122.2754034 236.1350656
-34.488761 -2.460583255e-05 6.503746615
174.462803 -2.460583255e-05 240.7409266
166.003822 -2.460583255e-05 85.07639761
197.999727 22.11576439 70.99696061
212.637317 223.5183282 247.9999026
205.999727 87.71243039 199.1453826
220.561644 -2.460583255e-05 38.84024161
-120.972785 -2.460583255e-05 138.1396556
106.956431 -2.460583255e-05 147.9348256
-89.713395 32.06039039 -9.738546532e-05
-176.780967 5.884127394 -9.738546532e-05
202.499393 208.1810084 242.7113536
197.999727 51.88418539 101.0489716
204.159474 143.2113004 245.4334196
-120.561666 -2.460583255e-05 7.547437615
177.643638 -2.460583255e-05 45.56889561
-39.815984 -2.460583255e-05 220.8052386
215.691388 115.8268944 91.99990261
197.999727 24.91594739 224.3122746
197.999727 103.3347904 112.2941216
201.999727 251.2519681 142.2575096
8.797802002 -2.460583255e-05 96.46345161
-53.307246 -2.460583255e-05 188.1168606
205.999727 158.4259904 180.0642276
197.999727 72.71933139 94.09948161
205.999727 33.95683839 187.2049376
-162.018679 -2.460583255e-05 216.4175406
63.157755 -2.460583255e-05 131.5641346
-139.912479 52.02568639 -9.738546532e-05
-200.265489 18.95581339 -9.738546532e-05
-173.084168 -2.460583255e-05 129.0760816
95.371104 -2.460583255e-05 107.5484506
197.999727 105.3963094 179.3008236
220.163857 71.66635739 91.99990261
-28.733611 -2.460583255e-05 23.04187561
151.710333 -2.460583255e-05 215.2536866
-6.546348998 -2.460583255e-05 88.75752561
-27.822791 -1.795523606 -9.738546532e-05
-176.343849 -2.460583255e-05 85.08052661
101.611766 -2.460583255e-05 202.7292486
198.513477 129.3031284 195.4059086
-32.690083 -2.460583255e-05 237.4154776
-170.994398 -2.460583255e-05 104.4766896
198.824423 0.4999753942 26.16562761
123.105628 7.450489394 -9.738546532e-05
201.999727 184.4253944 198.9759386
180.785627 -2.460583255e-05 72.25854761
197.999727 87.27023739 182.7699456
-145.267717 -2.460583255e-05 89.96149961
-162.779624 7.834760394 -9.738546532e-05
-154.003306 -2.460583255e-05 173.7451756
101.320095 39.56698639 -9.738546532e-05
197.999727 147.0463374 195.5840306
-40.407119 29.48432639 -9.738546532e-05
205.999727 72.79930839 131.9796436
197.999727 60.61339739 163.4500776
-43.642463 -2.460583255e-05 132.3216466
197.999727 178.7216654 161.6637706
205.999727 212.9364244 139.9661266
-199.254957 -2.460583255e-05 162.0074066
70.036664 51.95388139 -9.738546532e-05
197.999727 160.4863184 187.8866596
0.01537100217 37.86829639 -9.738546532e-05
214.274102 79.56687739 91.99990261
196.774369 -2.460583255e-05 152.3398126
80.618995 -2.460583255e-05 106.4541256
130.533543 13.41303739 -9.738546532e-05
201.999727 176.7873314 110.3495306
177.062411 -2.460583255e-05 152.5622006
137.257011 -2.460583255e-05 235.5314006
-29.188059 28.19473439 -9.738546532e-05
80.801292 -2.460583255e-05 170.8168756
-154.384707 -2.460583255e-05 251.2202336
26.528899 -2.460583255e-05 241.3846166
56.361938 -2.460583255e-05 147.1117126
-186.574762 -2.460583255e-05 173.9164416
-95.939367 -2.460583255e-05 112.1909496
-11.223721 -2.460583255e-05 235.5200916
205.999727 221.7749513 166.2003006
-193.376622 -2.460583255e-05 78.60422961
218.034936 242.0651018 87.99990261
-128.571702 -2.460583255e-05 201.9720046
-25.454731 14.27681139 -9.738546532e-05
-58.103204 32.67251339 -9.738546532e-05
205.999727 46.20629039 142.0190286
-105.257372 -2.460583255e-05 5.756103615
-139.368941 -2.460583255e-05 185.2456446
-72.016736 -2.460583255e-05 192.9741326
208.580564 -2.460583255e-05 19.40287561
88.085245 -2.460583255e-05 80.42569161
-145.413924 10.13933239 -9.738546532e-05
208.875119 208.9118244 88.11095361
-134.577899 -2.460583255e-05 171.4352046
162.654083 -2.408691606 -9.738546532e-05
201.999727 143.2542914 135.6846506
221.770787 33.84389839 247.9999026
205.999727 7.344840394 227.7465806
-70.824481 5.915214394 -9.738546532e-05
205.999727 162.4373704 235.8698996
13.136293 -2.460583255e-05 117.1854126
0.3575310022 -2.460583255e-05 9.737606615
205.999727 131.9033754 157.2595466
-47.993643 -2.460583255e-05 47.05232861
-217.627498 -2.460583255e-05 56.98888261
200.952508 158.3932194 212.4004156
-150.175351 -2.460583255e-05 165.1504536
-135.437436 -2.460583255e-05 60.93575661
205.999727 115.4761484 220.7166826
197.999727 94.54573139 112.8030606
-46.287916 44.12830439 -9.738546532e-05
150.242881 -2.460583255e-05 154.8128726
201.999727 227.7300772 220.6837676
201.999727 148.5769464 175.5679836
98.827985 -2.460583255e-05 115.6545316
111.894303 -2.460583255e-05 12.28752961
205.999727 11.85937339 125.4119286
205.999727 114.9201264 164.1850056
122.606897 -2.460583255e-05 46.46409061
201.999727 107.5320974 196.7451596
-164.647278 -2.460583255e-05 207.4672446
95.08773 59.79985539 -9.738546532e-05
197.999727 62.04317739 235.6532406
186.511343 -2.460583255e-05 103.9901906
-66.529842 -2.460583255e-05 229.9615416
-100.186244 -2.460583255e-05 226.7052856
90.835728 -2.460583255e-05 172.2214146
-197.65276 -2.460583255e-05 -2.214489385
197.999727 29.78433939 45.89500661
179.922 -0.2359476058 -9.738546532e-05
121.021767 -2.460583255e-05 66.43973961
-188.959088 -2.460583255e-05 23.50695261
205.999727 167.7428104 153.5603966
197.999727 82.22966739 209.4789466
205.999727 44.75669439 204.5426886
201.999727 153.2319114 101.6780216
-100.586264 -2.460583255e-05 100.2706286
60.128736 -2.460583255e-05 198.9329456
-72.689479 -2.460583255e-05 154.0739316
197.999727 115.4729974 197.9114986
9.580276002 11.41101539 -9.738546532e-05
-78.771344 -2.460583255e-05 139.6800096
-10.855027 -2.139160606 -9.738546532e-05
205.999727 42.92573939 235.2486066
65.960906 -2.460583255e-05 249.9946676
197.999727 92.12009039 131.5958196
181.873526 -2.460583255e-05 187.6030836
83.580786 -2.460583255e-05 95.81573061
37.392273 -2.460583255e-05 5.162513615
201.999727 49.04546539 182.1339186
-103.154509 -2.460583255e-05 159.0777696
201.999727 181.4481704 226.1938246
205.999727 58.29066539 132.1333796
147.235229 -2.460583255e-05 7.428231615
-102.263262 -2.460583255e-05 13.83615261
-191.696339 -2.460583255e-05 118.1148406
-169.616709 -2.460583255e-05 167.6342396
135.978164 -2.460583255e-05 7.807100615
-59.417502 -2.460583255e-05 25.73696561
-108.815307 -2.460583255e-05 178.6834916
197.999727 5.786786394 74.01223861
197.999727 81.10317939 157.1338606
-22.209586 -2.460583255e-05 141.9479246
-194.99066 -2.460583255e-05 234.2137996
-23.565525 -2.460583255e-05 170.6857386
205.999727 27.83928339 216.5265436
-51.408858 -2.460583255e-05 94.52397261
201.999727 179.6990054 208.6936536
31.324189 -2.460583255e-05 187.5202766
-72.885594 -2.460583255e-05 123.9898406
197.999727 59.40967139 90.27094361
202.914518 225.6552305 243.6416326
79.873696 60.84181039 -9.738546532e-05
-39.995002 -2.460583255e-05 75.65187561
8.285621002 -2.460583255e-05 184.3326306
197.999727 153.2598704 139.6805126
205.999727 62.11128439 216.8358076
-12.003316 -2.460583255e-05 114.3352676
76.122437 -2.460583255e-05 70.41524461
118.178908 -2.460583255e-05 165.8320546
197.999727 35.18994139 58.86221761
-30.084495 -2.460583255e-05 64.54625261
-114.326651 43.08663539 -9.738546532e-05
205.999727 18.07649939 198.8677196
222.844623 119.3343714 243.9999026
-80.70401 65.66361839 -9.738546532e-05
97.000683 -2.460583255e-05 243.3855716
121.560976 -2.460583255e-05 100.0865896
-4.553333998 -2.460583255e-05 175.0419286
-204.633929 -2.460583255e-05 148.8769556
128.336961 -2.460583255e-05 82.90031061
10.943218 -2.460583255e-05 128.0931036
-146.538084 -2.460583255e-05 8.010351615
147.434336 -2.460583255e-05 27.74140961
-83.942971 -2.460583255e-05 184.8265656
-173.806321 -2.460583255e-05 188.8606536
197.999727 93.88929139 188.0706516
35.02546 -2.460583255e-05 167.4763686
220.967195 -2.460583255e-05 239.2427316
205.999727 173.0022244 133.5672396
34.290523 6.280733394 -9.738546532e-05
205.999727 158.9987804 202.6595206
61.655407 33.02647439 -9.738546532e-05
205.999727 144.4533914 218.8869726
205.999727 121.7540284 127.3424036
204.603578 220.1082876 90.12664761
205.999727 134.2282574 140.5387356
201.999727 68.04342639 36.91500661
197.999727 90.07603639 219.6314086
198.210506 81.25598839 238.8128156
205.999727 179.0049764 181.2302536
205.999727 33.90894939 108.8714986
207.053345 240.8495778 247.4047256
134.249615 22.21706139 -9.738546532e-05
189.348661 19.57941239 -9.738546532e-05
205.999727 48.06803639 121.5783496
27.474455 -2.460583255e-05 99.09055661
197.999727 40.63360639 69.07893461
205.999727 66.68285439 205.7548376
-108.889368 -2.460583255e-05 115.9578356
118.801786 -2.460583255e-05 86.22239161
-89.052678 3.938782394 -9.738546532e-05
197.999727 65.39109239 74.22188561
141.209248 -2.460583255e-05 176.3709546
205.999727 126.6654624 198.0838386
205.999727 242.8350457 224.5928226
201.999727 215.220149 193.7046676
-165.421469 -2.460583255e-05 191.0540046
-77.122328 -2.460583255e-05 78.86645561
-91.423457 -2.460583255e-05 214.2292536
123.478535 -2.460583255e-05 57.17528261
197.999727 57.40761739 171.1707956
197.999727 102.2902364 139.0612476
212.22598 46.13896239 87.99990261
129.407967 -2.460583255e-05 127.3405936
197.999727 131.5983324 220.1559976
209.686341 -2.460583255e-05 74.12109661
197.999727 31.83515939 228.9679356
201.999727 139.3838744 161.6186156
197.999727 62.14661439 252.1060486
-213.312208 -2.460583255e-05 238.9038126
201.999727 2.093962394 162.8484926
197.999727 70.78341139 220.8056136
-54.947962 -2.460583255e-05 110.7663386
219.007108 102.0654274 87.99990261
-43.973455 -2.460583255e-05 29.13973561
-59.608663 -2.460583255e-05 169.4586816
-118.068999 -2.460583255e-05 226.3330856
-106.16658 -2.460583255e-05 203.0293116
-207.133505 -2.460583255e-05 40.42164061
23.114154 -2.460583255e-05 3.292678615
205.999727 146.0421004 102.6009706
82.198928 -2.460583255e-05 25.82195061
-63.420858 -2.460583255e-05 90.01878261
213.147913 208.8803904 247.9999026
-190.064316 11.87599739 -9.738546532e-05
205.999727 158.1650184 120.1379466
197.999727 55.43747039 199.1475426
33.305048 -2.460583255e-05 141.7928036
197.999727 70.35517739 112.3955376
-174.643587 -2.460583255e-05 46.45797961
144.365183 67.99997539 -0.7919203855
201.999727 160.5216004 143.3615026
94.924437 -2.460583255e-05 36.27959561
64.396541 -2.460583255e-05 210.9596176
188.82457 -2.460583255e-05 174.1808976
-72.635712 -2.460583255e-05 213.0417706
201.999727 133.4892684 204.2760156
186.497916 -2.460583255e-05 31.44349161
-206.594648 35.62846739 -9.738546532e-05
-130.96143 -2.460583255e-05 5.911035615
190.337643 63.81444639 -9.738546532e-05
201.999727 216.6167274 101.5695806
126.770085 -2.460583255e-05 241.4555736
138.595384 -2.460583255e-05 41.36283761
205.999727 172.5913184 207.7095356
-166.632958 -2.460583255e-05 97.51557661
-213.144238 -2.460583255e-05 220.0556636
-77.45948 -2.460583255e-05 199.6958916
205.999727 246.5406535 135.9838246
201.999727 73.87039739 176.8822006
201.999727 120.8575404 187.8342226
72.252092 -2.460583255e-05 227.7853386
205.999727 99.33947239 159.4235806
86.630435 -2.460583255e-05 187.0205926
209.944884 -2.460583255e-05 226.9317796
-46.050671 -2.460583255e-05 117.1218486
-73.790006 -2.460583255e-05 16.64917761
211.305312 234.0383007 243.9999026
205.999727 244.3917912 159.8111886
29.465822 32.70854539 -9.738546532e-05
205.999727 73.40450239 212.4965156
114.640581 12.80569939 -9.738546532e-05
200.802058 92.49747039 69.83287061
220.697171 23.49106139 87.99990261
205.999727 87.65959039 233.6540306
212.878976 105.6553494 91.99990261
-139.525488 34.48732339 -9.738546532e-05
197.999727 66.34948139 132.2350506
-2.363228998 -2.460583255e-05 156.7748216
-48.727168 -2.460583255e-05 223.4120246
134.057837 42.61277239 -9.738546532e-05
42.833798 -2.460583255e-05 91.43428961
201.999727 5.742740394 100.0191006
-116.945638 -2.460583255e-05 44.00708761
197.999727 38.44533939 250.2316596
177.538875 -2.460583255e-05 64.80466461
197.999727 162.7748384 165.5813366
201.999727 18.29737339 167.0486896
212.524184 169.6965344 91.99990261
84.023373 -2.460583255e-05 72.72167561
-200.3368 -2.460583255e-05 67.76914761
205.999727 60.82587839 177.3683986
46.749087 -2.460583255e-05 196.6336906
197.999727 103.3030924 147.9896666
-103.763921 -2.460583255e-05 70.33976561
209.985367 98.14421639 243.9982316
205.999727 106.8586904 188.6834726
205.999727 245.4699613 168.0737966
209.850115 78.69727239 243.9824936
30.726884 -2.460583255e-05 209.8753956
117.555259 35.63844839 -9.738546532e-05
205.999727 129.9790034 108.4794836
91.5934 -2.460583255e-05 119.2503626
-92.543175 -2.460583255e-05 132.7988896
-64.645751 -2.460583255e-05 189.6042356
197.999727 120.9953724 130.5083306
201.999727 140.8269314 147.3826146
206.262297 -2.460583255e-05 59.66088861
-160.86039 -2.460583255e-05 140.2504776
-221.838528 -2.460583255e-05 36.78175961
202.394582 153.2290784 93.63454461
-108.387434 -2.460583255e-05 30.47087161
218.883422 19.32788139 247.9999026
205.999727 17.53637139 119.1275376
-160.899593 65.32126739 -9.738546532e-05
205.999727 34.59562339 195.3920916
165.68512 -2.460583255e-05 161.9816746
-165.723314 -2.460583255e-05 125.8777286
201.999727 23.28073939 27.73262561
197.999727 12.85248339 98.79403361
-113.57738 -2.460583255e-05 104.8011236
-84.321736 15.08212439 -9.738546532e-05
152.136377 39.17942739 -9.738546532e-05
-185.479601 -2.460583255e-05 37.58784961
143.641888 -2.460583255e-05 78.43459361
205.999727 229.8697474 183.9939976
201.999727 174.5855444 215.5111796
197.999727 11.59119439 68.38801361
-109.386928 -2.460583255e-05 150.9945936
-45.909261 -2.460583255e-05 141.5570016
59.876037 15.27107039 -9.738546532e-05
95.404707 -2.460583255e-05 164.3378566
-1.886011998 -2.460583255e-05 229.2536556
205.999727 27.09456039 104.6912066
197.999727 178.0976104 148.2754386
-27.007875 -2.460583255e-05 198.7233556
12.668473 -2.460583255e-05 38.47379661
214.227933 179.6654734 91.99990261
205.999727 1.586808394 219.7826086
197.999727 82.24355939 201.3954226
205.999727 174.3208254 144.8145506
201.999727 161.8540534 113.1821176
197.999727 36.34435039 93.93837761
25.388247 -2.460583255e-05 128.7194436
-11.595421 12.80270739 -9.738546532e-05
72.907202 -2.460583255e-05 36.08344361
118.82462 -2.460583255e-05 198.1873546
203.483843 59.72971339 -9.738546532e-05
197.999727 85.36275339 150.4053866
-71.041085 -2.460583255e-05 249.9763956
205.999727 60.99197739 146.8500626
-31.112717 -2.460583255e-05 189.4350946
201.999727 117.6158934 118.5865366
205.999727 163.2610684 173.1839906
201.999727 88.52728339 166.4606586
212.400459 33.18824939 -9.738546532e-05
197.999727 8.563080394 57.22861761
201.999727 107.1355214 132.7290876
-108.196374 -2.460583255e-05 19.11351361
-21.269658 -2.460583255e-05 69.40413161
-95.696033 -2.460583255e-05 184.6187606
84.906637 -2.460583255e-05 218.7373966
-54.049288 -2.460583255e-05 232.8012686
-33.273421 -2.460583255e-05 97.04969261
201.999727 194.8519954 174.9503286
197.999727 66.70438039 144.7335936
209.355025 163.0859634 88.06356461
37.36043 -2.460583255e-05 182.4182446
-192.869716 -2.460583255e-05 44.06094561
197.999727 4.964291394 8.789702615
201.999727 135.6451414 168.7662776
216.111906 -2.460583255e-05 176.9106596
-39.202637 -2.460583255e-05 167.1325516
205.999727 123.7755404 172.2547136
108.874826 -2.460583255e-05 121.1299286
197.999727 39.26138939 137.2133436
197.999727 81.31751939 134.9804816
-151.863358 -2.460583255e-05 49.38875061
205.999727 196.9887444 135.5521066
197.999727 62.18937939 185.0934826
201.999727 144.7933074 234.3418246
197.999727 46.92720439 40.73982061
-75.979594 -2.460583255e-05 95.48781561
-125.717654 60.30303139 -9.738546532e-05
114.9223 -2.460583255e-05 28.19108861
-94.536675 -2.460583255e-05 168.9791656
32.591454 64.20192639 -9.738546532e-05
-69.771377 -2.460583255e-05 107.8812116
197.999727 115.8331074 111.9371706
203.911664 169.0651314 90.84905361
201.999727 210.8940334 177.6931486
193.707261 -2.460583255e-05 58.99468761
6.938340002 -2.460583255e-05 51.18889061
-92.095336 -2.460583255e-05 202.9690466
205.999727 199.6931784 162.0757726
205.999727 20.10111439 173.5617746
211.608412 166.9915704 243.9999026
158.817502 -2.460583255e-05 205.5146166
205.999727 50.96870739 129.3282246
197.999727 75.35524739 64.27020661
156.096166 -2.460583255e-05 182.5188326
-32.941079 -2.460583255e-05 180.8565396
211.744153 -2.460583255e-05 49.90247561
204.101115 194.0774184 245.3637566
204.573298 103.0561234 90.15409261
-23.719009 -2.460583255e-05 129.4121086
-104.818142 21.42436539 -9.738546532e-05
215.592034 145.7762144 91.99990261
-132.404329 -2.460583255e-05 189.9759756
-213.282242 -2.460583255e-05 166.1758366
-138.501938 -2.460583255e-05 150.0138686
-198.984273 -2.460583255e-05 22.60484161
205.999727 251.9169014 100.4815726
138.177338 -2.460583255e-05 148.6994336
28.093169 -2.460583255e-05 37.76533361
-173.633939 -2.460583255e-05 121.0004286
205.999727 78.96768139 142.9817036
-75.002971 -1.444247606 -9.738546532e-05
205.999727 73.31054939 124.2077116
201.999727 32.06839239 22.48588961
205.999727 197.4724554 207.1805186
15.186297 -2.460583255e-05 188.9025036
205.999727 229.5384808 193.9146666
205.999727 107.9589674 179.9496866
