# .PCD v0.7 - Point Cloud Data file format
VERSION 0.7
FIELDS x y z
SIZE 4 4 4
TYPE F F F
COUNT 1 1 1
WIDTH 1270
HEIGHT 1
VIEWPOINT 0 0 0 1 0 0 0
POINTS 1270
DATA ascii
-0.0002729992684 68.8576394 -8.229618386
-30.777542 -2.460197743e-05 -33.46199739
-0.0002729992684 27.8823794 11.43732561
-129.642461 49.8677994 41.49990261
-33.381751 -2.460197743e-05 31.99973661
-0.0002729992684 69.4676174 -33.79512239
-27.785962 48.6618304 47.49990261
-0.0002729992684 131.5983324 -26.34400239
-45.856073 59.0255594 47.49990261
1.338817001 62.5487484 24.51737861
-195.647017 -2.460197743e-05 -37.21785839
-192.89005 38.7684334 41.49990261
-136.132172 -2.460197743e-05 -19.58018539
-85.171725 13.5824304 47.49990261
-110.9915 -2.460197743e-05 -14.33987539
-0.0002729992684 41.4679774 -29.41621939
-216.335565 -2.460197743e-05 14.01504961
-35.315139 23.0882164 47.49990261
-163.790411 50.4896734 47.49990261
-0.0002729992684 96.7171984 -30.60993439
-6.146492999 -2.460197743e-05 4.990729614
-141.956209 40.4804754 41.49990261
-67.23713 -2.460197743e-05 10.30420961
-178.743441 -2.294094602 41.49990261
-123.65222 -2.460197743e-05 -42.34311839
-0.0002729992684 53.6569844 -6.978123386
-66.35417 -2.460197743e-05 30.78638161
-103.64507 -2.460197743e-05 -33.98969039
-26.818833 34.4068344 41.49990261
-239.084691 -2.049636602 41.49990261
-14.818511 61.5883664 47.49990261
-176.775874 -2.460197743e-05 11.78388061
-130.909736 -2.460197743e-05 15.02786461
-161.219863 -2.460197743e-05 33.40032661
-14.162015 -2.460197743e-05 18.87515461
-184.702991 12.5762934 41.49990261
-222.00148 -2.460197743e-05 -9.199174386
-0.0002729992684 52.4002484 7.719930614
-116.134674 21.6560164 47.49990261
-50.110536 31.0122114 47.49990261
0.2947440007 42.1035364 40.49990261
-8.316118999 15.8963484 47.49990261
-239.838707 34.4255724 47.49990261
-0.0002729992684 12.3655664 13.64182761
-3.726737999 -2.460197743e-05 -36.79699339
-21.611517 -2.460197743e-05 -43.98768839
-101.34609 33.6255154 41.49990261
-38.730584 -2.460197743e-05 4.433966614
-40.383876 4.414584398 47.49990261
-216.351207 54.3452114 47.49990261
-145.723187 67.9999754 42.62761061
-172.196276 -2.460197743e-05 -16.84290139
-11.991927 32.4640504 47.49990261
-219.604062 39.7400344 47.49990261
-77.402504 67.2484224 41.49990261
-125.641861 -2.460197743e-05 -9.765967386
-191.367761 -2.460197743e-05 7.683935614
-37.81495 -2.460197743e-05 19.01810761
-116.493573 53.0125064 41.49990261
-75.647226 -2.460197743e-05 -26.93183939
-59.990615 10.4789524 41.49990261
-203.941573 33.6457304 47.49990261
-133.952663 -2.460197743e-05 -33.77465739
-0.0002729992684 2.733156398 -8.700820386
-202.363705 8.443043398 47.49990261
-52.868136 47.6774244 47.49990261
-243.354136 -2.460197743e-05 -33.29554039
-83.23008 -2.460197743e-05 0.6794726136
-148.658716 -2.460197743e-05 -10.99306639
-150.449222 -2.250542602 47.49990261
-182.21849 33.7174424 47.49990261
-0.0002729992684 156.1138784 -42.77501939
-164.087139 15.6578604 41.49990261
-226.793203 -2.460197743e-05 26.23430661
-90.647891 -2.460197743e-05 -35.38771639
-251.374343 -2.460197743e-05 16.68940761
-0.0002729992684 26.4435754 -5.701800386
-251.316186 32.9273374 41.49990261
-115.743889 -2.460197743e-05 38.37086961
-217.972218 -2.460197743e-05 -42.48682239
-44.830211 -2.460197743e-05 -27.24757439
-0.0002729992684 16.6779044 -32.09817039
-195.329363 55.2403094 41.49990261
-0.0002729992684 82.2296674 -37.02105339
-80.541453 23.7853844 41.49990261
-219.855861 -0.794076602 47.49990261
-104.503077 -2.460197743e-05 -1.902172386
-71.933903 34.6467174 47.49990261
-2.011073999 54.4594744 41.49990261
-98.132431 9.992209398 47.49990261
-35.18714 56.7687474 41.49990261
0.2105060007 81.2559884 -7.687184386
-0.0002729992684 68.5440284 -21.44705339
-173.412706 10.1763574 47.49990261
-148.80591 -2.460197743e-05 -35.93583539
-110.899804 9.476348398 47.49990261
-238.253803 -2.460197743e-05 -11.22880239
-97.386692 -2.460197743e-05 -11.82386039
-137.334156 10.7127694 41.49990261
-156.86454 -2.460197743e-05 5.883615614
-99.632243 57.5333974 47.49990261
-63.380434 55.1685154 41.49990261
-108.086909 -2.460197743e-05 13.40406061
-201.454814 19.0530004 41.49990261
-0.0002729992684 103.4578514 -48.28920539
-209.223721 -2.460197743e-05 -10.97990839
-0.0002729992684 13.7900194 -17.99960939
-9.082351999 4.930374398 41.49990261
-235.223484 20.4112484 41.49990261
-23.111206 11.8211334 47.49990261
-0.0002729992684 31.4512784 -35.50772139
-41.154233 67.9143194 41.49990261
-236.54361 57.6572114 41.49990261
-190.826829 -2.460197743e-05 22.96551361
-0.0002729992684 55.4432174 -41.91076839
-76.995679 -2.460197743e-05 35.48435061
-0.0002729992684 39.2728174 -18.01286139
-133.538322 59.5378144 47.49990261
-46.512626 -2.460197743e-05 31.04338461
-202.708578 -2.460197743e-05 33.14247561
-145.886041 -2.460197743e-05 37.15091661
-122.275316 3.213883398 47.49990261
-178.875724 -2.460197743e-05 -40.12163439
-151.294428 43.2074824 47.49990261
-133.420635 -2.460197743e-05 36.91915261
-223.796366 15.8154794 41.49990261
-239.190018 -2.460197743e-05 -50.47143139
-226.385548 -2.460197743e-05 38.18101561
-86.432295 -2.460197743e-05 14.50662461
-216.027809 28.8214664 47.49990261
0.5222560007 98.6851304 -19.60802139
-204.961704 60.8775084 41.49990261
-196.81559 -2.460197743e-05 -4.695327386
-112.081825 39.6488554 41.49990261
-167.918658 36.2303294 47.49990261
-150.331559 -2.460197743e-05 -49.46371639
-0.0002729992684 74.6661164 -45.03158239
-0.0002729992684 123.8884234 -34.20661139
-53.256684 -2.460197743e-05 4.572148614
-161.594926 -2.460197743e-05 -28.19567439
-50.810569 -2.460197743e-05 -41.38361239
-226.089063 60.6859054 41.49990261
-220.239573 -2.460197743e-05 -26.53902339
-80.28336 -2.460197743e-05 -10.92302839
-0.0002729992684 33.7509014 28.40169561
-87.122012 44.3693934 47.49990261
-125.619454 26.6043644 47.49990261
-247.302121 7.861912398 41.49990261
-20.046574 -2.460197743e-05 2.937074614
-24.370757 -2.460197743e-05 26.29999261
-199.886012 -2.460197743e-05 -17.24634439
-0.0002729992684 18.2304754 39.10498561
-154.546716 7.035031398 41.49990261
-218.123149 -2.460197743e-05 3.559004614
-189.774271 48.5002434 47.49990261
-61.893176 -2.460197743e-05 -35.74887139
-154.165317 64.0204844 47.49990261
-89.339725 23.2058274 47.49990261
-130.457148 39.4274414 41.49990261
-187.761206 60.9731464 47.49990261
-0.0002729992684 52.7418484 19.65987961
-181.653183 20.5436244 47.49990261
-0.0002729992684 41.7953874 6.876812614
-101.797671 -2.460197743e-05 -23.76249239
-60.742989 -2.460197743e-05 -10.96859939
-44.631323 -2.460197743e-05 -16.02961039
-34.766961 37.0891734 47.49990261
-23.65564 -2.460197743e-05 -13.82422639
-170.334745 -2.460197743e-05 -49.58680739
-52.119353 66.4291824 41.49990261
-63.217143 27.4673744 41.49990261
-36.100044 -2.460197743e-05 -5.411039386
-173.601362 53.0569344 41.49990261
-70.070132 11.8300214 41.49990261
-0.0002729992684 109.1669434 -34.96768239
-113.56129 -2.460197743e-05 -43.38069739
-33.835468 15.0578774 41.49990261
-242.930185 67.9999754 47.28512161
-211.924989 -2.460197743e-05 24.89752361
-66.461888 -1.628109602 -21.47331539
-213.143056 10.4354344 41.49990261
-248.862473 55.5435844 47.49990261
-166.515066 -2.460197743e-05 13.56192261
-43.105397 24.3538134 41.49990261
-167.602374 59.6379544 47.49990261
-229.792221 40.3728674 41.49990261
-58.305688 2.830569398 47.49990261
-160.77969 24.4782254 47.49990261
-25.205908 58.1606204 47.49990261
-159.052786 43.0932864 41.49990261
-151.907857 56.5793444 41.49990261
-0.0002729992684 147.1572974 -38.67967239
-59.342682 18.1671954 47.49990261
-0.0002729992684 30.7481114 37.88706461
-18.848297 4.753100398 41.49990261
-140.526526 -2.460197743e-05 13.41295261
-242.22753 -2.460197743e-05 13.40113961
-0.0002729992684 50.3577424 -33.33895639
-116.335404 67.2572244 47.49990261
-112.50854 32.0419914 47.49990261
-0.0002729992684 8.601655398 24.70800361
-0.0002729992684 76.4081594 -26.94867439
-97.08245 -2.090782602 47.49990261
-238.391581 44.5415424 41.49990261
-147.41438 -0.362198602 21.21874161
-250.72174 -2.460197743e-05 -5.878858386
-229.30939 -2.460197743e-05 17.07782461
-129.752016 -2.460197743e-05 28.21779061
-67.585693 64.7895684 41.49990261
-59.168173 -2.460197743e-05 37.69509961
-5.960944999 41.3653144 47.49990261
-0.0002729992684 35.1228934 -45.18475339
-27.523758 -2.460197743e-05 -24.66144439
-171.544058 -2.350969602 47.49990261
-84.895598 3.936450398 47.49990261
-0.0002729992684 123.3099454 -43.50018339
-109.40799 52.4046034 47.49990261
-101.925248 3.233190398 41.49990261
-44.721186 -2.460197743e-05 12.83722361
-0.0002729992684 49.8889984 28.42583061
-1.884427999 -0.787008602 41.49990261
-237.815984 -2.460197743e-05 -25.69476139
-149.527897 -2.460197743e-05 11.37930161
-82.003203 61.6226944 47.49990261
-96.388234 -2.460197743e-05 -43.77075139
-120.653253 47.5269784 47.49990261
-143.144724 25.9682254 41.49990261
-0.0002729992684 36.4015124 14.59515461
-0.0002729992684 30.4115834 2.469619614
-98.785822 25.1346204 47.49990261
-122.440829 -2.460197743e-05 9.588303614
-222.243808 50.9639314 41.49990261
-115.510935 14.4329474 41.49990261
-180.282579 27.2614024 41.49990261
-136.431413 67.9999754 46.43479461
-20.160032 67.5208384 41.49990261
-36.528243 -2.460197743e-05 40.69481161
-44.801875 52.4567334 41.49990261
-125.747908 -2.460197743e-05 -18.71466139
-170.032862 -2.460197743e-05 27.87739661
-219.940029 10.4706564 47.49990261
-190.736176 9.970605398 47.49990261
-173.104458 -2.460197743e-05 3.684956614
-84.40644 -2.460197743e-05 -28.31319339
-216.728795 -2.460197743e-05 -18.40226239
-0.9666279993 21.2900474 47.49990261
-174.528355 20.2990014 41.49990261
-248.651852 -2.460197743e-05 27.27261661
-225.007875 -2.460197743e-05 -47.77664439
-190.853589 67.9999754 41.72426161
-49.076107 39.7101684 47.49990261
-70.012957 49.8792974 47.49990261
-54.28144 -2.460197743e-05 27.06925861
-151.839234 17.7694454 41.49990261
-0.0002729992684 59.3076474 13.91615161
-188.113831 31.0710284 41.49990261
-180.649104 -2.460197743e-05 -27.59615139
-125.15843 59.7451864 41.49990261
-22.075419 51.2049664 41.49990261
-24.616566 -2.460197743e-05 35.00168561
-92.100393 8.399910398 41.49990261
-18.064943 33.7856354 41.49990261
-100.156127 65.6939364 41.49990261
-203.469165 -2.035018602 41.49990261
-172.805415 31.5438764 41.49990261
-46.756453 10.3292784 41.49990261
-97.19195 -2.460197743e-05 16.90923861
-52.424866 21.2336854 41.49990261
-81.019945 43.7205634 41.49990261
-184.001698 56.2502324 41.49990261
-108.023826 28.0177754 41.49990261
-133.071017 31.3396374 41.49990261
-93.803054 59.0111404 41.49990261
-0.0002729992684 17.9429644 20.04269961
-75.148214 14.9668304 47.49990261
-0.0002729992684 45.8158714 -12.64724439
-0.0002729992684 101.5316704 -38.60855939
-204.780157 27.7453994 41.49990261
-203.036683 55.2378004 47.49990261
-0.0002729992684 68.7468994 0.7393926136
-160.968161 -2.460197743e-05 -37.29358739
0.1248520007 165.0872264 -39.04420239
-5.970121999 58.8558054 47.49990261
-191.997007 16.7931414 41.49990261
-142.700135 -2.460197743e-05 -30.13674239
-54.485495 -2.460197743e-05 -16.59725239
-138.399713 49.1505144 47.49990261
-0.0002729992684 81.1651284 -50.36293839
1.605290001 -2.460197743e-05 12.13048761
-9.342693999 24.5243504 47.49990261
-197.9595 -2.460197743e-05 -45.26073139
-31.114218 9.468601398 47.49990261
-145.366285 7.098248398 41.49990261
-143.878162 -2.460197743e-05 -3.407897386
-109.035317 58.1124504 41.49990261
-16.398785 52.3596574 47.49990261
-245.865676 40.9767964 41.49990261
-236.406133 2.946049398 47.49990261
-11.5598 66.2230764 41.49990261
-72.471098 -2.460197743e-05 3.926478614
-210.54313 61.7478934 47.49990261
-63.437673 -2.460197743e-05 -2.418691386
-79.17538 -2.460197743e-05 -48.31264539
-123.884535 18.5918534 47.49990261
-159.303823 12.8364064 47.49990261
-0.0002729992684 8.471234398 -24.20426039
-0.0002729992684 46.9453704 -0.4830443864
-130.725214 -2.460197743e-05 -25.68040939
-3.684610999 49.2021384 47.49990261
-93.528711 -2.460197743e-05 0.9877026136
-83.349318 -2.460197743e-05 30.38442961
-52.293739 8.318767398 47.49990261
-21.539793 43.4893744 47.49990261
-7.509186999 -2.460197743e-05 14.24624261
-219.630517 32.9010604 41.49990261
-93.427727 49.4500644 47.49990261
-33.768848 28.2907534 41.49990261
-23.537197 -2.460197743e-05 -5.759073386
-14.963186 -2.460197743e-05 10.86115261
-137.895161 33.6854614 47.49990261
-120.500718 57.1061054 47.49990261
-35.331121 51.4086074 47.49990261
-171.471101 -2.460197743e-05 -5.115383386
-225.257665 67.9999754 45.14304461
-238.460773 13.0882264 41.49990261
-230.381431 -2.460197743e-05 -12.56597839
-95.416108 17.4922204 47.49990261
-155.974854 -2.460197743e-05 -7.628100386
-217.101437 20.1120044 41.49990261
-113.093363 -2.460197743e-05 -27.76260339
-171.916495 5.245700398 41.49990261
-225.63848 34.3391014 47.49990261
-132.098349 -2.460197743e-05 7.233739614
-129.411541 23.1733964 41.49990261
-53.733437 52.7103404 41.49990261
-46.588534 34.6887264 41.49990261
-148.96774 32.2783354 47.49990261
-54.805578 32.9440174 41.49990261
-34.931428 -2.460197743e-05 -40.13193539
-99.368653 -2.460197743e-05 34.86728761
-78.172502 4.822436398 41.49990261
-183.343852 7.547240398 47.49990261
-147.148235 50.4347764 41.49990261
-0.0002729992684 40.0561064 -39.17933639
-66.286525 -2.460197743e-05 40.79913661
-208.234433 37.0577474 41.49990261
-156.062695 -2.460197743e-05 -17.67561739
-28.09349 20.2754224 47.49990261
-59.485643 52.1970744 47.49990261
-73.246871 54.3342624 41.49990261
-241.75567 52.5137424 47.49990261
-0.0002729992684 139.9354654 -29.73493439
-158.256842 57.4728704 47.49990261
-102.521449 12.0644014 41.49990261
-0.0002729992684 63.4135574 -27.20669239
-120.117203 31.9348684 41.49990261
-228.885668 1.298733398 47.49990261
-1.297681999 -2.460197743e-05 -47.45323239
-208.909562 -2.460197743e-05 15.84816061
-156.031775 -2.460197743e-05 27.78182361
-0.0002729992684 90.8553804 -39.66111739
-238.577207 -2.460197743e-05 3.722207614
-220.911843 4.166742398 41.49990261
-0.0002729992684 90.0760364 -26.86859139
-65.458283 12.7418984 47.49990261
-116.618841 -1.895169602 47.49990261
-223.821309 56.5726614 47.49990261
-72.278034 64.7426934 47.49990261
-0.0002729992684 60.6002264 -3.853404386
-190.717959 -2.460197743e-05 -0.1366093864
-16.158219 57.1025304 41.49990261
-166.579108 44.1899094 41.49990261
-168.242641 67.9999754 46.44680061
-103.24407 42.8558954 47.49990261
-15.976061 -2.272141602 41.49990261
-145.008788 60.5484804 41.49990261
-60.523497 -2.460197743e-05 6.807229614
-208.360479 54.1244334 41.49990261
-196.599798 3.603930398 47.49990261
-191.507857 -2.460197743e-05 -10.02959739
-34.139673 -2.460197743e-05 11.70671561
-76.260665 25.2477254 47.49990261
-171.371628 -2.460197743e-05 -40.05264939
-12.809556 15.6907324 41.49990261
-168.29982 -2.460197743e-05 -23.24296739
-199.683033 27.4857584 47.49990261
-10.699678 -2.460197743e-05 -20.20692739
-126.523036 -2.460197743e-05 -34.49000039
-0.0002729992684 31.8351594 -17.53206439
-150.530541 5.203183398 47.49990261
-122.848204 -2.460197743e-05 -2.287622386
-136.660046 21.2835374 41.49990261
-107.638838 -2.460197743e-05 38.02342961
-229.304913 53.2656134 41.49990261
-40.600494 45.2594464 47.49990261
-172.493152 -2.460197743e-05 17.92033161
-142.840561 21.6561434 47.49990261
-195.843758 44.3171824 47.49990261
-232.376526 23.5681714 47.49990261
-54.440238 4.472781398 41.49990261
-141.995146 -2.460197743e-05 -38.62200039
-15.82383 -2.460197743e-05 -39.50655939
-222.471516 43.6483764 41.49990261
-241.524472 24.1346254 41.49990261
-247.579933 37.1537724 47.49990261
-5.550986999 12.7595634 41.49990261
-0.0002729992684 0.894514398 1.137644614
-50.00701 59.2245604 41.49990261
-78.10052 -0.176206602 47.49990261
-204.835597 12.6074684 41.49990261
-182.842951 -2.435119602 47.49990261
-0.0002729992684 74.8522094 -17.84947939
-164.31606 57.2030874 41.49990261
-72.503327 19.4860854 41.49990261
-98.930746 37.0189924 47.49990261
-150.314602 36.8169874 41.49990261
-6.815835999 37.4653134 41.49990261
-12.445379 27.0199324 41.49990261
-194.958852 -2.460197743e-05 17.07365361
-180.302854 57.6997914 47.49990261
-0.0002729992684 20.1473244 1.369476614
-209.713349 22.5272544 41.49990261
-211.255189 -0.01582360198 41.49990261
0.4884510007 1.924887398 -28.62470639
-46.988918 -1.654248602 47.49990261
-87.499541 -2.460197743e-05 -41.82934839
-163.795714 26.9492074 41.49990261
-235.65767 15.7860164 47.49990261
-0.0002729992684 62.0431774 -10.84675939
-212.784405 41.8330734 47.49990261
-175.928115 64.5876564 47.49990261
-123.75703 41.8243954 41.49990261
-50.727601 -2.460197743e-05 -23.28209639
-243.893064 -2.460197743e-05 36.69379561
-81.771382 15.2713214 41.49990261
-211.673929 -2.460197743e-05 -39.24621339
-10.93364 -2.460197743e-05 28.49307561
-82.502559 38.7033074 47.49990261
-0.0002729992684 162.5479654 -49.97394839
-29.741002 61.2719854 41.49990261
-127.096414 8.373605398 47.49990261
-103.617873 -2.460197743e-05 5.568807614
-68.48711 -0.619221602 -38.15070939
-31.372736 -2.460197743e-05 -0.1885483864
-22.993787 -2.177174602 41.49990261
-245.925317 -2.490004602 47.49990261
-185.565524 -2.460197743e-05 28.16105661
-113.61776 -2.460197743e-05 27.97247261
-74.027735 -0.668342602 -13.96978239
-246.727168 -2.460197743e-05 -23.08797539
-202.289939 40.7198454 41.49990261
-110.419525 61.3684184 47.49990261
-203.719527 5.179194398 41.49990261
-36.759791 59.9130174 47.49990261
-48.914308 -2.460197743e-05 22.67025061
-117.488166 63.9915974 41.49990261
-0.0002729992684 25.3623484 -38.80712939
-118.947526 28.4247764 47.49990261
-72.853562 -2.460197743e-05 28.42323461
-248.698528 -2.460197743e-05 10.31241061
-226.243938 41.6699144 47.49990261
-37.638066 46.9281224 41.49990261
-113.861088 -2.460197743e-05 18.69803161
-110.238847 18.0883824 47.49990261
-42.829538 -2.460197743e-05 -1.077740386
-221.610757 47.6864694 47.49990261
-97.309008 67.3901444 47.49990261
-0.0002729992684 48.1638504 37.35948261
-168.46363 18.9260964 47.49990261
-39.612321 -2.460197743e-05 -20.65230439
-174.341065 -2.460197743e-05 36.83868961
-170.810631 59.5908294 41.49990261
-82.000056 -2.101942602 41.49990261
-109.114286 -2.460197743e-05 -38.02577339
-180.094048 -2.460197743e-05 32.95094261
-135.310813 -2.460197743e-05 20.19185161
-0.0002729992684 35.7593574 21.34009061
-0.0002729992684 28.2098044 18.19395061
-165.396492 9.898272398 47.49990261
-44.657362 -2.460197743e-05 40.19797761
-183.49079 2.500498398 41.49990261
-236.257732 50.9408424 41.49990261
-31.112612 29.7204034 47.49990261
-152.751101 -2.460197743e-05 -43.19952239
-212.966434 32.0796174 41.49990261
-136.38149 63.4473184 41.49990261
-244.691774 53.1633604 41.49990261
-196.883556 -2.460197743e-05 2.455989614
-178.289472 -2.460197743e-05 -9.401939386
-0.0002729992684 47.4886374 -39.95587939
-0.0002729992684 106.5427124 -25.51445039
-140.685297 -2.460197743e-05 3.876961614
1.747557001 56.9068754 36.58658661
-0.0002729992684 147.3013704 -45.32383839
-106.911521 -2.460197743e-05 30.19679161
-91.380508 2.499167398 47.49990261
-56.126933 35.4520834 47.49990261
-202.10503 16.3423164 47.49990261
-18.388758 36.5429314 47.49990261
-102.351148 57.7032044 41.49990261
-111.804091 42.3559874 47.49990261
-154.10364 -2.460197743e-05 -30.00790839
-185.621533 -2.460197743e-05 4.486712614
-144.146925 34.2859494 41.49990261
-175.884398 -2.460197743e-05 -22.27644239
-131.570972 14.4235004 41.49990261
-80.501256 -2.460197743e-05 -17.47073939
-155.42507 38.1240964 47.49990261
-145.923171 48.1320594 47.49990261
-0.0002729992684 25.4514884 -32.27720639
-166.463133 -2.460197743e-05 -33.77002939
-228.041926 23.2677634 41.49990261
2.374473001 36.2307294 47.49990261
-72.844848 60.8315374 41.49990261
-73.162998 -2.460197743e-05 12.99334561
-59.567337 46.9843734 41.49990261
-14.757597 17.2479904 47.49990261
-248.215512 47.3783014 41.49990261
-178.03204 35.3916144 41.49990261
-212.876154 -2.460197743e-05 -46.84766439
-40.707894 10.8886514 47.49990261
-207.097572 22.7113414 47.49990261
-198.850944 62.9836124 41.49990261
-167.525332 50.8536614 41.49990261
-152.752876 -1.578389602 41.49990261
-147.706481 63.8855434 47.49990261
-64.636089 57.2002194 47.49990261
-154.204326 17.8630514 47.49990261
-0.0002729992684 15.3491244 -6.373177386
-191.763612 -2.460197743e-05 -48.77632539
-44.654701 65.3550524 47.49990261
-237.93651 -2.460197743e-05 -40.06184039
-0.0002729992684 28.2644134 -11.86302239
-0.0002729992684 119.8118844 -29.25001539
-67.783738 50.2863644 41.49990261
-0.0002729992684 47.5028934 11.85961061
-33.471635 -2.460197743e-05 -46.36019839
-235.436501 59.5451624 47.49990261
-83.034244 22.2037124 47.49990261
-143.20237 7.370258398 47.49990261
-234.778277 30.5514034 47.49990261
-121.744006 18.6570894 41.49990261
-46.304593 48.0963774 47.49990261
-152.138494 26.7533594 47.49990261
-79.838751 47.2626844 47.49990261
-149.656378 -2.460197743e-05 -17.86815939
-205.853371 -2.460197743e-05 10.26605861
-178.666323 48.9068104 41.49990261
-35.457554 39.0705674 41.49990261
-194.496073 45.8196844 41.49990261
-0.0002729992684 22.0033794 15.18677361
-211.841015 -2.460197743e-05 4.322651614
-215.950609 52.4041204 41.49990261
-0.0002729992684 40.0654384 34.52964061
-0.0002729992684 65.9672354 -43.21325139
-109.566619 10.8472014 41.49990261
-238.145271 46.4221474 47.49990261
-137.031462 50.3856104 41.49990261
-160.964613 -2.460197743e-05 10.63950661
-251.53153 65.4689204 47.49990261
-245.930012 -2.460197743e-05 21.64199961
-55.721 -2.460197743e-05 -36.71254539
-79.550828 52.6915624 41.49990261
-55.527273 26.6171514 41.49990261
-2.967979999 -2.460197743e-05 -18.02227139
-21.161911 5.927239398 47.49990261
-245.546658 -2.460197743e-05 -50.23438739
-0.0002729992684 33.2596144 -4.701041386
-9.020477999 6.410734398 47.49990261
-0.0002729992684 56.4132594 -16.50009139
-195.196692 33.0472654 41.49990261
-90.453809 33.2393564 41.49990261
-45.841426 -2.460197743e-05 -37.73304039
-0.0002729992684 35.9397414 -26.73854839
-247.950727 15.5408354 47.49990261
-150.4721 -2.460197743e-05 -4.925661386
-123.265569 2.520240398 41.49990261
-64.418965 33.4687344 41.49990261
-126.093093 44.7431824 47.49990261
-221.016357 64.0729174 41.49990261
-5.272438999 -2.460197743e-05 -7.319181386
-176.980742 58.1275924 41.49990261
-96.155064 18.2466344 41.49990261
-0.0002729992684 5.529355398 -3.289375386
-59.495275 11.5217104 47.49990261
-41.295628 24.2034794 47.49990261
-61.384197 66.3331074 41.49990261
-164.028516 3.233035398 41.49990261
-28.282321 47.9127694 41.49990261
-0.0002729992684 22.2449044 -10.07982339
-193.874347 -2.460197743e-05 -16.43893239
-247.924345 13.8947654 41.49990261
-32.770517 21.0281674 41.49990261
-115.419367 22.1157344 41.49990261
-104.114057 9.024453398 47.49990261
-114.297875 -2.460197743e-05 12.65820861
-48.243505 41.6004704 41.49990261
-128.96103 64.0746014 47.49990261
-211.056441 51.4369214 47.49990261
-242.291186 61.9995944 47.49990261
-63.118382 15.6421244 41.49990261
-0.0002729992684 141.4607494 -36.70985039
-171.111055 25.2794644 41.49990261
-78.976008 61.4425654 41.49990261
-40.581029 34.9666354 41.49990261
-89.655743 22.9737834 41.49990261
-26.837655 34.1019904 47.49990261
-116.987413 -2.460197743e-05 -14.13496239
-76.338221 28.0639184 41.49990261
-27.962345 16.2721644 41.49990261
-37.281952 31.6449234 47.49990261
-199.259878 -2.460197743e-05 26.66855661
-222.097539 29.5094654 47.49990261
-109.799249 -2.460197743e-05 0.8828736136
-237.422979 3.692193398 41.49990261
-124.863212 -2.460197743e-05 22.85257661
-0.0002729992684 55.3255594 -30.01921039
-159.714191 -2.460197743e-05 -0.2698823864
-111.613837 -2.460197743e-05 -21.98681539
-217.859388 -0.954708602 41.49990261
-122.976219 12.6698854 47.49990261
-242.454799 19.5888264 47.49990261
-41.049983 -1.824210602 47.49990261
-0.0002729992684 75.3888604 -33.38317739
-218.411716 23.3868954 47.49990261
-0.0002729992684 128.5339894 -46.28968039
-66.594028 -2.460197743e-05 3.211767614
-0.0002729992684 10.5254614 4.971329614
-0.0002729992684 159.3348894 -37.72743639
-0.0002729992684 84.4309354 -31.54919339
-237.916523 63.3916464 41.49990261
0.5627570007 -2.460197743e-05 -41.87167439
-230.053428 65.0314614 41.49990261
-0.0002729992684 44.9874574 -24.70318139
-3.111007999 34.1132404 47.49990261
-41.088606 -2.460197743e-05 -8.504172386
-85.282266 29.9342204 41.49990261
-0.0002729992684 12.4712324 -12.28570639
-0.0002729992684 18.6719724 -21.24368539
-215.741805 6.382432398 47.49990261
-245.843136 34.9651534 41.49990261
-0.0002729992684 114.9596864 -35.54901739
-0.0002729992684 99.4248204 -44.10002739
-188.025858 33.6797144 47.49990261
-191.286591 11.0293214 41.49990261
-228.24199 -2.460197743e-05 9.555100614
-125.243337 29.2480134 41.49990261
-0.0002729992684 153.5508424 -37.53092839
-99.711839 52.5594054 41.49990261
-40.345309 39.4879954 47.49990261
-148.04097 19.1524644 47.49990261
-0.0002729992684 60.0895044 -45.49725539
-188.895299 -0.372325602 41.49990261
-236.787963 -2.460197743e-05 -16.80102239
-186.374104 -2.460197743e-05 -28.00196639
-67.955317 6.495937398 41.49990261
-209.206866 31.3939804 47.49990261
-83.077823 67.8870854 41.49990261
-0.0002729992684 5.300375398 10.74655361
-147.059411 -2.460197743e-05 -42.92076539
-220.214828 27.2362444 41.49990261
-148.333183 42.1514004 41.49990261
-0.0002729992684 16.0408754 25.40380061
1.341310001 19.2227624 -37.00195439
-232.783085 45.4703934 41.49990261
-0.0002729992684 85.0874014 -15.30318939
-128.311017 15.0477984 47.49990261
-118.672222 -2.460197743e-05 -39.63753539
-226.979753 -2.460197743e-05 -37.11261939
-0.0002729992684 40.3973024 27.49941561
-107.718562 -2.460197743e-05 19.03007961
-0.0002729992684 108.0872124 -40.49919839
-202.43052 -2.460197743e-05 -5.167338386
-148.367798 28.7274934 41.49990261
-176.661433 32.8237744 47.49990261
-91.668681 8.117335398 47.49990261
-0.0002729992684 18.0826524 -14.36553039
-0.0002729992684 62.1466144 5.606048614
-51.141266 -2.460197743e-05 -0.6447413864
-23.849954 39.1746084 41.49990261
-101.892828 14.1731874 47.49990261
-30.113597 15.0565714 47.49990261
-246.00555 -2.460197743e-05 3.337408614
-203.547293 -2.460197743e-05 -24.35362239
-0.0002729992684 56.2787774 -0.3099753864
-158.767311 57.8292434 41.49990261
-108.291868 -2.460197743e-05 -30.89801439
-139.100012 59.9510584 47.49990261
-73.899144 45.8943824 47.49990261
-46.707672 67.9394324 41.49990261
-10.233732 -2.460197743e-05 1.240605614
-0.0002729992684 50.4393474 -21.44052739
-30.754217 -2.460197743e-05 -20.15771239
-184.333424 45.3679224 47.49990261
-5.921538999 31.9984704 41.49990261
-119.562226 57.6103814 41.49990261
-0.0002729992684 115.7788804 -43.07610839
-35.873787 -2.460197743e-05 -31.34303439
-35.245735 17.5710774 47.49990261
-38.911781 17.2137434 41.49990261
-199.912578 24.3439454 41.49990261
-0.0002729992684 53.5310224 32.55374161
-0.0002729992684 29.6874094 -47.44008839
-47.292716 -2.460197743e-05 7.977494614
-0.0002729992684 34.7291664 -12.86468139
-0.0002729992684 93.2374214 -19.15515139
-10.951837 43.6322694 47.49990261
-90.63025 14.0718084 47.49990261
-218.972876 -2.460197743e-05 9.212131614
-152.833787 48.4576344 47.49990261
-0.0002729992684 105.0949974 -30.78432139
-20.40542 60.5407114 41.49990261
-95.924702 32.9477344 41.49990261
-176.990312 -2.460197743e-05 -33.72402639
-217.970357 34.5303584 47.49990261
-242.764239 67.9999754 41.82830161
-0.0002729992684 14.6193934 8.679329614
-90.513309 -2.460197743e-05 -29.94103439
-0.0002729992684 41.8187294 14.11721161
-149.264142 58.6769614 47.49990261
-31.420796 4.042287398 47.49990261
-194.041659 -2.460197743e-05 -22.07694139
-0.0002729992684 22.5444844 35.81551161
-235.344009 -2.460197743e-05 -46.66031339
-0.0002729992684 9.927992398 -29.41767239
-210.053936 -2.460197743e-05 34.83689961
-0.0002729992684 51.2798244 -11.83402539
-149.89853 -2.460197743e-05 33.53386461
-218.003147 38.0513724 41.49990261
-14.574368 21.0519814 41.49990261
-0.0002729992684 25.6273884 -0.03071438638
-245.491867 48.6105444 47.49990261
-64.919643 63.1646814 47.49990261
-161.718328 10.8237154 41.49990261
-0.0002729992684 37.7760934 -8.365044386
-0.0002729992684 82.2435594 -45.10457739
-173.829505 21.1471684 47.49990261
-63.636589 21.9148934 47.49990261
-29.878437 -2.460197743e-05 -12.50429039
-0.0002729992684 30.9986404 23.78035261
-111.340427 0.569618398 47.49990261
-82.392978 8.090851398 41.49990261
-206.939138 -2.460197743e-05 -17.92961539
-0.0002729992684 132.4157624 -39.39847039
-37.391304 67.9999754 45.26480861
-0.0002729992684 44.6772484 31.87082061
-32.573648 33.4736254 41.49990261
-54.743806 11.3411684 41.49990261
-0.0002729992684 7.130711398 -11.68649139
-0.0002729992684 96.6371644 -35.91852339
-86.454512 -2.460197743e-05 9.200307614
-83.009256 51.5144754 47.49990261
-150.898976 -2.215251602 15.99101361
-0.0002729992684 119.8535764 -39.48748239
-174.657632 9.775471398 41.49990261
-191.276319 41.6684774 47.49990261
-153.560887 22.7440524 41.49990261
-0.0002729992684 133.8018074 -31.12165239
-0.0002729992684 44.5004714 -18.57946039
-82.282677 -2.460197743e-05 -36.74831039
-9.798918999 -2.460197743e-05 -25.37567039
-234.361706 37.8081624 41.49990261
-231.677368 53.2711764 47.49990261
-94.658954 59.1507674 47.49990261
-71.671777 67.9999754 42.07814761
-225.43424 -2.460197743e-05 20.57957661
-0.0002729992684 35.2439564 -21.57257639
-32.037681 2.516750398 41.49990261
-0.0002729992684 35.1665784 9.537816614
-69.68964 6.188098398 47.49990261
-64.444369 60.6448904 41.49990261
-218.075948 -2.460197743e-05 -12.60704639
-102.107877 -2.460197743e-05 -6.515227386
-52.441211 3.125597398 47.49990261
-157.88931 64.6642634 41.49990261
-2.726076999 -2.460197743e-05 9.273828614
-79.707858 12.5134404 47.49990261
-0.0002729992684 149.3379644 -33.75605939
-214.490853 -2.460197743e-05 20.40291961
-76.789056 19.8592384 47.49990261
-19.739544 -2.460197743e-05 -17.17386039
-0.0002729992684 58.5604374 -37.81457639
-118.06792 6.173587398 47.49990261
-0.0002729992684 72.5761464 -37.89099439
-0.0002729992684 140.0624374 -45.16347339
-187.052698 8.011007398 41.49990261
-94.344165 64.1111004 41.49990261
-127.981116 64.0621994 41.49990261
-45.856033 53.9052884 47.49990261
-110.487247 32.4995954 41.49990261
-92.931242 -0.630974602 41.49990261
-95.851271 13.1569814 41.49990261
-0.0002729992684 37.2951964 38.84644761
-113.953457 -2.460197743e-05 6.394085614
-0.0002729992684 46.0149914 16.97684661
-0.0002729992684 50.4078434 -28.26623139
-0.0002729992684 27.8344434 -26.32533839
-0.0002729992684 161.3584654 -42.46425439
-0.0002729992684 100.4267454 -27.16996839
-226.82449 50.0848414 47.49990261
-147.11317 40.3675824 47.49990261
-118.671038 52.3949254 47.49990261
-232.217781 60.2577824 41.49990261
-98.267576 -2.460197743e-05 21.84008961
-0.0002729992684 48.4996254 4.523103614
-244.242569 31.9861184 47.49990261
-103.904847 -2.460197743e-05 10.59326961
-154.597981 39.4544774 41.49990261
-0.0002729992684 60.4635084 -20.65433739
-0.0002729992684 80.2850224 -12.60413639
-0.0002729992684 55.4374704 -47.35245739
-0.0002729992684 29.2989534 -41.88336339
-78.877105 42.3720044 47.49990261
-236.347756 7.928821398 47.49990261
-0.0002729992684 157.9194904 -47.41736939
-0.0002729992684 21.5642564 -4.732004386
-18.406166 13.4104494 47.49990261
-54.6261 28.9540554 47.49990261
-153.363817 55.9114554 47.49990261
-33.708178 41.9076264 47.49990261
-146.569464 2.268282398 47.49990261
-36.328962 4.943357398 41.49990261
-150.419085 2.760846398 41.49990261
1.108952001 0.499975398 -4.462606386
-215.356454 -2.460197743e-05 -26.10333239
-203.965979 34.6682584 41.49990261
-190.700167 64.8809054 47.49990261
-224.089471 34.9002914 41.49990261
-11.977477 43.1875004 41.49990261
-161.403421 19.7372924 41.49990261
-79.265706 39.1642374 41.49990261
-0.0002729992684 59.8011234 28.31067061
-0.0002729992684 7.004573398 -19.56107639
-49.242093 -2.460197743e-05 35.07010761
-167.950191 31.8445224 41.49990261
-0.0002729992684 45.7505784 -34.89647939
-0.0002729992684 79.4513604 -19.42289139
-0.0002729992684 53.9652914 24.35769461
-133.946291 -1.496963602 41.49990261
-23.553592 53.6075954 47.49990261
-187.220656 17.5835464 41.49990261
-183.124888 50.7892764 41.49990261
-231.035007 62.5266774 47.49990261
-71.011137 0.734292398 41.49990261
-212.824892 5.621081398 41.49990261
-157.963613 28.3956954 47.49990261
-0.0002729992684 52.2058294 -38.33970539
-233.687939 12.4702974 41.49990261
-0.0002729992684 18.2779564 12.14156061
-100.49059 18.7747704 47.49990261
0.7234640007 103.6909694 -21.71251639
-0.0002729992684 70.7834114 -25.69438639
-193.899312 -2.460197743e-05 -32.74706039
-27.689498 -1.265739602 41.49990261
-242.787115 38.1824424 47.49990261
-215.898262 25.1987814 41.49990261
-0.0002729992684 113.1605694 -30.41352539
-47.165892 11.6947084 47.49990261
-121.465969 -2.460197743e-05 -15.71967739
-241.187167 -2.460197743e-05 -7.492260386
-0.0002729992684 138.1582964 -40.11314539
-0.0002729992684 64.7500524 -33.35957939
-0.0002729992684 27.0207044 34.28052061
-64.696401 22.9830334 41.49990261
-11.34132 -2.460197743e-05 -5.365809386
-59.907908 -2.460197743e-05 -5.549749386
-129.56209 57.0001144 47.49990261
-0.0002729992684 128.3728394 -32.75902039
-0.0002729992684 67.7894324 -38.19584539
-183.363677 16.1556414 47.49990261
-208.006594 64.4648684 41.49990261
-5.166732999 7.538597398 41.49990261
-101.832158 24.3270314 41.49990261
-0.0002729992684 1.609927398 5.821114614
-56.630735 -2.460197743e-05 -32.11943039
-234.57052 -2.460197743e-05 41.16127661
-138.271283 20.6709614 47.49990261
-199.191783 -2.460197743e-05 -40.26028639
-0.0002729992684 119.8273354 -46.90222139
-0.0002729992684 40.2871584 -47.94689339
-175.987033 66.5975634 41.49990261
-0.0002729992684 7.971465398 0.6753766136
-0.0002729992684 8.983716398 16.84084061
-0.0002729992684 63.8427574 12.88657061
-80.362568 -2.460197743e-05 -26.02411639
-87.135031 -2.460197743e-05 35.14663861
-0.0002729992684 76.6989754 -8.556192386
-54.807603 17.1711654 47.49990261
-212.544699 65.9343664 47.49990261
-0.0002729992684 28.3643054 6.823172614
-143.515916 61.3677554 47.49990261
-0.0002729992684 34.6647114 -0.2830933864
-235.513389 -2.460197743e-05 -21.67270539
-105.473522 54.2816964 41.49990261
-0.0002729992684 61.2244334 20.29269161
-127.053522 -2.460197743e-05 9.902359614
-163.026643 -2.460197743e-05 29.15181561
-0.0002729992684 35.2250104 -32.85463339
-0.0002729992684 22.3102714 -18.38295439
-0.0002729992684 127.8151034 -41.73996739
-0.0002729992684 70.7749964 -42.56692739
-0.0002729992684 26.5324434 22.48239561
-0.0002729992684 50.6738464 15.18754961
-0.0002729992684 38.4453394 3.731659614
-0.0002729992684 17.1325184 34.64340661
-104.335617 7.846268398 41.49990261
-18.342556 48.5314614 41.49990261
-129.332122 -2.460197743e-05 -15.85828539
-130.807608 -2.460197743e-05 20.99423561
-199.845293 0.755390398 41.49990261
-196.528324 16.2215014 41.49990261
-0.0002729992684 51.5544364 -44.30582639
-0.0002729992684 91.1461634 -31.30746239
-50.195212 60.4398744 47.49990261
-191.090033 -2.460197743e-05 -37.33090139
-0.0002729992684 79.0880404 -40.31563839
-29.288809 27.4903994 41.49990261
-157.080399 -2.460197743e-05 13.00636161
-0.0002729992684 70.9160224 -15.59760939
-0.0002729992684 29.9300554 -30.34124839
-0.0002729992684 73.8444574 -22.36582739
-0.0002729992684 79.9561634 -30.90181339
-119.454163 17.6985494 47.49990261
-142.257808 -2.460197743e-05 -46.49307939
-56.160628 67.6055334 47.49990261
-93.377415 -2.460197743e-05 19.31307761
-0.0002729992684 86.6285414 -38.01045139
-118.184106 -2.460197743e-05 8.120492614
-67.765232 -2.460197743e-05 36.54924161
-122.831729 32.5801224 47.49990261
-124.287868 -2.460197743e-05 -46.78749039
-116.11752 -2.460197743e-05 -47.05516239
-55.067815 -2.460197743e-05 31.47567461
-0.0002729992684 39.5220934 17.95868461
-0.0002729992684 33.6553594 34.48680761
-183.802095 -2.460197743e-05 -24.35635239
-218.452418 15.8618214 41.49990261
-13.935786 -2.460197743e-05 38.25334561
-224.695285 -2.460197743e-05 -26.52382839
-236.545328 20.1509394 47.49990261
-14.775706 2.965091398 41.49990261
-136.965534 -2.460197743e-05 34.23661761
-15.061354 -2.460197743e-05 -19.34955839
-0.0002729992684 151.5265574 -41.47289639
-30.425236 -2.460197743e-05 -29.05065139
0.5567780007 0.499975398 -12.47034639
-68.299123 -2.460197743e-05 -33.78804239
-0.0002729992684 88.9552614 -18.11682639
-82.87066 19.5372764 41.49990261
-0.0002729992684 71.3186114 -4.575901386
-50.199 3.282250398 41.49990261
-68.261512 -2.460197743e-05 14.58675261
-138.606136 2.222439398 47.49990261
-0.0002729992684 143.9048144 -31.61436539
-25.193231 -2.460197743e-05 15.47411861
-0.0002729992684 59.6876204 9.230544614
-0.0002729992684 66.7775104 -3.166377386
-168.512674 14.5546784 47.49990261
-59.849007 -2.460197743e-05 0.07675161362
-0.0002729992684 15.9464934 -27.79206039
-15.923523 66.0748484 41.49990261
-226.61147 7.006719398 47.49990261
-136.091403 -2.460197743e-05 8.988321614
-138.60785 -2.460197743e-05 -31.62590539
-194.89928 11.2328194 47.49990261
-56.334165 21.3053854 47.49990261
-142.005336 25.9205364 47.49990261
-204.94172 51.4434254 41.49990261
-0.0002729992684 26.7979654 29.47628861
-40.802278 28.0360704 41.49990261
-137.736694 41.4925484 41.49990261
-177.746765 -2.460197743e-05 -5.099860386
-39.182498 -2.460197743e-05 -40.98538339
-17.507499 -2.460197743e-05 -45.37221639
-4.462159999 2.693402398 41.49990261
-183.116427 -2.460197743e-05 -39.24721839
-236.667182 63.6944064 47.49990261
-223.948697 56.9321974 41.49990261
-176.745377 12.9161674 47.49990261
-76.394639 17.6611514 41.49990261
-75.235527 31.9059494 47.49990261
0.7447240007 4.225809398 41.49990261
-33.784237 -2.460197743e-05 17.54864761
-206.641792 -2.460197743e-05 22.47076261
-76.139634 -2.460197743e-05 -31.18549739
-7.847434999 28.5275224 47.49990261
-248.273149 3.701051398 41.49990261
-126.675864 8.482488398 41.49990261
-46.289667 -2.460197743e-05 -31.24631339
-15.508677 48.1978644 47.49990261
-238.144071 -2.460197743e-05 37.90120861
-110.257235 -2.460197743e-05 -46.01346539
-22.408238 -2.460197743e-05 11.29398361
-23.884335 20.2777944 47.49990261
-72.612443 53.1877844 47.49990261
-55.361687 47.0894084 41.49990261
-103.641084 43.3451124 41.49990261
-44.315795 5.903140398 47.49990261
-209.099655 11.5777754 41.49990261
-57.348923 -2.460197743e-05 24.19881661
-175.842095 24.2883454 41.49990261
-157.547452 9.036235398 47.49990261
-232.95321 23.9228954 41.49990261
-11.840704 -2.460197743e-05 24.41209661
-177.339275 1.641547398 41.49990261
-129.610098 25.3910684 47.49990261
-86.07593 3.078294398 41.49990261
-158.097039 -2.460197743e-05 22.16323161
-172.074541 -2.460197743e-05 -26.47275239
-194.615564 59.3244034 41.49990261
-134.797621 59.6246454 41.49990261
-77.691226 -2.460197743e-05 18.87960161
-194.224152 -2.460197743e-05 25.30513761
-167.144504 24.1486144 41.49990261
-134.29146 48.8710364 47.49990261
-147.889185 54.4845044 41.49990261
-172.94025 -2.460197743e-05 40.70994361
-186.909351 66.9033304 41.49990261
-111.087188 5.395892398 47.49990261
-98.439008 58.8586184 41.49990261
-5.865130999 45.7646624 47.49990261
-100.866344 -2.460197743e-05 18.70904761
-133.344373 52.0792794 41.49990261
-135.4551 -2.460197743e-05 3.188351614
-16.1325 -2.460197743e-05 6.978641614
-55.894695 -2.460197743e-05 40.08674361
-210.931808 27.7334094 47.49990261
-150.563729 7.742642398 41.49990261
-140.122066 66.7328174 47.49990261
-24.689933 1.380209398 47.49990261
1.276065001 32.0072894 41.49990261
-101.09227 -2.414988602 47.49990261
-163.374003 41.7636674 41.49990261
-23.355954 -2.460197743e-05 30.18194461
-252.049288 -2.460197743e-05 -13.69873139
-170.470339 -2.460197743e-05 12.94241861
-214.75965 36.9140444 47.49990261
-166.170871 39.8264544 47.49990261
-75.094188 50.7940294 41.49990261
-18.379461 59.7835114 47.49990261
-204.566226 37.5879694 47.49990261
-125.986608 -2.460197743e-05 29.51901361
-220.328739 54.4719144 47.49990261
-53.783763 43.8137004 47.49990261
-4.252000999 -2.460197743e-05 38.41200461
-230.558679 67.9999754 44.08299361
-181.267426 1.203815398 47.49990261
-115.012682 67.0886624 41.49990261
-220.585134 67.9999754 41.78947261
-182.105101 -2.460197743e-05 -8.061851386
-36.670436 5.762422398 47.49990261
-162.004195 28.2318204 47.49990261
-215.546724 -2.460197743e-05 6.548920614
-90.66487 -2.460197743e-05 -1.704595386
-185.572507 10.7812484 47.49990261
-74.616564 -2.460197743e-05 31.92037861
-125.798231 49.1265284 41.49990261
-53.384953 12.0766694 47.49990261
-32.363066 54.0701314 41.49990261
-135.662662 -2.460197743e-05 24.06995561
-63.169274 -2.460197743e-05 38.47674361
-191.912483 42.5061964 41.49990261
-143.789899 -2.460197743e-05 28.01999261
-195.495253 64.8443744 41.49990261
-248.015331 -2.460197743e-05 -8.589895386
-226.337796 -1.902507602 41.49990261
-168.971813 -2.460197743e-05 -28.70397739
-129.301031 30.7924494 41.49990261
-237.766362 24.7307464 41.49990261
-54.049286 -2.460197743e-05 -3.438376386
-121.858139 -2.460197743e-05 -23.09121239
-16.826596 61.7646904 41.49990261
-185.608541 30.7729834 47.49990261
-174.946377 24.7559494 47.49990261
-0.0002729992684 2.918094398 22.56889461
-18.980687 -2.460197743e-05 -0.6587253864
-7.328094999 -2.460197743e-05 -35.75707839
-29.657243 65.0193324 47.49990261
-209.156276 50.4724514 41.49990261
-248.912832 42.0998254 47.49990261
-79.618914 -2.460197743e-05 38.13884561
-194.465938 19.5904164 41.49990261
-20.957363 1.677595398 41.49990261
-66.837502 -2.460197743e-05 -3.950227386
-239.455363 67.9999754 45.94877261
-115.011607 -2.460197743e-05 -38.96331039
-63.13962 -2.460197743e-05 -21.85936539
-63.587788 -2.460197743e-05 -39.05751239
-184.811472 58.7161604 47.49990261
-227.206974 1.703434398 41.49990261
-33.741922 -2.300370602 41.49990261
-242.652711 -2.460197743e-05 23.46807161
-220.224737 -2.460197743e-05 -19.59335639
-234.81969 44.8282274 47.49990261
-216.641784 0.998116398 47.49990261
-98.569545 -2.460197743e-05 -40.81174839
-124.320055 64.2707594 41.49990261
-239.429134 52.7811384 41.49990261
-250.509063 29.3561004 41.49990261
-116.168071 26.0479774 47.49990261
-231.578679 56.1262864 41.49990261
-249.403158 33.9894474 47.49990261
-148.29173 8.084789398 47.49990261
-164.366096 57.9585644 47.49990261
-60.344856 55.7296094 47.49990261
-53.959163 -2.460197743e-05 22.89318561
-86.67118 -2.460197743e-05 -31.14877439
-63.773951 -2.460197743e-05 11.37777761
-171.280859 -2.460197743e-05 24.47867961
-187.600073 56.6479914 41.49990261
-111.180283 21.5753154 47.49990261
-189.962609 67.9999754 45.84061761
-178.170371 54.7221464 41.49990261
-119.605052 65.7500784 47.49990261
-78.583679 56.1553874 41.49990261
-10.690728 50.9941614 41.49990261
0.1518060007 52.6932114 39.24681061
-183.668673 16.0113244 41.49990261
-173.535163 0.621676398 47.49990261
-42.049118 -2.460197743e-05 -24.99784839
-100.999317 -2.460197743e-05 -3.114428386
-3.303886999 -2.460197743e-05 2.176624614
-207.70822 19.5680624 41.49990261
-29.200244 67.9999754 42.70963861
-61.105584 59.3829794 41.49990261
-164.318907 -2.460197743e-05 -46.03943639
-67.610584 65.4889934 47.49990261
-129.00255 -2.460197743e-05 -8.621714386
-31.049617 -2.460197743e-05 -24.42012739
-210.862222 66.5333474 41.49990261
-248.992144 -2.460197743e-05 -49.53740539
-67.798952 -2.460197743e-05 6.504619614
-136.871293 -2.460197743e-05 40.30675561
-230.690083 -2.460197743e-05 -9.084522386
-123.424315 33.0566114 41.49990261
-23.780633 -1.973449602 47.49990261
-57.755454 5.502724398 41.49990261
-48.514949 -2.460197743e-05 -4.476343386
-87.558025 67.9999754 42.82218661
-136.625821 62.3792964 47.49990261
-59.930887 62.7072154 47.49990261
-213.952841 18.7146194 41.49990261
-126.235021 -2.460197743e-05 26.08357961
-87.081825 38.3905174 41.49990261
-173.533703 61.6929924 41.49990261
-169.490273 64.9782164 47.49990261
-207.950263 -2.460197743e-05 19.29895661
-132.039094 -2.460197743e-05 3.494667614
-86.537597 -2.374046602 41.49990261
-137.084111 -2.460197743e-05 12.25983361
-208.110174 14.8445354 41.49990261
-20.373555 52.3680534 47.49990261
-103.487218 64.9743354 41.49990261
-90.227759 -2.460197743e-05 -38.76827839
-21.994972 59.2967694 47.49990261
-213.965859 21.0603134 47.49990261
-204.508535 64.2432394 41.49990261
-127.798768 27.0143384 41.49990261
-220.728313 26.4065754 47.49990261
-149.406289 -2.460197743e-05 -46.20651539
-0.7980649993 -2.460197743e-05 -38.48047539
-1.895575999 44.4666444 41.49990261
-62.982518 8.921459398 41.49990261
-74.12846 2.205820398 47.49990261
-186.980896 -2.460197743e-05 25.10569761
-25.473205 14.2091434 47.49990261
-169.401304 21.6758374 41.49990261
-83.747016 -2.460197743e-05 -25.03264439
-169.031779 33.0799004 47.49990261
-148.304799 37.2597994 47.49990261
-79.922569 -2.460197743e-05 0.9799446136
-166.538715 17.8937294 41.49990261
-74.968077 21.7047034 41.49990261
-21.209126 32.7790454 41.49990261
-102.859951 -2.460197743e-05 -20.64485439
-182.032449 -2.204080602 41.49990261
-116.834151 49.7489094 41.49990261
-75.667034 55.6375184 47.49990261
-82.514172 38.7428044 41.49990261
-52.166516 19.1022814 47.49990261
-27.512296 -2.460197743e-05 33.50003461
-242.158041 51.0023784 41.49990261
-240.740913 65.4422974 47.49990261
-132.823427 -2.460197743e-05 33.71876361
-90.98122 60.6329634 41.49990261
-249.964212 -2.460197743e-05 19.61250561
-18.191466 -2.460197743e-05 10.56708161
-54.042514 -2.460197743e-05 -41.27807439
-44.896804 27.0434344 41.49990261
-87.580974 -2.460197743e-05 -34.39203839
-46.655665 -2.460197743e-05 -40.83493539
-23.41245 -2.460197743e-05 23.24046561
-68.000209 10.8001084 47.49990261
-54.173356 -2.460197743e-05 0.3456736136
-151.529615 33.8850324 41.49990261
-191.222634 -2.460197743e-05 4.514090614
-5.711955999 15.9284104 41.49990261
-59.450253 8.353201398 47.49990261
-147.361713 -2.460197743e-05 24.36329261
-41.941157 -2.460197743e-05 -18.52136839
-41.932633 0.880897398 41.49990261
-159.024255 60.5234554 47.49990261
-10.370246 29.3683354 41.49990261
-135.305208 24.1080194 41.49990261
-49.222101 42.8307704 47.49990261
-216.663715 35.2298534 41.49990261
-250.315163 19.5592774 47.49990261
-57.144412 -2.460197743e-05 35.33057861
-116.221387 18.5460254 47.49990261
-131.269476 -2.460197743e-05 39.14430661
-141.362127 -2.460197743e-05 0.8668636136
-168.293038 53.8362264 41.49990261
-11.285088 16.7015414 47.49990261
-46.605815 37.8924964 47.49990261
-158.366666 -2.460197743e-05 -38.91361439
-166.19191 5.389983398 41.49990261
-125.583121 11.0199054 47.49990261
-38.896672 -2.460197743e-05 -17.68985039
-35.355073 32.2680894 41.49990261
-77.93059 49.6161014 47.49990261
-247.676858 50.7015754 47.49990261
-2.465096999 -2.460197743e-05 -8.414755386
-139.970248 -2.460197743e-05 16.36560361
-150.956362 2.233425398 47.49990261
-52.43196 -2.460197743e-05 20.03313361
-246.076273 -2.460197743e-05 8.875672614
-15.112576 23.9854534 41.49990261
-220.024193 7.494500398 47.49990261
-167.273116 -2.460197743e-05 -36.62460439
-173.02121 64.0314124 47.49990261
-101.849019 37.4919614 47.49990261
-131.422626 28.7349454 41.49990261
-123.061641 49.2299794 47.49990261
-184.400319 9.654920398 41.49990261
-53.860961 18.6762404 41.49990261
-228.649918 62.4612664 41.49990261
-99.882679 27.8469124 47.49990261
-86.422768 -2.460197743e-05 -19.22945739
-112.270165 67.9999754 41.90141361
-71.708924 -2.460197743e-05 32.09983961
-222.45882 29.0923674 41.49990261
-144.627029 9.899712398 47.49990261
-82.633503 14.9873454 47.49990261
-226.057731 47.2901324 47.49990261
-116.393506 17.1921044 41.49990261
-35.310785 -2.460197743e-05 34.15248461
-116.746553 58.2613664 41.49990261
-0.3486699993 33.2781014 47.49990261
-222.595872 9.346619398 47.49990261
-79.06749 67.9999754 43.73066261
-149.146803 55.8067424 47.49990261
-21.857184 -2.460197743e-05 35.78385561
-123.924544 57.1604224 41.49990261
-173.277706 -2.460197743e-05 13.50947761
-67.852757 -2.460197743e-05 -23.35097539
-147.854702 -2.460197743e-05 -3.808978386
-139.199031 22.5581844 41.49990261
-221.51328 12.8362344 47.49990261
-106.530063 67.9999754 42.47988261
-132.271088 -2.460197743e-05 29.52593261
-0.0002729992684 0.759094398 -23.80543039
-249.592872 -2.460197743e-05 14.48436761
-123.072413 25.3656974 47.49990261
-202.65533 23.6829194 41.49990261
-201.464522 -2.460197743e-05 -19.58398039
-223.41527 13.0230954 41.49990261
-191.160604 -2.042595602 41.49990261
-127.217806 -2.460197743e-05 -31.76978039
-62.021604 17.3371044 47.49990261
-169.475031 -2.460197743e-05 -46.92057639
