# .PCD v0.7 - Point Cloud Data file format
VERSION 0.7
FIELDS x y z
SIZE 4 4 4
TYPE F F F
COUNT 1 1 1
WIDTH 1313
HEIGHT 1
VIEWPOINT 0 0 0 1 0 0 0
POINTS 1313
DATA ascii
-63.72406 226.0513375 -101.0000974
-200.25027 248.4148253 -157.0923704
-161.00307 21.8573134 39.68397061
-164.22524 65.1834144 30.69771061
-176.71472 -2.46022023e-05 -62.51170939
-197.25027 122.3619514 -160.6210494
-71.1312 43.6482694 -189.0000974
-15.91491 -2.46022023e-05 103.8215516
-0.0002699995239 26.3355884 -83.60611139
-197.3291 49.9999754 -52.22758539
-251.75746 35.3501774 -195.0000974
-77.16848 67.9999754 119.1947086
-48.09142 187.4787864 -105.0000974
-85.83464 -2.46022023e-05 -16.21748739
-214.65276 110.0824184 -107.0000974
-92.68142 -2.46022023e-05 80.10475161
-245.22315 219.7264248 -107.0000974
-246.20845 1.591260398 -23.37741339
-114.03906 48.3619704 81.76772161
-2.83495 8.766775398 -195.0000974
-145.25429 36.1033244 -195.0000974
-29.41726 -2.46022023e-05 128.6384996
-52.9763 1.637433398 -195.0000974
-102.05309 67.1321954 85.40454161
-135.72614 23.6305974 -165.6023414
-247.25027 178.4306004 -105.8200994
-90.27008 212.2921366 -101.5837604
-83.86753 23.8865724 103.9103716
-200.25027 45.3962154 -144.3837824
-75.09206 -2.46022023e-05 58.10381161
1.18461 49.9999754 -175.7948594
-177.18653 47.2610604 -93.79102539
-90.87519 -2.46022023e-05 -132.1448354
-188.72312 -2.46022023e-05 -138.2806434
-18.25449 50.3316434 -195.0000974
-114.93757 -2.46022023e-05 -46.53996739
-217.66004 8.322649398 -107.0000974
-200.25027 198.1799534 -118.2147014
-23.69697 171.1470824 -104.4156844
-0.0002699995239 20.6629424 -126.9850244
-251.2089 -2.46022023e-05 -152.2286254
-132.97393 52.8655374 53.93916261
-183.87248 15.2889354 2.144242615
-247.25027 5.555997398 -106.6573814
-189.16402 -2.46022023e-05 -31.78497439
-197.25027 33.3832534 -124.5009184
-200.25027 103.0601564 -181.5498544
0.4949700005 -2.46022023e-05 -56.33216339
-18.83443 215.901157 -105.0000974
-178.58378 131.0955934 -195.0000974
-0.0002699995239 43.1877994 -60.97827939
-200.25027 185.1484324 -197.2448024
0.1599500005 49.9999754 -15.65724739
-0.0002699995239 1.496498398 -4.458626385
-169.76625 2.722859398 -96.64314539
-159.49145 23.1378804 -124.4394604
-20.6565 29.3577134 176.7948316
-47.27805 -2.46022023e-05 80.94394361
-0.0002699995239 27.1909554 132.9123656
-118.05503 -2.46022023e-05 -176.8801344
-179.93861 38.1587524 6.147389615
-224.59884 86.6168024 -104.0000974
-159.41826 -2.46022023e-05 -168.8889524
-138.99677 -2.46022023e-05 -5.472981385
-238.75422 51.2266544 -189.0000974
-94.97496 -2.46022023e-05 28.06397261
-19.36293 -2.46022023e-05 11.61031061
-150.25027 159.2843354 -197.7323424
-251.55013 43.9989984 -23.75094139
-0.0002699995239 20.5462924 -34.30834039
-26.48658 -2.46022023e-05 -75.55843539
-208.92537 31.1100234 -189.0000974
-19.72625 -2.46022023e-05 -177.1084514
-0.0002699995239 25.5065244 76.41868761
-0.0002699995239 26.2859794 -170.8006134
-98.63691 -2.46022023e-05 -63.92580939
-155.42645 -2.46022023e-05 -58.63581939
-10.52799 11.4988274 187.1017096
-138.71992 -1.918901602 -189.0000974
-197.25027 101.7406844 -115.1982304
-50.07923 -2.46022023e-05 29.97867661
-116.49471 36.9475094 -195.0000974
-74.72455 17.6165784 121.7745966
-19.02142 -2.46022023e-05 -30.50770539
-200.25027 208.1243464 -157.8011534
-14.29213 -2.46022023e-05 -120.3145134
-197.25027 215.949491 -126.8931734
-13.67389 47.4767684 183.9004086
-49.47187 -2.46022023e-05 -139.5868194
-92.86799 -2.46022023e-05 -88.47619439
-123.84316 -2.46022023e-05 -128.4352384
-46.70697 -2.46022023e-05 -59.82175139
-170.17204 21.9115624 -189.0000974
-197.25027 173.1057754 -172.6431234
-175.45517 -1.204189602 10.70978861
-71.92761 251.0484477 -105.0000974
-227.62064 24.6223774 -28.09227339
-200.25027 225.3126484 -187.3084834
-200.25027 15.3604274 -164.3027444
-104.28699 251.5952692 -101.0000974
-249.14687 -2.46022023e-05 -72.62796539
-200.25027 236.6483357 -116.4603734
-218.54012 48.7296834 -189.0000974
-201.01735 65.7543804 -108.0460774
-200.25027 57.7428014 -176.3232474
-197.25027 152.1156204 -177.7785874
-0.0002699995239 1.786046398 40.08970461
-70.07977 -2.46022023e-05 17.25820261
-198.44853 45.9178184 -106.4204784
-0.0002699995239 39.7709184 -134.9625204
-87.75904 12.5046854 -195.0000974
-250.23706 -2.46022023e-05 -175.9096484
-19.68381 -2.46022023e-05 155.2724776
-71.48602 -2.46022023e-05 100.0361896
-200.25027 79.2103504 -168.0574394
-4.63649 180.1696824 -105.0000974
-211.40881 191.7524314 -104.0000974
-193.56882 -1.606187602 -195.0000974
-50.8793 40.3234504 -195.0000974
-108.02083 15.9285494 88.77627261
-198.95134 17.3834354 -105.9175784
-111.7375 -2.46022023e-05 14.29249261
-207.09671 47.4686994 -12.92876339
-230.24004 -2.46022023e-05 -178.3801414
-50.59595 -2.46022023e-05 132.8910776
-17.3486 19.4251174 -189.0000974
-200.25027 244.5552979 -175.6567784
-12.89945 -2.46022023e-05 -154.2485084
-206.85954 -2.46022023e-05 -23.75912439
-134.47762 52.7176414 -195.0000974
-164.40183 49.9999754 -113.5389544
-200.25027 252.0478846 -131.9857604
-245.61059 19.0009094 -189.0000974
-136.78206 -2.46022023e-05 35.37823861
-197.25027 144.7752394 -111.4969954
-197.25027 171.0046624 -134.4280484
-123.82519 39.9652014 63.24901861
-0.0002699995239 48.9278094 102.7926946
-120.59438 -1.207161602 -195.0000974
-0.0002699995239 39.6023054 -97.32008239
-42.53264 -2.46022023e-05 -175.2062524
-86.74296 41.0024494 109.5445316
-18.1167 -2.46022023e-05 57.45762261
-200.25027 115.8426454 -195.0572194
-192.92018 147.9592624 -195.0000974
-180.43842 85.8891404 -195.0000974
-74.81069 -2.46022023e-05 -33.51554539
-218.26323 210.4512854 -104.0000974
-191.72616 54.7370494 -5.847747385
-150.25027 141.2826464 -197.2601214
-50.61436 204.8285854 -101.0000974
-0.0002699995239 22.7049154 37.10182761
-43.75139 18.6834454 -189.0000974
-190.55967 8.257232398 -70.62726039
-63.47709 -2.46022023e-05 -120.0357814
-228.95274 160.1913544 -104.0000974
-79.19916 27.9205994 -189.0000974
0.6839200005 -2.46022023e-05 66.95496161
-182.5869 0.6254093978 -84.43711839
-197.25027 13.8474894 -130.7507764
-145.13202 36.9901994 55.83462461
-198.15746 17.2638764 -12.39231139
-200.25027 209.4568184 -180.1616464
-79.0203 -2.46022023e-05 -178.2105014
-29.30988 -2.46022023e-05 -135.5751204
-37.03837 48.8426084 -189.0000974
0.6426200005 -2.46022023e-05 153.7488436
-151.24396 -2.46022023e-05 -39.70242839
-208.17295 -2.46022023e-05 -43.84287439
-123.16357 22.1442054 -177.3614244
0.5665200005 49.9999754 173.9383696
-205.07531 32.2087804 -45.48566939
-228.43726 39.1877484 -107.0000974
-108.3903 54.1889064 -189.0000974
-186.9341 39.2098964 -195.0000974
-193.37424 66.5782724 -195.0000974
-40.24126 52.2694504 148.3049346
-162.34781 15.3474524 -109.4917954
-200.25027 218.8822232 -144.5438044
-52.32116 57.2998054 -195.0000974
-164.13292 -2.46022023e-05 -21.98304539
0.1053200005 49.6338784 194.7848276
-38.95394 -2.46022023e-05 -40.75800239
-138.81861 242.2972213 -101.2951174
-234.07704 -2.46022023e-05 -118.7731694
-159.3781 54.5709124 -195.0000974
-216.44784 -2.46022023e-05 -82.43934239
-207.11745 10.2595004 -195.0000974
-213.71902 -2.46022023e-05 -170.7222464
-58.03865 32.8583244 130.1941236
-152.66522 8.042244398 -126.2629074
-124.17479 -2.46022023e-05 -154.8477634
-135.97704 13.6633244 65.15041061
-0.6203299995 22.5574074 194.6048166
-197.25027 80.8515784 -151.8494874
-143.56571 40.1208274 -142.0240274
-230.8984 248.1832246 -107.0000974
-122.8187 -2.46022023e-05 -97.61474839
-0.0002699995239 31.3862884 4.863833615
-144.18099 10.5484794 -150.9579644
-161.98461 0.3177793978 38.68477261
-232.23329 12.1316074 -18.39044639
-63.07373 -2.46022023e-05 -78.43879639
-116.19331 -2.46022023e-05 -27.66180539
-181.12492 159.9999754 -197.4056224
-102.51596 -2.46022023e-05 -171.5860384
-164.71596 81.2380944 -195.0000974
-197.25027 129.8785324 -127.1614694
-0.0002699995239 29.5669084 60.57795261
-189.37324 -2.46022023e-05 -154.6153504
-217.17283 135.2882294 -107.0000974
-116.5132 -2.46022023e-05 -62.76181539
-239.42302 -2.46022023e-05 -43.34782839
-74.75035 53.0681824 113.1881096
-145.04561 14.1962574 41.65488761
-0.0002699995239 19.1623074 169.6914546
-208.63435 166.3361984 -104.0000974
-247.25027 114.8616054 -104.2533134
-59.83505 -2.46022023e-05 49.89871661
-200.25027 135.6741944 -143.3699174
-209.18304 29.6754034 -15.05107839
-0.0002699995239 36.5804834 -26.80625639
-11.57413 -2.46022023e-05 119.3427416
-0.0002699995239 0.2052063978 106.3063166
-106.21914 -2.46022023e-05 71.37743761
-0.0002699995239 42.3289394 20.62847661
-13.06592 -2.46022023e-05 -64.95759739
-31.34303 62.2207644 165.9200966
-197.25027 86.2955484 -119.5677564
-181.05211 -2.46022023e-05 -124.2221364
-230.61484 13.6081304 -189.0000974
-197.25027 189.1730744 -157.3711774
-17.64744 34.4870114 -195.0000974
-75.15789 215.877162 -105.0000974
-197.25027 70.8410304 -123.3270934
-200.25027 96.9043364 -142.7693394
-103.07549 50.2548294 92.92437061
-0.0002699995239 26.9444054 -107.5513094
-206.91971 -2.46022023e-05 -120.5437434
-208.22925 59.7239014 -22.64146639
-0.0002699995239 38.2289174 114.2097896
-49.43754 235.7027716 -105.0000974
-0.0002699995239 16.8797944 99.90931561
-107.89693 15.7303244 -189.0000974
-0.0002699995239 32.8796354 -49.25301139
-176.9068 33.1720114 -84.27538539
-0.0002699995239 13.8474334 -74.35455739
-246.8599 133.5281504 -104.0000974
-48.51373 -2.46022023e-05 -11.23992339
-153.47304 -2.46022023e-05 -106.1599104
-200.25027 48.7549274 -162.5726184
-0.0002699995239 33.4302114 163.6262406
-161.59388 26.1195874 24.81518561
-197.25027 119.1542434 -175.7501724
-98.74183 -2.46022023e-05 -102.7302474
-200.25027 186.0117394 -132.5731944
-200.25027 34.6306484 -155.5145074
-0.0002699995239 43.6803534 86.04210261
-0.0002699995239 38.4428324 145.9448366
-17.6593 67.9999754 -191.6387394
-0.0002699995239 8.977191398 -21.34734139
-0.0002699995239 21.8850014 -187.7645334
-205.2644 -2.46022023e-05 -103.9880844
-184.19236 -2.46022023e-05 -100.6690964
-136.91956 20.9516524 -189.0000974
-183.52143 21.5566384 -72.81797239
-0.0002699995239 33.7706224 -153.7017334
-61.61839 54.6036144 126.5513356
-90.75075 41.2550344 -189.0000974
-207.59938 232.0949835 -104.0000974
-125.73428 9.821351398 75.57343661
-110.05255 31.5250304 77.26420861
-10.00858 -2.394942602 179.0697606
-189.95667 67.9999754 1.011820615
-45.20405 35.6233034 151.8149696
-105.5762 -2.46022023e-05 -126.5622944
-151.81155 57.8196944 34.76979661
-102.12867 -2.46022023e-05 2.784158615
-207.06807 66.8377514 -189.0000974
-250.68852 -2.46022023e-05 -87.47958039
-237.36788 58.7193734 -104.0000974
-200.25027 109.5735674 -150.6326474
-200.25027 95.1952604 -196.4620094
-183.82549 -2.46022023e-05 -171.9517014
-48.53908 -2.46022023e-05 -154.4409934
-157.48619 26.8545104 -195.0000974
-115.66519 -2.46022023e-05 49.18747761
-101.45532 -1.299905602 94.57307161
-169.57328 21.1570844 -96.97704739
-105.41911 67.9999754 -193.5518204
1.4243 -2.46022023e-05 -158.1071114
-151.24945 -2.46022023e-05 -14.49565139
-163.356 40.8330384 37.28942361
-97.98969 -2.46022023e-05 -152.3613164
-56.03642 -2.46022023e-05 12.67775161
-197.25027 161.8999344 -163.0286114
-136.42339 5.213677398 50.42895061
-165.57628 114.1159474 -195.0000974
-5.70713 210.5243854 -101.0000974
-184.70432 54.6687304 -195.0000974
-199.32957 15.2582574 -178.9998534
-130.62792 32.8627544 -195.0000974
-0.0002699995239 45.9163984 53.55920261
-180.41635 32.5008234 19.92860261
-77.45556 -2.46022023e-05 -86.29248539
-225.98847 -2.46022023e-05 -50.11785139
-36.11312 178.9314624 -105.0000974
-85.37929 -2.46022023e-05 -57.68924639
-213.45943 26.9069554 -30.96451639
-145.87116 -2.46022023e-05 16.97138361
-138.86075 -2.46022023e-05 -72.43755039
-34.06522 204.4231954 -101.0000974
-219.15172 21.3148094 -195.0000974
-124.36084 24.5357694 62.70393961
-189.41622 25.6809024 10.77021061
-238.90686 232.4502888 -104.0000974
-200.14953 112.6647584 -104.9285654
-36.37508 -2.46022023e-05 69.36306061
-165.52021 11.1313804 29.37998861
-200.25027 232.3828952 -149.7976724
-155.39852 36.3386064 -131.5288804
-221.32471 -2.46022023e-05 -147.2246724
-12.39885 -2.46022023e-05 -100.8312204
-133.87536 36.2398054 -158.8081664
-230.23247 53.4362194 -28.27491039
-129.28336 -2.46022023e-05 -44.95544539
-101.80322 -2.46022023e-05 -28.29009739
-0.0002699995239 12.0128464 8.622507615
-146.15753 29.1274224 40.52338461
-79.15634 67.9999754 -189.0560154
-49.37252 -2.46022023e-05 -117.4806544
-126.19828 234.6606183 -101.0000974
-193.62761 11.9085104 -55.31321039
-195.60213 39.6165354 -61.89410639
-197.25027 182.5328554 -183.5229654
-10.93452 -2.46022023e-05 30.16024261
-136.13153 67.9999754 56.25040361
-0.0002699995239 9.782239398 133.1654146
-133.68293 46.5139894 -169.1414694
-165.62592 -2.46022023e-05 -133.2995444
-209.19493 -0.6371866022 -9.356539385
-197.25027 151.0203594 -143.3695974
-31.46629 15.0063554 -195.0000974
-0.0002699995239 14.6796454 -91.64225039
-221.60808 21.8447504 -104.0000974
-55.96974 -2.46022023e-05 69.81268361
-110.32382 239.5031295 -105.0000974
-169.09155 58.9308524 17.18548261
-11.15431 195.4308834 -101.0000974
-50.84832 -2.46022023e-05 110.8374496
-215.4063 75.9948184 -104.0000974
-11.46116 -2.319587602 -195.0000974
-87.57443 251.5230357 -101.0000974
-186.7164 50.3326704 7.810464615
-197.25027 69.8424514 -143.1496334
-23.94204 -2.46022023e-05 -110.0997894
-81.83392 -2.464606602 114.5400156
-152.62232 -0.7622726022 -189.0000974
-61.08584 -2.46022023e-05 -148.2353494
-178.00274 11.4807574 -195.0000974
-38.27124 -2.46022023e-05 -26.82715439
-250.47585 13.2201494 -29.69046539
-245.697 192.1256524 -104.0000974
-200.25027 132.3607594 -172.6973264
-84.16865 -2.46022023e-05 91.03269761
-197.25027 251.4043368 -118.4897084
-6.06759 61.3842774 183.0804346
-92.45646 225.4514847 -105.0000974
-208.79636 -2.46022023e-05 -135.5273334
-239.53294 39.9863914 -28.92526239
-239.18105 -2.46022023e-05 -188.7327054
-162.23394 36.1871324 -119.6895834
-0.0002699995239 38.2354404 -6.937639385
-232.97679 -2.150547602 -22.45216539
-231.52404 213.4860428 -104.0000974
-138.5649 -1.479533602 62.51678361
-216.62649 39.9306764 -21.20092839
-227.42956 114.7087184 -107.0000974
1.13558 -2.46022023e-05 -95.37131539
-186.39807 -2.46022023e-05 -45.06243139
-81.42741 -2.46022023e-05 31.05855361
-211.67338 47.1367174 -104.0000974
-41.46937 5.300693398 -189.0000974
-219.58904 10.8415094 -27.53064839
-33.8337 -2.46022023e-05 44.99086161
-164.19955 127.5192914 -195.0000974
-11.1324 167.7026514 -101.0000974
-0.0002699995239 16.2785154 86.18533161
-196.67385 6.800014398 1.362631615
-83.9116 67.9999754 105.7321856
-197.25027 122.9593784 -146.3769634
-36.10398 232.4030774 -101.0000974
-89.70946 -2.46022023e-05 63.04025761
-120.89832 48.0623004 -189.0000974
-15.21187 -2.46022023e-05 -133.6511314
-111.98606 -2.46022023e-05 -160.2987194
-197.25027 114.9928274 -122.2393144
-77.85872 229.150314 -101.0000974
-14.19037 227.7084914 -101.0000974
-20.76999 6.615547398 -189.0000974
-61.71781 -2.46022023e-05 -185.0526084
-37.24884 248.7851627 -105.0000974
-103.94628 -2.46022023e-05 41.42868161
-45.07785 11.0817084 143.3831666
-22.09681 19.7874804 166.7689286
-44.74544 -2.46022023e-05 -100.1641704
-163.30902 11.4949834 -195.0000974
-145.49079 52.0719634 49.76209661
-59.77901 13.4914504 128.4231106
-167.54201 94.1390554 -195.0000974
-62.60226 242.6276663 -101.0000974
-125.74056 -2.46022023e-05 -17.46432939
-90.78273 -2.46022023e-05 44.03353161
-48.85827 60.9901094 139.5361786
-234.8628 140.9462134 -104.0000974
1.45112 -2.46022023e-05 -118.1029384
-80.12499 53.2437134 -189.0000974
-0.0002699995239 13.0787174 28.14849661
-19.5285 52.5499104 169.3824656
-8.56568 36.2702524 189.0985796
-73.33368 -2.46022023e-05 -98.89246139
-190.77318 41.7085094 -4.877981385
-197.25027 157.1105004 -115.8891704
-25.49302 -2.46022023e-05 112.7341586
-230.40441 -2.46022023e-05 -105.3378464
-126.37118 -2.46022023e-05 -141.2603204
-38.11415 -2.46022023e-05 -3.338755385
-131.12119 12.5353074 -173.5782544
-212.96084 -2.46022023e-05 -184.7005314
2.01261 -2.46022023e-05 52.83738361
-164.14584 65.0923114 -189.0000974
-209.12537 98.7118104 -104.0000974
-79.14799 -2.46022023e-05 73.90038261
-8.17453 -2.46022023e-05 -42.55193939
-145.72357 55.8555744 -189.0000974
-251.37887 55.4981414 -29.75361039
-215.91825 -2.46022023e-05 -58.25650739
-136.48962 9.486778398 -195.0000974
-151.10106 9.945109398 -138.9719974
-83.64707 14.3910194 112.6949356
-231.46287 76.0779014 -107.0000974
-5.90347 -2.46022023e-05 -183.5594704
-156.01451 -2.46022023e-05 6.073416615
-119.26656 -2.46022023e-05 -4.829935385
-112.56401 59.0266554 74.70851961
-43.53567 -2.46022023e-05 121.4214696
-204.73341 136.5113724 -104.0000974
-134.43089 64.0787244 -189.0000974
-235.40199 183.2833914 -104.0000974
-153.1619 -2.46022023e-05 -157.6732474
-200.3555 250.2286901 -104.8236574
-228.39266 43.1135224 -195.0000974
-160.45733 50.9287634 25.97175761
-75.09621 -2.46022023e-05 -125.5275914
-239.29092 -2.46022023e-05 -80.82653139
-197.25027 90.9211684 -172.1787614
-219.62583 240.6867632 -107.0000974
-98.88028 13.0504394 97.19346261
-200.25027 96.5820964 -126.4513394
-11.71828 -2.46022023e-05 44.74688761
-197.53956 190.8444554 -108.1691804
-61.19756 -2.46022023e-05 -16.88862739
-197.25027 252.4205801 -145.4034984
-7.30553 56.7961874 -195.0000974
0.4591400005 49.9999754 -104.6155774
-170.30536 52.1301914 -189.0000974
-34.12779 43.0428534 154.5260706
-67.50662 11.3293044 -189.0000974
-60.16392 213.8769832 -101.0000974
-181.20189 10.1493654 13.42208561
-235.89037 64.7685274 -28.67054939
-9.10287 -2.46022023e-05 82.60697361
-136.47219 -2.46022023e-05 -128.6521794
-79.56533 -2.46022023e-05 -148.4223894
-78.5598 -2.46022023e-05 0.148537615
-184.75531 120.0948264 -195.0000974
-62.4216 34.5584564 -189.0000974
-145.80429 -2.46022023e-05 -178.4474694
-87.61159 -2.46022023e-05 -28.67771039
-0.0002699995239 13.2171274 73.77060761
-137.29925 31.3305644 63.80523961
-136.97576 20.4722654 -153.4379934
-158.28365 39.3969704 -189.0000974
-197.25027 27.9238424 -113.2624914
-110.33254 12.5416294 76.97928261
-124.31281 -2.46022023e-05 -115.9751344
-179.21548 -2.46022023e-05 -1.104313385
-129.65573 51.5940834 65.87602961
-0.0002699995239 1.413929398 123.6976216
-247.25027 89.9760804 -105.6974544
-175.55292 -2.46022023e-05 -28.19391239
-168.43693 7.493315398 17.85162361
0.2492100005 49.9999754 -50.58587439
-0.0002699995239 13.3162154 -163.5223004
-21.41531 -2.46022023e-05 -145.1439964
-188.61696 26.8487284 -2.683788385
-10.55965 -2.46022023e-05 -21.48068539
-135.43899 -2.46022023e-05 -149.6604044
-0.0002699995239 38.6402914 -180.5010884
-237.96333 17.9085674 -28.81550439
-235.77777 11.0385774 -104.0000974
-200.25027 31.5974654 -136.3454074
-31.34794 13.1300664 157.3548746
-192.56191 106.2010314 -195.0000974
-198.17779 35.3522354 -12.41299739
-50.95459 -2.46022023e-05 -43.58141439
0.1440400005 48.6093074 -188.0000974
-93.69961 -2.46022023e-05 -120.1535644
-120.55826 40.3036824 75.13371161
-97.35646 -2.46022023e-05 -77.02296039
-38.10767 -2.46022023e-05 -68.61081139
-197.25027 238.4861897 -185.8979834
-12.45282 -2.46022023e-05 -2.230629385
-50.43455 -2.46022023e-05 92.79113761
-22.29415 41.3847604 175.1283386
-150.25027 106.7998694 -196.6822464
-98.45047 237.6817833 -101.0000974
-0.0002699995239 26.1110514 116.7930366
-197.25027 56.9758554 -135.9742894
-197.25027 162.6194904 -147.2153024
-190.53986 31.2791574 -70.66196739
-72.93488 7.563200398 115.0355546
-245.92335 29.5975864 -107.0000974
-91.95887 66.9305584 95.67653161
-248.29427 55.7670734 -195.0000974
-138.40489 -2.46022023e-05 -100.4296054
-19.24866 182.2353744 -101.0000974
-155.19406 35.3886904 45.59508861
-0.0002699995239 15.6250354 -45.36528939
-197.25027 13.6871654 -152.4381634
-190.20013 134.4812374 -195.0000974
-166.85085 49.8287804 -101.6930514
-197.25027 69.4602894 -176.1779334
-147.46341 -2.46022023e-05 -81.90394539
-24.08338 -2.46022023e-05 22.73929761
-145.30099 17.4227604 55.66237661
-123.66234 10.5360484 63.41473661
-220.41585 26.0442694 -17.56395439
-110.91131 -2.46022023e-05 -100.7198734
-89.74447 -2.46022023e-05 -172.7228704
-25.98021 57.3561704 -189.0000974
-197.25027 26.8970344 -165.9534434
-211.99577 177.8871554 -104.0000974
-194.67807 32.2481844 -189.0000974
-173.00535 -2.46022023e-05 -73.89902139
-126.3126 62.0513194 60.71780861
-0.0002699995239 27.7912634 -95.54171039
-67.01552 26.7082594 121.0591616
-141.95422 -2.46022023e-05 -47.20390439
-200.25027 4.036904398 -143.1288444
-26.57016 226.4390953 -105.0000974
-154.03307 11.9589054 32.50915461
-201.46789 45.8864744 -41.73451839
-189.19373 -2.46022023e-05 -19.50716939
-0.0002699995239 33.7252024 -68.20271439
-177.76927 48.4306904 16.91515961
-37.5801 193.0394294 -105.0000974
-215.50797 58.5299274 -195.0000974
-0.0002699995239 9.116732398 -141.6951464
-99.82362 -2.46022023e-05 -52.11502639
-181.42854 144.9969154 -195.0000974
-205.32712 -2.46022023e-05 -75.60047139
-62.01474 -2.46022023e-05 25.95416261
-234.09619 171.0179014 -104.0000974
-206.08463 -1.544515602 -195.0000974
-171.01664 34.4082934 -94.47755939
-177.5921 31.9394924 -195.0000974
-38.26453 -2.46022023e-05 30.63522361
-200.25027 236.8628002 -160.7445444
-200.25027 107.6092054 -163.5508884
-46.24852 23.4174254 142.1918816
-223.04563 189.9868404 -104.0000974
-108.83071 5.002675398 -195.0000974
-215.65694 39.0420694 -195.0000974
-0.0002699995239 49.5208174 142.0272716
-233.32172 61.6421134 -189.0000974
-241.74908 207.7519284 -104.0000974
-211.96401 124.7910654 -107.0000974
-197.25027 213.6225663 -114.9721824
-150.74376 46.4266484 -195.0000974
-127.82725 -2.46022023e-05 -185.2326064
-67.3652 42.5491224 129.2635446
-197.25027 196.8327934 -191.0923194
-212.71118 220.7118067 -104.0000974
-165.86541 -2.46022023e-05 -178.6058724
-191.26567 78.9844434 -195.0000974
-25.95455 -2.46022023e-05 -39.87057139
-0.0002699995239 49.6106284 -141.1663914
-241.42162 -2.46022023e-05 -162.0636384
-188.81171 7.122631398 -189.0000974
-6.54751 21.4294774 182.5920606
-89.09954 -2.418412602 -189.0000974
-0.0002699995239 7.820054398 162.7468046
-104.15817 -0.7624376022 83.26239361
-82.58519 -2.46022023e-05 18.86816861
-219.01212 55.6016404 -21.47566039
-181.96772 49.9999754 -81.53943339
-65.07865 67.9999754 123.7230296
-143.69658 33.9635074 -151.7972114
-169.27964 31.6078794 16.99407961
-18.41391 -2.46022023e-05 -165.6320714
-163.20242 -0.0541786022 -195.0000974
-22.66194 -2.176059602 166.1938416
-200.25027 151.3061034 -166.4302484
-27.8157 43.9017804 -195.0000974
-198.07133 26.7086824 -178.9998534
-35.88879 -2.46022023e-05 -145.1418104
-59.15679 45.6215504 -189.0000974
-166.21475 -2.46022023e-05 -54.61581639
-74.44109 -2.46022023e-05 -14.62320539
-0.0002699995239 32.1386654 25.96475161
-204.98682 206.8044434 -107.0000974
-123.93754 -2.46022023e-05 -84.83570239
-0.0002699995239 45.3422094 -163.3260434
-96.29186 28.7424414 99.82745761
-25.03233 -2.46022023e-05 145.1077686
-63.34921 -2.46022023e-05 -32.84052439
-143.44587 -2.46022023e-05 5.756362615
-0.0002699995239 8.837202398 -63.62392739
-200.25027 205.3359984 -130.0242064
-76.62098 15.1919864 -195.0000974
-33.05968 26.1531644 164.1732146
-126.06526 -2.46022023e-05 -69.05197739
-146.99293 -2.46022023e-05 28.35204061
-140.57854 41.6885294 46.20062961
-149.99025 -2.46022023e-05 -25.84126339
-34.60216 0.8479783978 162.6035696
-179.08827 -2.46022023e-05 -159.9828274
-22.64864 205.9446164 -101.0000974
-200.25027 46.1528184 -133.0236354
-236.09623 88.4966624 -104.0000974
-42.86166 13.8134964 154.1986146
-207.67804 44.5479264 -189.0000974
-197.71076 23.9966174 -48.24123739
-48.43722 -2.46022023e-05 3.758273615
-150.49961 18.5488344 -130.0137544
-200.25027 178.3062074 -162.9980064
-0.0002699995239 9.842341398 -123.5452704
-185.71913 -2.261275602 -69.01209639
-121.19144 -2.46022023e-05 7.630725615
-17.33495 19.0568424 180.1748686
-1.5491 -2.46022023e-05 6.632264615
-218.71098 4.169743398 -17.44471839
-189.01651 -2.46022023e-05 -56.02357039
-237.74645 36.8298954 -195.0000974
-200.25027 229.333771 -125.0307074
-197.25027 184.4200174 -143.3125044
-168.39356 -2.46022023e-05 -108.2174914
-225.28608 37.3926224 -27.92902439
-0.0002699995239 27.5703984 49.50354861
-98.25262 21.4754004 89.27194261
-189.37581 92.7484444 -195.0000974
-50.6873 66.6644684 -189.0000974
-197.7785 -2.46022023e-05 -162.0595194
-154.22451 30.0545614 32.31434561
-67.00929 -2.46022023e-05 -67.92663639
-127.83382 -2.46022023e-05 42.14711461
-0.0002699995239 23.9076444 -23.62367639
-32.95932 -2.46022023e-05 80.04367361
-0.0002699995239 32.0262984 -38.08754239
-197.25027 215.7409908 -165.4404694
-0.0002699995239 -1.648309602 -15.20168839
-126.66573 -2.46022023e-05 -32.53946339
-196.95934 39.1767174 -49.54335239
-193.7862 57.1090334 -189.0000974
-94.4365 67.9999754 -191.6031844
-201.26156 7.026700398 -15.55107339
-208.22291 58.2763854 -104.0000974
-228.56877 104.0668054 -104.0000974
-208.03073 21.0267164 -8.171794385
-238.59284 35.4376534 -18.83501039
-115.66417 27.6486404 -189.0000974
-0.0002699995239 13.1442744 145.4663716
-95.68903 -2.46022023e-05 -6.218722385
-203.8299 10.4698114 -47.64229039
-24.22437 -2.46022023e-05 -125.7665074
-170.03204 21.1461694 30.49575361
-108.33332 40.9059994 87.57394361
-0.0002699995239 12.4113434 -2.894681385
-251.41738 -2.46022023e-05 -138.8018514
0.6207300005 49.9999754 42.45654461
-61.94409 4.764745398 134.7801266
-55.6713 194.3874394 -101.0000974
-17.45899 5.645054398 180.0486456
-35.80509 -2.46022023e-05 -14.08930139
-197.25027 16.8205024 -116.7646444
-52.97641 223.7721186 -101.0000974
-173.47894 19.9705114 12.72081861
-41.24554 59.4535584 -195.0000974
-238.58837 9.071470398 -195.0000974
-182.62285 -1.570908602 -195.0000974
-175.82404 -2.46022023e-05 -47.87252739
-151.41195 24.0156834 49.44394261
-197.25027 6.653132398 -120.9134804
-128.24518 33.2677424 -168.5598974
-88.31314 27.9464834 -195.0000974
-98.11966 47.2888894 -195.0000974
-2.73215 2.545975398 186.4746116
-95.53153 47.8767474 100.6011816
-103.93166 -2.46022023e-05 -91.56439739
-0.0002699995239 28.8376334 -143.9962524
-200.25027 187.2970604 -118.3291974
-225.86742 55.2102694 -195.0000974
-200.25027 157.9315034 -135.5239574
-33.74512 -2.46022023e-05 -168.8005094
-238.82803 49.5705544 -22.86132439
-19.86288 -2.46022023e-05 -84.17494939
-117.40963 4.342105398 69.77756561
-197.25027 174.7368324 -191.5043324
-0.0002699995239 34.8062204 -124.8661604
-99.01714 -2.46022023e-05 -17.80289739
-200.25027 199.2376204 -151.6111494
-193.83926 49.9999754 -64.38144139
-29.32858 23.7541614 -189.0000974
-8.66489 30.0275974 -189.0000974
-106.4869 36.2803194 -189.0000974
-181.5897 22.1538754 -189.0000974
-152.2449 77.6847324 -195.0000974
-144.07404 -2.46022023e-05 -62.15282239
-0.0002699995239 37.0587834 -82.41542139
-200.25027 138.7495774 -119.9273404
-198.96069 -2.46022023e-05 -131.1109874
-116.26463 67.9312854 79.50295161
-215.87242 12.0065974 -189.0000974
-0.0002699995239 40.5685794 130.8588166
-147.76653 49.9999754 -141.4525284
-229.6576 -2.46022023e-05 -136.2309744
-130.77462 -2.46022023e-05 26.47506761
-217.70462 -2.46022023e-05 -93.09561039
-131.21274 8.772289398 -163.4196324
-232.12598 24.5585934 -18.38291239
-219.28633 165.3213534 -104.0000974
-116.44777 -2.46022023e-05 -73.73849939
-82.32984 38.5509254 -195.0000974
-91.73462 -2.46022023e-05 -142.7965434
-165.80498 138.0681044 -195.0000974
-146.54732 -2.46022023e-05 -93.54237439
-79.59051 33.1995054 108.2627126
-145.70901 -2.46022023e-05 -123.3272464
-189.623 37.5959614 10.55982161
-9.53122 -2.46022023e-05 63.93053761
-251.20929 35.2144504 -29.74175139
-0.5865399995 169.0289294 -101.0000974
-200.25027 39.0099334 -195.0044334
-0.0002699995239 27.1719964 105.3471446
0.3946300005 49.9999754 113.3445366
-133.63559 44.0039004 -189.0000974
-96.50698 12.6798544 -189.0000974
-42.47875 37.8801444 -189.0000974
-0.0002699995239 0.2913613978 -147.5813304
-56.8752 -2.46022023e-05 -87.04613239
-200.25027 55.7840104 -111.5370734
-200.25027 40.4404124 -117.2067974
-200.35212 -2.46022023e-05 -32.09705039
-246.56078 44.5547244 -195.0000974
-226.57723 -2.46022023e-05 -79.42427139
-178.45652 -2.46022023e-05 -135.7838874
-30.2353 -2.46022023e-05 3.691499615
-197.25027 239.378772 -126.2833624
-207.31444 10.0351604 -7.442864385
-197.25027 80.3998484 -110.8231284
-197.25027 169.0522224 -123.8918774
-197.12846 -2.46022023e-05 -97.30243839
-145.65152 -0.3304556022 41.03818761
-8.725 19.5317514 -195.0000974
-238.96861 41.2383984 -107.0000974
-92.08166 39.3407714 95.55157761
-237.58984 110.7650704 -104.0000974
-82.95688 -2.46022023e-05 51.17495761
-65.96951 -2.46022023e-05 66.67160761
-75.82641 241.3214811 -105.0000974
-146.89648 -2.46022023e-05 -167.0304694
-28.96536 54.0948324 159.7794136
-28.92496 -2.46022023e-05 -182.0734764
-200.95088 58.6198124 -15.23491839
-0.0002699995239 14.4876834 -175.6831404
-14.31655 -2.46022023e-05 -75.31260539
-132.34885 42.4743834 54.57525161
-58.09634 -2.46022023e-05 83.04942561
-200.25027 55.8378474 -151.1254044
-155.57703 45.5048424 -121.2198534
-83.69222 -2.46022023e-05 -97.69551439
-0.0002699995239 21.2409424 66.90595361
-197.64392 93.7301694 -107.9483334
-216.47916 -1.962362602 -27.23866839
-76.51787 -2.46022023e-05 -50.45403439
-95.80464 -2.46022023e-05 15.37956361
-197.25027 229.9039862 -196.1272454
-223.62149 149.3106014 -104.0000974
-153.51039 67.9999754 33.62797661
-0.0002699995239 49.1110414 -121.3348414
-197.25027 222.3142206 -177.8367864
-10.42769 -2.46022023e-05 150.5859986
-171.95817 12.9425184 -102.8459614
-231.76391 9.417779398 -28.38199839
-18.31969 -2.46022023e-05 127.2048766
-200.17024 42.9999754 -0.756328385
-128.54129 49.9999754 -177.4097214
2.34633 41.3752854 188.9999026
-200.25027 86.5094014 -159.9444444
-10.13853 35.5515584 178.9378026
1.98125 57.9274564 188.9619626
-44.01359 -2.46022023e-05 140.8142406
0.07060000048 8.736313398 175.8854926
-211.39772 20.4923144 -104.0000974
-196.84394 9.469052398 -195.0000974
-166.22619 -2.46022023e-05 4.776398615
-200.25027 215.4039729 -190.0638554
-49.32454 -2.46022023e-05 -185.0298424
-81.94687 53.1298454 105.8648576
-2.4839 -2.46022023e-05 -68.20288939
-0.0002699995239 14.3472394 43.04604661
-115.79405 -2.46022023e-05 24.64092461
-206.4255 241.8077901 -107.0000974
-144.48299 24.3381504 -195.0000974
-197.25027 141.9154244 -174.7541004
-11.31691 11.1710634 -189.0000974
-107.69549 26.1300734 88.22300861
-158.57304 152.5310644 -195.0000974
-245.28365 26.9107184 -29.32739039
-187.99804 5.221120398 6.506257615
-200.25027 243.6913868 -137.8483534
-245.35272 14.6107764 -19.30778439
-124.42798 15.3990904 -185.1715274
-235.21989 23.8602014 -195.0000974
-84.76626 11.4970004 102.9958116
-241.00523 122.6942844 -107.0000974
-200.25027 222.5709869 -154.0257884
-11.42359 -2.46022023e-05 -143.2352454
-143.13932 -2.46022023e-05 -33.55759039
-56.93182 11.0054294 -195.0000974
-129.88644 18.9278134 71.34834261
-122.0942 55.7012634 73.57072061
-6.76744 46.1032114 -195.0000974
-177.82799 27.9976254 8.295184615
-157.22297 41.7485804 29.26307161
-168.67494 67.9999754 22.03716461
-209.64257 20.5897044 -24.01830539
-168.45513 23.4132094 -108.9138174
-126.43498 3.752437398 -171.6945874
-245.88779 66.4135654 -107.0000974
-202.06483 149.8541664 -104.1878384
-25.38816 -2.46022023e-05 -63.05450039
-46.10251 -2.46022023e-05 -130.0547854
-191.82686 16.1361674 8.317574615
-32.68068 -2.46022023e-05 -103.9646064
-181.14849 44.9124084 -189.0000974
-153.67758 14.4492794 47.13825461
-50.12981 31.8602374 138.2422436
-195.24137 -2.46022023e-05 -75.14867639
-116.08078 20.3586254 79.69012161
-205.56547 73.8674494 -104.0000974
-0.0002699995239 5.971303398 -41.62239539
-54.85342 -0.5014406022 141.9956716
-218.98847 -2.46022023e-05 -67.83356139
-200.25027 234.6044997 -177.1148914
1.24562 49.9999754 27.00461361
-37.41263 -2.46022023e-05 -56.02475039
-102.36627 61.4229164 93.64607561
0.3627500005 49.9999754 -68.32669039
-178.6204 10.9607024 -81.30670339
-158.55117 -2.46022023e-05 -46.54308639
-241.75524 164.3998284 -104.0000974
-222.92649 123.1066664 -104.0000974
-166.11061 159.5752044 -195.0000974
-57.17156 42.7643864 131.0764776
-200.25027 13.9145444 -141.4599584
-155.98013 49.8440394 39.08802661
-159.38007 103.1322174 -195.0000974
-199.04681 126.2574084 -195.0000974
-131.57493 -1.757854602 69.62981461
-76.24952 46.1604484 120.2227696
-200.62824 36.3446984 -104.6847364
-82.6714 25.4066214 113.6877876
-34.02226 -2.46022023e-05 -90.19217139
-0.0002699995239 39.0664344 77.21490761
-200.25027 159.5928594 -183.6280124
-17.76351 -2.46022023e-05 -50.30908539
-43.11473 43.2132684 145.3808676
-200.25027 155.1744714 -153.0755534
-65.3219 58.9222344 -195.0000974
-30.21003 33.7849944 158.5128256
-0.0002699995239 33.0974634 14.63418061
-167.76489 33.5422694 27.09572461
-83.07488 -2.46022023e-05 -119.6380794
-50.65126 -2.46022023e-05 60.26497961
-199.93655 44.5071884 -178.9998534
-212.75951 67.9999754 -19.65661939
-158.27126 -2.46022023e-05 -31.25885639
-118.53538 38.0267504 -185.3779214
-59.49479 251.1259239 -105.0000974
-197.25027 24.4724064 -128.7929174
-218.63254 101.4379624 -104.0000974
-215.17548 86.6557654 -107.0000974
-128.63784 -2.46022023e-05 -1.671868385
-9.62243 -2.46022023e-05 19.93580161
-0.0002699995239 37.4055714 45.93820361
-0.0002699995239 20.9092204 4.339451615
-62.82875 1.064868398 -195.0000974
-200.25027 87.2334114 -144.7065914
-47.7711 59.4059814 149.2027156
0.3838800005 -2.46022023e-05 143.9013016
-200.90712 15.3856524 -0.922917385
-197.25027 252.232913 -187.3942144
-240.15808 -2.46022023e-05 -110.5746244
-231.62041 -0.0887686022 -195.0000974
-238.91428 -2.46022023e-05 -63.55984039
-197.25027 8.778962398 -111.1509644
-129.05499 33.6053844 57.92711861
-197.25027 136.6913114 -158.8532484
-216.53097 -2.46022023e-05 -112.0366714
-149.51404 -2.46022023e-05 -148.4812114
-197.25027 212.2307728 -136.2901904
-65.65408 -2.46022023e-05 107.8862026
-0.0002699995239 17.3097314 126.9264556
-149.68256 -1.000024602 -132.2194964
-161.14182 9.359734398 -121.5807954
-173.01526 -2.46022023e-05 -17.95470239
-238.13044 149.6295534 -107.0000974
-0.0002699995239 31.9516494 -14.38621539
-117.44261 7.772270398 84.01105361
-7.34875 -2.46022023e-05 159.8255546
-139.24114 13.2177644 -159.5139424
-34.51217 -2.46022023e-05 94.01916061
-200.25027 167.5232584 -110.7966044
-172.76651 42.1356504 -101.4466744
-0.0002699995239 4.145193398 77.20660361
-115.89465 26.5649784 71.31922461
-0.0002699995239 17.2556654 -107.1628414
-49.89984 30.6806854 -195.0000974
-200.25027 99.9709864 -170.4343954
-159.51657 23.2093664 -114.3959804
-0.0002699995239 21.4884694 -137.6907714
-135.02661 251.1982762 -101.0000974
-130.60936 29.7260744 70.61289061
-157.93208 16.8560314 -189.0000974
-182.7402 64.1912774 -189.0000974
-33.57693 214.9624373 -101.0000974
-139.33607 32.1874024 47.46497761
-206.0049 33.4565414 -6.110477385
-0.0002699995239 12.6873234 -54.56334439
-108.10295 27.7811544 -195.0000974
-27.93871 -2.46022023e-05 64.67123561
-100.92606 219.1891746 -105.0000974
-39.1793 59.1373684 157.9458266
-200.25027 195.7383094 -127.5427094
-119.4348 8.347639398 -195.0000974
-243.78341 67.9999754 -193.5796114
-59.46303 26.5379104 137.3048776
-1.05312 -2.46022023e-05 30.70353661
-94.04322 4.732789398 93.55548061
-195.89751 -2.46022023e-05 -46.47162539
-25.79364 67.9999754 171.1983626
-200.25027 177.4803764 -127.3504674
-148.83763 32.1715524 -142.8926434
-15.59625 12.2590004 173.3839706
-173.31041 39.6315204 12.89232661
-122.5593 1.392044398 78.80416761
-194.75461 45.9118774 -189.0000974
-51.02263 20.2847444 -195.0000974
-74.62527 -0.1135866022 121.8756186
-20.67663 41.8294934 -189.0000974
-24.57412 -2.46022023e-05 99.80606561
-223.27063 11.4485964 -195.0000974
-0.0002699995239 41.4686464 95.44844261
-163.72814 -2.46022023e-05 -142.6424074
-151.4993 31.2022344 -189.0000974
-209.6958 34.5192574 -37.48277439
-55.62716 52.6553544 141.2083046
-0.0002699995239 37.8330864 -171.0198674
-205.97369 -2.46022023e-05 -93.81990939
-0.0002699995239 42.9258284 164.0650226
-220.17401 44.1309284 -107.0000974
-85.16326 -2.46022023e-05 -6.746376385
-200.25027 173.0335204 -182.6651964
-206.63196 9.386557398 -104.0000974
-182.74665 -2.46022023e-05 -181.3728364
-7.30019 55.4696734 190.3863536
-173.69409 -0.9578446022 -88.83921439
-109.98438 55.8700904 85.89380961
-85.23212 60.3006864 111.0819776
-151.6877 27.6979134 -127.9562124
0.2983700005 189.7776404 -101.0000974
-236.1063 223.9505078 -107.0000974
-200.25027 121.6353094 -184.3445044
-101.72632 40.6686264 94.29729461
-197.25027 66.7825574 -134.2419354
-198.90838 60.6910434 -4.596222385
-0.0002699995239 7.377790398 -11.80205839
-193.97339 -0.4246826022 -64.12373939
-224.003 30.4179834 -107.0000974
-156.43689 132.7956214 -195.0000974
-0.0002699995239 26.3232194 -159.4130554
-72.70197 36.6119804 -195.0000974
-241.57472 -2.46022023e-05 -101.3102104
-116.62146 233.8345486 -101.0000974
-226.67652 -2.46022023e-05 -167.1385404
-170.43073 61.0034284 -195.0000974
-166.62041 1.162091398 28.26036561
-7.00466 -2.46022023e-05 170.5311826
-121.84028 -2.46022023e-05 -164.4656654
-197.25027 243.4009914 -110.3939684
-243.61593 28.1257914 -189.0000974
-9.36452 -2.46022023e-05 -83.22502739
-200.25027 208.6844234 -148.4877364
-225.7123 -2.46022023e-05 -187.0563604
-77.34101 8.094277398 -189.0000974
-0.0002699995239 49.1144414 -6.389481385
-55.90952 -2.46022023e-05 119.4847006
-71.80082 -2.46022023e-05 -115.8665524
-94.43497 2.632309398 -195.0000974
-197.25027 129.5661304 -137.0251644
-213.13683 202.3194654 -107.0000974
-203.36261 25.9146424 -38.45195439
-67.39944 -2.46022023e-05 8.368323615
-200.25027 66.3583434 -166.0571484
-82.14315 -2.46022023e-05 103.8689496
-65.39287 -2.46022023e-05 89.86088361
-201.9233 -0.0591446022 -1.956602385
-7.97182 221.9696688 -105.0000974
-197.25027 42.9309924 -152.7770854
-41.86831 201.5400824 -105.0000974
-197.25027 175.2103144 -142.6981884
-39.39826 -2.46022023e-05 -110.2903724
-247.25027 147.0344694 -104.8880274
-197.25027 199.6113114 -182.3019874
-102.89594 -2.46022023e-05 62.48156261
-241.99946 17.1375194 -107.0000974
-87.95054 -2.46022023e-05 -80.68579739
-200.25027 81.5279354 -197.6641624
-1.15492 -2.46022023e-05 96.33261561
-227.39769 135.3603124 -104.0000974
-169.81833 103.0583424 -195.0000974
-104.8737 48.6551144 82.53426561
-41.57896 67.9999754 -190.3444124
-76.08311 -2.46022023e-05 42.61076861
-28.20351 -2.46022023e-05 14.12981561
-189.11357 49.9999754 -72.26526739
-221.52996 249.1602502 -104.0000974
-67.99574 -2.46022023e-05 -23.06229539
-0.0002699995239 33.8335384 84.74683461
-58.42415 233.8762447 -105.0000974
-101.1299 17.8389504 -195.0000974
-51.64631 -2.46022023e-05 -67.53711639
-202.73994 5.979139398 -39.53028839
-171.74217 51.8800154 23.04840961
-168.1693 40.4941144 -109.4092684
-42.64077 -2.46022023e-05 20.16620461
-87.08804 21.1629804 -189.0000974
-69.17991 232.1918806 -105.0000974
-186.00283 32.3381564 -78.52042639
-220.48743 -2.46022023e-05 -120.5103004
-199.75923 102.1554574 -105.1273604
-188.15013 30.0639044 -195.0000974
-250.54358 -2.46022023e-05 -161.6937644
-72.20044 -2.46022023e-05 -78.31111139
-44.596 211.7144884 -105.0000974
1.41525 0.1385193978 -189.0000974
-128.74015 31.9104364 -177.7024994
-228.66801 62.2468524 -22.15086539
-197.25027 56.0219694 -167.8967214
-120.93263 48.0850484 66.19251661
-196.96187 23.6646174 3.091951615
-0.0002699995239 22.9417954 -68.48274539
-238.39506 4.183515398 -18.82138939
-225.22898 13.3586674 -107.0000974
-52.61448 8.400212398 135.7138176
-200.25027 79.1634954 -125.4035624
-0.0002699995239 38.1428764 63.52759261
-188.12446 7.815356398 -2.182613385
-156.53517 -2.46022023e-05 -119.9831704
-9.55989 -2.46022023e-05 -175.2746764
-132.49772 -2.46022023e-05 -80.10930639
-57.03247 -2.46022023e-05 -50.28609039
-52.82844 67.7471104 144.0563096
-198.17 -2.46022023e-05 -20.58692039
-95.40889 -2.46022023e-05 -179.7692024
-67.08718 61.3840604 129.5464596
-94.39036 247.136257 -105.0000974
-153.9053 3.495627398 41.19974561
-71.9193 -2.46022023e-05 -186.9407534
-199.14409 226.0539718 -105.7247964
-146.45417 8.834058398 48.78174861
-197.25027 195.7530124 -164.2151924
-149.41756 59.2310044 45.76617561
-12.73412 -2.46022023e-05 -109.8520874
-171.26326 121.9046234 -195.0000974
-58.30863 17.5823454 -189.0000974
-0.0002699995239 0.3896033978 134.9098316
-250.48642 -2.46022023e-05 -100.0156454
-103.52996 59.3167014 -195.0000974
-187.01971 15.8927014 -66.75850739
-248.92389 13.1704444 -195.0000974
-197.25027 147.7341504 -119.9822144
-223.05127 18.5654964 -21.75810439
-133.18664 21.6887324 62.28310861
-144.26738 24.9781504 -150.8084774
-151.71559 42.9999754 48.81271261
-160.15069 -2.46022023e-05 -87.53212939
-0.0002699995239 32.8501844 70.76844461
-125.88591 23.9421694 -189.0000974
-200.25027 72.6053164 -114.0348264
-197.25027 105.9965334 -140.0720434
-197.25027 74.7274254 -185.4905964
-0.0002699995239 23.1093854 27.56714361
-215.42041 29.8084814 -195.0000974
-200.25027 136.8776874 -131.8390944
-107.11476 9.147116398 94.52075461
-188.80982 156.1394964 -195.0000974
-74.51528 -2.46022023e-05 25.40956561
-127.51729 20.2030284 -169.8205354
-17.56633 237.5573102 -105.0000974
-11.79889 57.2231564 177.2482066
-197.25027 201.6677224 -170.8827944
-242.31056 9.697360398 -29.11949239
-140.59724 42.2637904 -157.1654954
-102.86412 231.0606876 -105.0000974
-116.64336 -2.46022023e-05 59.25840361
-184.15477 -2.46022023e-05 -12.16467539
-139.43987 29.2978784 -159.1700084
-10.89421 203.3760934 -105.0000974
-200.25027 29.6048024 -195.4087884
-208.99037 57.7501294 -189.0000974
-209.74213 39.2906884 -15.61994239
-200.07458 26.4874494 -104.9667394
-200.26719 32.1289174 -53.81362839
-198.77654 26.0950604 -13.02228839
-176.79713 43.4148404 -84.46553639
-200.24999 142.9670974 -195.0000974
-132.26421 -2.46022023e-05 -107.1721134
-158.55473 -2.46022023e-05 -149.8399404
-0.0002699995239 20.3862304 140.3587576
-117.11144 56.6423484 -195.0000974
-197.25027 121.7566404 -131.8769584
-235.71828 48.8886744 -104.0000974
-231.24384 67.7743334 -104.0000974
-142.04721 13.7658294 -189.0000974
-200.25027 244.6475762 -148.3190534
-206.44339 157.5125424 -104.0000974
-76.69598 203.9027564 -103.3220884
-0.0002699995239 29.2186204 -4.533838385
-197.25027 91.5127194 -180.9733064
-59.47151 -2.46022023e-05 34.39309861
-197.25027 205.4360894 -111.7165264
-244.93829 8.049263398 -189.0000974
-192.11967 -2.46022023e-05 -89.88773139
-163.06814 17.5816604 23.31496361
-136.62813 59.5954404 58.78083261
-173.04552 8.575755398 -90.96289639
-183.57365 73.2574644 -195.0000974
-14.47482 -2.46022023e-05 72.70963861
-169.29929 -1.369525602 16.97408161
-203.95491 -2.46022023e-05 -169.9665314
-197.25027 225.7510507 -133.1821494
-182.25686 3.117340398 -75.00866539
-37.12264 41.3602074 -195.0000974
-112.33338 -0.3230836022 -189.0000974
-37.3919 -2.441422602 -189.0000974
-0.0002699995239 36.4355674 -105.4535494
-189.75173 33.1426434 -62.02715639
-15.64078 25.5238294 -195.0000974
-200.25027 126.7145614 -153.6464244
0.2647600005 16.9417054 187.9999026
-144.99208 -1.183132602 -195.0000974
-70.03306 52.3955414 126.5487056
-197.25027 32.8015584 -144.4196854
-16.23172 59.8394314 -189.0000974
-0.0002699995239 29.3002584 -183.2283154
-0.0002699995239 10.9232134 106.2392736
-130.84446 -2.46022023e-05 -94.19641639
-30.99589 65.0473304 157.7131256
-0.0002699995239 20.9781604 -115.0099874
-248.90092 36.8731014 -19.55583339
-48.72315 -2.46022023e-05 -19.91531839
-105.92605 -2.46022023e-05 -78.38610039
-79.55793 -2.46022023e-05 10.73410661
-70.96858 -2.46022023e-05 -149.5085684
-39.51827 7.602765398 149.0406636
-166.84859 8.283506398 -111.6963704
-126.24436 -2.46022023e-05 -54.58179539
-199.80903 -1.592462602 -189.0000974
-40.51305 -2.46022023e-05 -137.8261034
-224.30737 199.5118484 -104.0000974
-7.81329 39.9581594 -189.0000974
-179.70277 94.5097024 -195.0000974
-197.25027 184.4128254 -174.0732904
-45.98952 -2.46022023e-05 67.54413061
-118.52743 -2.46022023e-05 -35.98440939
-0.0002699995239 28.9865144 150.9821196
-14.11312 48.6789324 174.8932216
-26.00215 5.024323398 162.7948146
-119.48671 -2.46022023e-05 -147.5971404
-192.39923 46.6139174 2.027560615
-66.3053 -2.46022023e-05 -103.8894774
-200.25027 109.0828054 -175.3834724
-196.6849 21.7028854 -189.0000974
-251.56144 28.8454814 -23.75173139
0.3260900005 216.6734507 -101.0000974
-150.25027 150.3717894 -195.1892044
-68.88606 211.5728974 -101.0000974
-107.04303 -2.46022023e-05 -43.15059239
-197.25027 124.6619164 -120.3480684
-182.34494 67.9999754 4.966709615
-220.42278 218.4785071 -107.0000974
-42.80088 46.6647344 154.2604696
-238.92421 248.3044968 -104.0000974
-0.0002699995239 28.2842814 -130.8865964
-217.0833 -2.46022023e-05 -103.4931174
-208.96928 48.7260894 -38.74168139
-26.5597 180.2839404 -105.0000974
-26.40789 -2.46022023e-05 49.24527061
-197.25027 20.5759124 -172.6287274
-162.98483 29.4674654 -189.0000974
-169.67287 28.7256744 -195.0000974
-172.25851 -2.46022023e-05 -143.1063454
-183.47036 34.2226084 -189.0000974
-135.52569 -2.46022023e-05 -158.1896614
-189.57814 -2.46022023e-05 -124.0521914
-197.25027 1.996400398 -152.0587594
-31.07448 187.5072134 -105.0000974
-44.33343 54.2780554 -189.0000974
-247.45542 -2.281874602 -189.0000974
-79.80211 -2.46022023e-05 -166.4987474
-129.0665 -2.46022023e-05 50.55090561
-0.07800999952 28.9355894 188.4662916
-210.81373 54.0942234 -16.71123639
-43.68449 240.4896372 -101.0000974
-57.9071 206.5049664 -105.0000974
-136.61983 -2.46022023e-05 -138.3091104
-82.1222 218.6042011 -101.0000974
-96.91673 59.1855074 -189.0000974
-236.64785 192.3075294 -104.0000974
-161.45684 47.2464644 -189.0000974
-60.1142 -2.46022023e-05 128.0318586
-229.23915 56.3824904 -104.0000974
-40.62273 30.2658424 156.4769796
-51.4292 215.4704872 -101.0000974
-179.85687 26.9586994 -89.16540439
-65.54071 8.192160398 122.5599426
-101.83855 -2.46022023e-05 33.25827961
1.47484 49.9999754 76.19077761
-241.61202 199.8702854 -107.0000974
-176.32887 53.7750864 -195.0000974
-61.47531 53.7150064 135.2571646
-230.78474 31.8683134 -22.29889639
-204.94043 174.4682734 -107.0000974
-185.11874 17.6123134 -80.05115539
-223.74388 74.7291564 -104.0000974
-200.25027 107.5444814 -124.6372814
-150.25027 86.6450514 -195.0720224
-45.09839 194.9357354 -101.0000974
-0.0002699995239 37.3450544 154.2399086
-22.01023 28.1490814 166.8570306
-80.88943 40.6849854 115.5011376
-213.26741 19.9424824 -189.0000974
-16.23168 67.9999754 180.9213556
-0.0002699995239 42.9537124 -76.50898639
-200.25027 250.5404743 -169.8468134
-178.68809 52.5568034 7.419935615
-32.25419 -2.46022023e-05 107.8577776
-132.79191 6.680122398 68.39149361
-221.94876 -2.46022023e-05 -177.5706264
-139.62753 -1.750023602 47.16826661
-115.30356 250.6057391 -105.0000974
-208.826 14.1261844 -32.70416239
-67.34129 27.9113484 129.2878766
-239.10492 133.8552344 -107.0000974
-246.3952 234.4884673 -107.0000974
-200.25027 157.0169774 -196.5217384
-25.79667 -2.46022023e-05 -171.4251254
-153.17627 65.5841314 41.94126661
-171.18431 25.6618634 23.61663561
-81.23427 47.6044314 -195.0000974
-197.25027 92.3361304 -136.5219964
-197.25027 8.709230398 -174.3445374
-63.67914 19.1972254 133.0145186
-162.64131 29.6291664 32.30985361
-200.25027 20.2988694 -156.4187144
-93.53918 21.4559814 102.6286236
-208.08239 114.8320164 -104.0000974
-215.28498 232.7186495 -107.0000974
-152.14199 22.9534194 -189.0000974
-197.25027 239.0803666 -170.2381124
-245.48401 45.7020194 -29.34140139
-200.75743 17.9461154 -52.96395339
-146.78311 50.9875394 39.88679061
-181.66056 18.9113114 12.95613561
-136.67076 -2.46022023e-05 19.41267361
-69.43557 63.2291064 118.5964876
-39.55379 -2.46022023e-05 -162.9453544
-25.83629 -2.46022023e-05 -25.87354239
-239.5491 60.1507674 -22.91174639
-130.85466 9.804965398 -189.0000974
-233.68009 40.7341844 -189.0000974
-27.16686 55.5154924 170.1698186
-197.25027 157.2800234 -171.2268654
-90.44431 -2.46022023e-05 54.84789661
-21.08519 30.0365224 -189.0000974
-0.0002699995239 17.8913444 179.0988956
-141.22034 32.1930834 -189.0000974
-122.45392 42.6682084 -195.0000974
-79.57456 62.3441814 -195.0000974
-62.95706 41.4970844 -195.0000974
-16.2312 174.5169334 -105.0000974
-142.76073 -2.46022023e-05 -153.3729034
-214.10741 45.4302304 -26.74367939
-80.79103 -1.128103602 -189.0000974
-220.85554 36.9796364 -189.0000974
-28.65784 -2.46022023e-05 -4.354932385
-38.69519 60.4958294 149.8782306
-221.94709 51.5444294 -104.0000974
-119.65744 -2.46022023e-05 -109.2361194
-23.36379 0.0665973978 174.0398616
