# .PCD v0.7 - Point Cloud Data file format
VERSION 0.7
FIELDS x y z
SIZE 4 4 4
TYPE F F F
COUNT 1 1 1
WIDTH 1237
HEIGHT 1
VIEWPOINT 0 0 0 1 0 0 0
POINTS 1237
DATA ascii
-120.648986 67.5953794 -61.50009739
-107.526524 -2.460195401e-05 -35.54305939
-0.0002729992684 48.1356854 76.43969761
-228.904044 -2.460195401e-05 -27.21313939
-198.718673 5.700872398 -61.50009739
-0.0002729992684 60.1332074 -33.71605339
-9.241334999 63.1303884 -67.50009739
-223.884146 -2.460195401e-05 11.30329461
-211.575464 22.3427224 -61.50009739
-159.931691 45.9131864 -61.50009739
-56.696002 -2.460195401e-05 -27.89397339
-112.74546 23.6536944 -67.50009739
-20.206782 64.6796904 -67.50009739
-45.643257 -2.460195401e-05 -6.586524386
-251.99753 -2.460195401e-05 57.52797561
-51.247824 22.9678124 -67.50009739
-83.359419 12.8056994 -61.50009739
-12.14632 -2.460195401e-05 76.20437561
-0.0002729992684 66.3494814 70.73505061
-106.4066 -2.460195401e-05 57.75036261
-0.0002729992684 51.9831294 30.58271361
-20.461125 -2.460195401e-05 3.304664614
-0.0002729992684 6.420510398 5.759357614
-0.0002729992684 47.0176524 42.91184861
-50.764771 -2.460195401e-05 -54.07176839
-55.805391 -2.460195401e-05 8.453692614
-0.0002729992684 132.8465264 56.08066561
-45.628934 7.605679398 -61.50009739
-108.808598 -2.460195401e-05 27.74678761
-188.199177 -2.460195401e-05 45.01825561
-0.0002729992684 33.1160184 -8.432336386
-21.529959 37.5634294 -67.50009739
-38.056232 -2.460195401e-05 -36.49680539
-0.0002729992684 123.5331454 53.53413361
2.291234001 49.7094314 -61.50009739
-235.239321 -2.460195401e-05 58.33856661
-4.050514999 10.8195534 -61.50009739
-125.092798 -2.460195401e-05 -25.41655639
-0.0002729992684 28.3635824 20.07934361
-29.570607 27.8374164 -61.50009739
-231.273421 -2.460195401e-05 35.54969261
-159.665504 -2.460195401e-05 50.30813961
-131.517481 -0.101582602 -61.50009739
-148.595022 -2.460195401e-05 -24.49089039
-153.327177 -2.460195401e-05 13.18874461
-116.146356 -2.460195401e-05 -48.66513439
-0.0002729992684 81.3175194 73.48048161
-92.576915 63.0764174 -67.50009739
-100.797348 35.9481244 -67.50009739
-39.739753 -2.460195401e-05 18.11231961
-91.932535 -2.460195401e-05 45.91374461
-98.158671 25.9666164 -67.50009739
-153.339989 19.8160424 -61.50009739
-96.72292 -2.460195401e-05 -43.02469439
-0.0002729992684 61.5724284 -7.339807386
-61.379025 52.9578484 -61.50009739
-215.763265 11.6123214 -67.50009739
-16.2245 -2.460195401e-05 -41.17912339
-252.042485 25.9871064 -61.50009739
-3.080887999 -0.04918960195 -67.50009739
-36.211066 14.0887564 -67.50009739
-43.726415 43.2408344 -67.50009739
-57.51 61.2543204 -67.50009739
-189.888966 24.3777084 -67.50009739
-193.523017 -1.926711602 -61.50009739
-37.432293 24.2392824 -61.50009739
-99.172015 -2.460195401e-05 54.15453161
-0.0002729992684 40.6336064 7.578934614
-140.645889 5.232291398 -61.50009739
-0.0002729992684 13.0691904 45.02991361
-175.460348 -2.460195401e-05 -30.09382939
-35.796879 66.1446734 -67.50009739
-87.66844 59.3297894 -61.50009739
-67.005083 -2.460195401e-05 4.054631614
-84.010072 -2.460195401e-05 -46.70676039
-74.139398 3.386464398 -67.50009739
-217.914904 -2.345801602 -61.50009739
-0.0002729992684 38.6830314 -29.40332639
-204.389539 -2.460195401e-05 -33.94989539
-106.988869 -2.460195401e-05 4.293375614
-238.905076 6.333433398 -61.50009739
-172.324678 63.5004224 -61.50009739
-0.0002729992684 18.0642694 -47.92333839
-140.683232 30.0317654 -61.50009739
-178.533657 -2.460195401e-05 61.86340961
-159.526545 32.8026724 -61.50009739
-16.705067 2.881827398 -67.50009739
-77.749547 -2.460195401e-05 60.71395661
-155.158706 24.0825524 -67.50009739
-0.0002729992684 6.029560398 31.22466061
-0.0002729992684 20.0541374 52.70730161
-53.270138 52.5061714 -67.50009739
-145.645147 46.8258624 -67.50009739
-0.0002729992684 107.0364454 25.76889561
-67.984004 20.4093214 -67.50009739
-84.959055 -2.460195401e-05 -23.47130039
-70.273384 58.3622994 -67.50009739
-0.0002729992684 34.0342504 -40.01436839
-242.930299 63.3956494 -61.50009739
-194.749834 62.9910964 -61.50009739
-126.764392 29.0826044 -61.50009739
-156.748622 56.9958844 -67.50009739
-171.419312 18.8211634 -67.50009739
-230.391653 -2.460195401e-05 -44.98335839
-208.062351 -2.460195401e-05 66.47584261
2.256321001 34.2626734 -61.50009739
-221.039972 60.7325644 -61.50009739
-31.150475 60.4288234 -61.50009739
-114.867158 -2.460195401e-05 6.484532614
-159.998985 14.2440574 -67.50009739
-191.29999 -2.460195401e-05 -25.20530839
-8.593911999 -2.460195401e-05 -27.02111139
-133.873742 -2.460195401e-05 51.50738061
-63.770352 36.4444764 -67.50009739
1.875070001 15.5055634 -61.50009739
-88.362937 12.8171224 -67.50009739
-197.984629 37.8682964 -61.50009739
-234.150754 9.941827398 -67.50009739
-237.395368 -2.460195401e-05 28.13243461
-189.535333 -2.460195401e-05 0.05299661364
-159.992302 8.816699398 -61.50009739
-40.76413 21.6541914 -67.50009739
-232.428084 60.7751474 -67.50009739
-26.329757 67.9999754 -61.82523839
-0.0002729992684 49.9508294 -3.132396386
-88.619299 66.5911534 -61.50009739
-246.941325 54.1409044 -67.50009739
-0.0002729992684 23.7267284 -25.34978639
-26.959149 -2.460195401e-05 29.85018861
-82.558883 23.7560014 -67.50009739
2.265906001 -2.460195401e-05 71.67018861
-49.447501 67.9999754 -65.57283639
-109.914755 -2.460195401e-05 18.92569161
-0.0002729992684 85.3820924 36.66268161
-11.343925 34.5201674 -61.50009739
-205.5856 61.6379994 -67.50009739
-228.911802 6.774117398 -61.50009739
-54.308098 17.8944844 -61.50009739
-0.0002729992684 44.2716884 52.90223561
-201.510244 1.704422398 -67.50009739
-32.519327 0.831263398 -67.50009739
-127.301744 -2.460195401e-05 -55.63177339
-75.284385 20.0508484 -61.50009739
-249.850542 44.4666524 -61.50009739
-0.0002729992684 20.5884244 -6.742511386
-227.188059 28.1947344 -61.50009739
-185.32347 6.238913398 -67.50009739
-127.930897 -2.460195401e-05 60.96343361
-202.587456 30.8865954 -61.50009739
-0.0002729992684 36.5637454 69.05125161
-117.381005 -2.460195401e-05 44.95412561
-239.080333 19.8798834 -67.50009739
-48.655371 -2.460195401e-05 45.79008361
-239.741189 1.450592398 -67.50009739
-188.360575 28.9185344 -61.50009739
-237.202448 52.3463814 -61.50009739
-198.052018 14.0938694 -61.50009739
-213.431984 -2.460195401e-05 -45.80776939
-12.159975 28.2952064 -67.50009739
-0.0002729992684 107.5821984 67.99453761
-155.787328 -2.460195401e-05 -43.75206639
-60.867505 -2.460195401e-05 -42.68272639
-145.921164 31.9960044 -67.50009739
-211.238439 49.1595944 -61.50009739
-240.976364 -2.460195401e-05 14.44639561
-50.812257 -2.460195401e-05 -40.85553839
-224.746609 -2.460195401e-05 -50.82432139
-241.973455 -2.460195401e-05 -32.36026439
-0.0002729992684 153.5310374 59.92876361
-80.835654 30.6729384 -67.50009739
-0.0002729992684 8.563080398 -4.271382386
-0.0002729992684 165.8155644 77.04856661
-119.075519 50.6309624 -61.50009739
-30.288739 56.8868074 -67.50009739
-0.0002729992684 30.9141004 -23.35202439
-215.229563 31.2772174 -67.50009739
-219.077004 2.393047398 -67.50009739
-203.7399 -2.460195401e-05 -18.15965039
-128.959637 60.3423774 -61.50009739
-193.144947 13.8668304 -67.50009739
-0.0002729992684 59.4096714 28.77094361
-138.722519 -2.460195401e-05 75.85332361
-243.750829 33.6736454 -67.50009739
-74.244195 59.3297004 -61.50009739
-149.41142 66.7185874 -61.50009739
-0.0002729992684 7.914807398 -22.56894139
-42.828328 -2.460195401e-05 -41.55709839
-0.0002729992684 82.1749194 1.132704614
-0.0002729992684 82.5923774 30.30958261
-126.744954 6.314923398 -61.50009739
-60.564352 23.5787004 -67.50009739
-219.468059 -2.460195401e-05 50.36953061
-23.295853 4.511633398 -61.50009739
-0.0002729992684 78.1887184 46.65333861
-8.603099999 -2.460195401e-05 68.37755961
-1.259655999 -2.460195401e-05 56.79694061
-155.742216 7.111367398 -67.50009739
-115.790641 6.642110398 -67.50009739
-20.834017 14.4350304 -61.50009739
-211.825887 39.9208694 -67.50009739
-164.636576 19.8819364 -67.50009739
-110.216978 17.7210364 -61.50009739
-0.0002729992684 15.3642354 -0.1674413864
-17.809837 43.4311474 -67.50009739
-103.997762 52.8931114 -67.50009739
-167.941584 -2.460195401e-05 -0.3885333864
-175.499869 57.1578584 -61.50009739
-129.281193 9.086935398 -67.50009739
-129.48187 46.2729534 -61.50009739
-28.604279 -2.460195401e-05 53.59194161
-0.0002729992684 32.8791694 58.20430961
-28.636246 -2.460195401e-05 66.56300061
-38.4351 -2.460195401e-05 -56.67477239
-40.150594 -2.460195401e-05 56.65406761
-168.319331 19.5601254 -61.50009739
-38.805981 -2.460195401e-05 35.41406361
-204.44026 22.9837234 -61.50009739
-185.664399 -2.460195401e-05 -50.76893339
-97.973881 54.5539174 -61.50009739
-175.812544 -2.460195401e-05 21.26597961
-132.065626 -2.460195401e-05 78.30199061
-200.903071 67.5301274 -61.50009739
-129.915784 17.0596804 -67.50009739
-0.0002729992684 161.1118824 72.08490161
-244.495813 66.5477594 -67.50009739
-114.277118 -2.460195401e-05 59.77438061
-208.388553 -0.07287160195 -61.50009739
-148.169768 15.4002814 -67.50009739
-0.0002729992684 23.6460094 67.95762561
-228.10438 36.6129544 -67.50009739
-194.830733 56.3224064 -61.50009739
-81.036896 67.7866324 -61.50009739
-249.121337 28.9362124 -67.50009739
-0.0002729992684 4.899187398 21.99673661
-74.999702 27.5158664 -67.50009739
-197.22667 -2.460195401e-05 17.62794461
-0.0002729992684 23.2621124 37.05696061
-0.0002729992684 92.1632184 58.82265261
-14.801639 54.6957444 -61.50009739
-80.444741 35.6384484 -61.50009739
-116.294644 54.2684194 -67.50009739
-158.09336 -2.460195401e-05 56.73546061
-0.0002729992684 131.8353854 71.68626261
-87.413191 37.0811084 -61.50009739
1.665666001 6.335811398 57.28028961
-0.0002729992684 74.7018784 66.38277661
-103.538487 26.5604174 -61.50009739
-113.074424 30.4122734 -67.50009739
-111.538554 -2.460195401e-05 73.36406761
-0.0002729992684 76.9724854 -12.64598939
-144.380472 41.8147334 -61.50009739
-124.36778 -2.460195401e-05 -41.50789839
-94.550977 17.2304974 -61.50009739
-0.0002729992684 16.9991044 -17.76392739
-152.261437 30.2006824 -67.50009739
-0.0002729992684 63.9242414 52.16598361
-204.020147 55.2172284 -67.50009739
-119.933423 7.665535398 -61.50009739
-169.883496 -2.460195401e-05 49.00303861
-125.297723 -2.460195401e-05 23.87478661
-235.131524 -2.460195401e-05 -8.545696386
-0.0002729992684 36.3443504 32.43837761
-54.776065 -2.460195401e-05 54.76301061
-0.0002729992684 140.1523184 57.59020861
-0.0002729992684 108.4873324 36.42583261
-0.0002729992684 46.7406324 65.14436861
-226.39494 -2.460195401e-05 74.48143861
-81.337698 47.8506034 -61.50009739
-56.489525 -2.460195401e-05 -12.12531539
-151.861811 67.9999754 -67.35563339
-100.804928 -2.460195401e-05 68.63891261
-62.057012 9.885044398 -61.50009739
-231.928725 56.5597614 -61.50009739
-37.341186 -2.460195401e-05 4.458348614
-246.183975 1.136322398 -67.50009739
-92.164629 -2.460195401e-05 76.27042461
-152.63404 -2.460195401e-05 23.36040361
-0.0002729992684 67.8303314 -21.26488839
-213.576589 64.1708564 -61.50009739
-221.610448 45.2033424 -61.50009739
-135.694237 23.8525984 -61.50009739
-104.156948 10.9900664 -67.50009739
-63.917266 -2.460195401e-05 28.52688161
-166.835602 44.8651754 -67.50009739
-181.915988 55.4002494 -61.50009739
-119.665864 48.4569394 -67.50009739
-209.335987 15.0165694 -67.50009739
-142.826133 -2.460195401e-05 38.73077161
-248.768498 -2.460195401e-05 13.45906961
-0.0002729992684 44.9006594 21.98798161
-249.830337 -2.460195401e-05 31.53197261
-130.996549 -2.460195401e-05 -16.99427439
-224.015128 55.0759594 -61.50009739
-70.713737 -2.460195401e-05 -23.53281639
-113.84649 1.486797398 -61.50009739
-146.354619 1.047631398 -61.50009739
-135.258323 -2.460195401e-05 -34.94313139
-144.782854 55.5433514 -61.50009739
-197.642469 -2.460195401e-05 -51.76239339
-100.138286 4.827703398 -61.50009739
-220.682495 -2.460195401e-05 5.802710614
-102.966211 40.6843554 -61.50009739
-138.123963 15.2710704 -61.50009739
-167.404628 -1.330833602 -61.50009739
-0.0002729992684 62.8338344 76.00969861
-227.33064 54.9325244 -67.50009739
-162.293803 52.9242114 -61.50009739
-0.0002729992684 50.5557514 13.44451561
-5.764692999 13.0315554 -67.50009739
-116.275328 44.9650394 -61.50009739
-218.274873 -2.460195401e-05 -39.27175939
-114.47047 -2.460195401e-05 30.54815861
-217.170928 13.6572564 -61.50009739
-0.0002729992684 80.5946994 52.48603561
-193.597262 -2.460195401e-05 26.93999461
-0.0002729992684 91.4961514 35.18261161
-182.14333 14.8852654 -61.50009739
-75.626824 9.844562398 -67.50009739
-0.0002729992684 33.7250354 50.92210561
-210.291409 6.960298398 -67.50009739
-0.0002729992684 6.890972398 -28.75703839
-184.599481 30.4767834 -67.50009739
-219.498978 61.6460714 -67.50009739
-0.0002729992684 72.7193314 32.59948161
-39.747577 60.6942914 -67.50009739
-110.584564 47.5074724 -67.50009739
-113.073551 27.6646104 -61.50009739
-0.0002729992684 52.2200704 69.75686061
-231.82568 19.5354044 -67.50009739
-134.985561 54.1216854 -67.50009739
-121.002024 28.2552574 -67.50009739
-20.604549 47.7878304 -61.50009739
-163.869372 -2.460195401e-05 35.69768561
-158.477633 -2.460195401e-05 -28.18975739
-134.056164 -2.460195401e-05 38.56987361
-0.0002729992684 112.2906994 45.32333161
-39.67009 -2.460195401e-05 24.94123361
-152.788604 -2.460195401e-05 63.33537161
-46.348765 6.044636398 -67.50009739
-6.866261999 41.6498664 -61.50009739
-30.298292 -2.460195401e-05 -25.86586239
-0.0002729992684 22.2930124 44.20406461
-53.904134 24.0552734 -61.50009739
-180.206657 10.3622214 -67.50009739
-200.604845 -2.460195401e-05 -11.33681939
-6.590069999 -2.460195401e-05 5.268125614
-179.560535 -2.460195401e-05 54.97573261
-47.852042 42.7841464 -61.50009739
-48.053795 36.0480114 -67.50009739
-109.252579 40.8672524 -67.50009739
-0.0002729992684 23.3004644 -31.65490339
-0.0002729992684 96.9389134 65.16914161
-224.252437 -2.460195401e-05 32.83133061
-230.097074 44.9027074 -67.50009739
-98.979251 47.6367534 -67.50009739
-27.889199 50.0945324 -67.50009739
-163.099513 62.7135094 -67.50009739
-166.521153 5.222999398 -67.50009739
-31.611707 10.1179094 -67.50009739
-0.0002729992684 70.8719774 17.33614461
-42.277513 13.8809754 -67.50009739
-231.522796 -2.460195401e-05 -21.74020239
-94.767204 -2.460195401e-05 68.17751361
-68.773847 33.0662494 -67.50009739
-138.447752 -2.460195401e-05 -20.21903839
-182.796219 65.9442784 -67.50009739
-122.591821 42.5723674 -67.50009739
-3.885963999 25.3302114 -61.50009739
-0.0002729992684 41.0433054 -39.57587939
-160.607727 -2.460195401e-05 -56.33748639
-84.229496 2.177014398 -61.50009739
-175.285036 -2.460195401e-05 70.80213261
-151.702791 -2.460195401e-05 -54.05238039
-83.691083 9.076098398 -67.50009739
-0.0002729992684 55.1387714 43.94320961
-0.0002729992684 16.8475864 30.34469761
-185.416825 36.9893334 -67.50009739
-71.809232 1.603966398 -61.50009739
-44.727681 -2.460195401e-05 70.17679661
-16.029581 23.7765134 -67.50009739
-235.438176 -2.460195401e-05 64.28351461
-0.0002729992684 47.9774404 34.97219761
-100.834072 -2.460195401e-05 -1.158689386
-0.0002729992684 30.4488764 25.63984261
-105.319296 -2.460195401e-05 64.79073761
-0.0002729992684 79.8623094 6.608399614
-158.294003 40.2262004 -61.50009739
-0.0002729992684 87.5598724 12.22629361
-137.103778 64.4842334 -61.50009739
-86.549086 -2.401037602 -67.50009739
-217.105108 -2.460195401e-05 19.18021561
-172.173943 -2.460195401e-05 11.22826161
-130.501992 -1.613909602 -67.50009739
-56.657576 -2.460195401e-05 74.32123761
-122.241165 61.9313184 -61.50009739
-6.051994999 3.269799398 -61.50009739
-83.0777 -2.460195401e-05 -33.30891139
-104.590186 -2.460195401e-05 31.83244661
-48.292196 17.9146404 -61.50009739
-0.0002729992684 59.7338624 -15.23339839
-68.691835 5.528992398 -67.50009739
-116.805965 37.1021324 -67.50009739
-232.950745 31.5713304 -61.50009739
-207.637201 31.3291264 -67.50009739
-155.002003 -2.460195401e-05 46.80465761
-29.96634 -2.460195401e-05 -54.86769539
-247.793824 -2.460195401e-05 -35.96740339
-28.650364 -2.460195401e-05 -40.30323839
-0.0002729992684 59.8349064 4.383758614
-40.177643 -2.460195401e-05 41.06389161
-124.87552 -2.460195401e-05 0.4330546136
-48.740809 -2.201415602 -61.50009739
-0.0002729992684 107.6043024 73.78750061
-98.454751 -2.460195401e-05 42.03346761
-31.08114 -2.460195401e-05 17.86186061
-0.0002729992684 24.6765604 -17.42628039
-0.0002729992684 29.6423514 73.48595161
-205.737168 38.7701644 -67.50009739
-115.553188 -2.460195401e-05 -42.92050839
-175.149285 11.8845504 -61.50009739
-178.006196 0.007713398046 -67.50009739
-0.0002729992684 160.1379684 78.00213861
-20.974196 -2.460195401e-05 -2.426017386
-218.874844 -2.460195401e-05 29.35848361
-68.979679 -2.460195401e-05 -45.90155039
-155.315723 63.4076284 -67.50009739
-106.9089 16.5324434 -67.50009739
-187.768029 2.302883398 -61.50009739
-204.827653 -2.460195401e-05 -0.7521593864
2.117106001 0.499975398 -42.53143539
-191.057474 6.286987398 -67.50009739
-0.0002729992684 90.2501564 44.16544961
-108.158294 -2.460195401e-05 -55.91813039
-86.865088 -2.460195401e-05 29.62548461
-0.0002729992684 83.2355634 65.64608361
-237.236408 -2.460195401e-05 -21.50743639
-0.0002729992684 60.4247514 47.65141361
-0.0002729992684 44.9442334 3.831976614
-73.575451 30.4308884 -61.50009739
-0.0002729992684 69.2154044 78.34563161
-245.709466 -2.460195401e-05 -24.93595239
-62.355032 -2.460195401e-05 16.56353961
-48.018582 -2.460195401e-05 17.56477061
-67.33685 -2.460195401e-05 60.30622761
-0.0002729992684 27.7849154 -35.65355239
-105.309106 45.8501784 -61.50009739
-0.0002729992684 8.000564398 47.57154261
-0.0002729992684 69.1250414 45.37008361
-243.134521 -2.460195401e-05 -58.47294339
-75.208532 -2.460195401e-05 20.30515161
-1.099527999 -2.460195401e-05 -8.668771386
-122.517604 23.5879114 -61.50009739
-0.0002729992684 26.5010424 -6.153420386
-7.822890999 -2.460195401e-05 -5.548412386
-168.522883 -2.460195401e-05 32.51903361
0.8244230007 0.499975398 -35.33437239
-54.392738 27.7958064 -67.50009739
-198.093132 60.7381034 -67.50009739
-32.783564 -2.460195401e-05 -8.239526386
-12.026788 37.6160124 -67.50009739
-110.31312 35.3645034 -67.50009739
-25.171012 9.791026398 -61.50009739
-127.851293 -2.460195401e-05 -50.06704439
-0.0002729992684 61.7476534 -49.51417339
-0.0002729992684 56.7821394 -43.62126639
-1.890796999 32.5142624 -67.50009739
-138.446678 -2.460195401e-05 -50.48361539
-164.829295 -2.460195401e-05 59.87401561
-163.390101 -2.460195401e-05 14.61817161
-0.0002729992684 14.1449144 18.03228261
-105.395387 14.9686324 -61.50009739
-0.0002729992684 124.2410534 78.35107761
-0.0002729992684 29.3244474 9.819164614
-175.445014 5.937519398 -61.50009739
-98.606732 -2.460195401e-05 16.07658461
-0.0002729992684 54.7303144 -32.53331439
-4.450258999 -2.460195401e-05 -48.46995039
-241.15095 -2.460195401e-05 60.32958561
-229.659399 -2.460195401e-05 60.41317661
-212.961161 55.5547524 -61.50009739
-0.0002729992684 54.5214944 -17.21154939
-0.0002729992684 20.5090674 25.84087861
-48.726714 -2.460195401e-05 -0.9893943864
-96.706329 -2.460195401e-05 21.97137561
-6.594917999 -2.460195401e-05 24.17148761
-0.0002729992684 76.7539424 -3.488136386
-25.265401 -2.460195401e-05 -50.56296739
-43.02732 55.6877654 -67.50009739
-0.0002729992684 92.1200904 70.09581961
-98.828967 34.0098834 -61.50009739
-6.610500999 47.0648194 -67.50009739
-64.268423 16.3713734 -67.50009739
-191.018837 -2.460195401e-05 12.00490961
-0.0002729992684 102.8619704 44.49573161
-178.969788 21.5127344 -67.50009739
-0.0002729992684 38.2393224 57.05744361
-0.0002729992684 99.9330014 24.92525061
-193.460906 -2.460195401e-05 43.01041661
-238.253452 62.9946014 -67.50009739
-0.0002729992684 126.3175054 46.90832461
-11.635988 10.8822704 -67.50009739
-64.446302 48.0598114 -61.50009739
-0.0002729992684 51.8841854 39.54897161
-46.398948 -2.460195401e-05 59.11032761
-19.307221 62.3999104 -61.50009739
-196.681129 -0.840649602 -67.50009739
-203.196058 -2.460195401e-05 46.11880461
-0.0002729992684 125.6282394 69.42069361
-199.077323 10.3155594 -67.50009739
-0.0002729992684 118.6117784 55.85266561
-172.434507 50.1320184 -67.50009739
-0.0002729992684 136.4436194 68.59860961
-0.0002729992684 10.3783974 21.97949361
-74.177452 -2.460195401e-05 -29.88237139
-0.0002729992684 97.9611584 47.83594261
-183.581421 -0.187485602 -67.50009739
-204.083659 16.3658414 -67.50009739
-0.0002729992684 29.7843394 -15.60499339
-0.0002729992684 49.6818964 -12.39168939
-0.0002729992684 66.4552814 31.20113161
-0.0002729992684 48.0916514 -36.63710839
-2.672762999 60.6017204 -67.50009739
-95.09839 -2.460195401e-05 -11.09633839
-17.060301 19.3761014 -61.50009739
-51.649535 -2.460195401e-05 -25.32578039
-166.502231 -2.460195401e-05 -39.29028639
-226.442135 -2.460195401e-05 16.43967861
-176.375263 -2.460195401e-05 -19.38098039
-0.0002729992684 56.2355124 11.06766961
-0.0002729992684 54.5004074 0.6547576136
-121.968831 -2.460195401e-05 -36.70826039
-46.451197 55.9996434 -61.50009739
-228.98564 14.2089254 -61.50009739
-233.310841 -2.242388602 -61.50009739
-245.220719 -2.460195401e-05 20.63557561
-30.23784 34.5789654 -61.50009739
-98.159106 -2.460195401e-05 -56.33610939
-150.61042 61.5201944 -61.50009739
-111.211704 43.2856194 -61.50009739
-197.426723 5.128988398 -67.50009739
0.8935200007 54.7151264 -57.34840339
-61.36741 4.959237398 -67.50009739
-0.0002729992684 65.6635994 21.10764061
-37.813954 1.398145398 -67.50009739
-0.0002729992684 15.5540944 55.54838261
-84.864531 -2.460195401e-05 54.22357661
-0.0002729992684 44.6327464 -3.128449386
-0.0002729992684 50.5866824 -24.61736439
-0.0002729992684 143.0266634 62.06306061
-142.877319 15.8683914 -67.50009739
-134.400748 41.2826254 -61.50009739
-0.0002729992684 108.5692964 58.30216161
-99.468731 20.8268714 -67.50009739
-0.0002729992684 168.8099064 71.54556361
-186.586896 -2.460195401e-05 27.76313461
-204.30334 12.5768614 -61.50009739
-0.0002729992684 11.5911944 6.888013614
-0.0002729992684 22.1157644 9.496960614
-130.989075 -2.460195401e-05 8.727703614
-118.030488 -2.460195401e-05 1.614620614
-11.628729 -2.460195401e-05 6.825092614
-68.770598 23.8303884 -61.50009739
-0.0002729992684 38.3477684 -24.15015339
-10.252554 -2.460195401e-05 -56.66867439
-19.910593 67.9999754 -62.99537739
-156.180998 15.3936714 -61.50009739
-207.495173 -2.460195401e-05 28.43554961
-15.763307 38.7731904 -61.50009739
-226.554824 -2.460195401e-05 -20.05711539
-0.0002729992684 81.2527934 19.56227161
-0.0002729992684 61.2966594 56.86072461
0.1194430007 67.9999754 -62.60853939
-0.0002729992684 23.8478044 61.12157561
-93.647509 -2.460195401e-05 36.82541461
-169.701584 63.9100354 -67.50009739
-26.83718 -2.460195401e-05 4.933367614
-97.346532 15.9784644 -67.50009739
-177.112296 45.2637824 -67.50009739
-168.250073 26.1475554 -67.50009739
-0.0002729992684 22.5401584 -1.913710386
-0.0002729992684 17.5123444 -42.36318739
-0.0002729992684 15.0824984 -32.91999539
-225.885156 -2.460195401e-05 47.15479061
-142.872449 -2.460195401e-05 20.12709961
-0.0002729992684 105.6350364 63.17642761
-41.011717 41.9262224 -61.50009739
-185.331527 -2.460195401e-05 -23.02620339
-26.200318 43.7790574 -61.50009739
-251.356444 -2.460195401e-05 42.49246861
-248.587967 64.0414844 -61.50009739
-0.0002729992684 1.627455398 3.803905614
-20.105059 -2.460195401e-05 62.35588961
-147.139424 -2.460195401e-05 62.93513061
-8.578728999 53.3893804 -67.50009739
-148.93109 -2.460195401e-05 -13.84812639
-55.219656 47.7589134 -67.50009739
-231.497966 -2.460195401e-05 24.26822161
-0.0002729992684 21.6426824 -36.85073639
-184.863707 -2.460195401e-05 55.68541261
-54.358112 -2.460195401e-05 16.93459361
-114.809813 59.1557164 -67.50009739
-0.0002729992684 115.1838074 66.34134261
-0.0002729992684 54.2858384 65.09467761
-78.350573 65.8573274 -67.50009739
-0.0002729992684 120.4583624 42.15454961
-173.029164 -2.460195401e-05 -0.3096753864
-0.0002729992684 61.2617474 9.267385614
-162.403002 -2.262685602 -61.50009739
-0.0002729992684 48.6253224 47.73470761
-58.56616 48.7260464 -61.50009739
-2.624496999 67.9999754 -67.00793439
-245.234552 42.0836924 -61.50009739
-163.005115 8.879684398 -67.50009739
-70.958819 -2.460195401e-05 75.62919761
1.425302001 137.1230114 49.73938761
-0.0002729992684 5.786786398 12.51223861
-0.0002729992684 10.3230094 -44.95732539
-0.0002729992684 101.6703104 66.91424261
-180.71584 -2.460195401e-05 72.24392061
-21.37237 -2.460195401e-05 26.42872961
-0.0002729992684 53.9862684 -47.81381239
-41.187464 5.225177398 -61.50009739
-0.0002729992684 72.1724614 -23.81388539
-0.0002729992684 148.2033354 74.50187361
-30.391569 67.9999754 -65.43675339
-224.025647 -2.460195401e-05 62.16489861
-213.975092 -2.460195401e-05 -59.44312339
-211.227605 19.6719284 -67.50009739
-0.0002729992684 95.0873624 23.59724261
-0.0002729992684 2.235146398 -46.74240939
-0.0002729992684 73.4426104 22.61619961
-0.0002729992684 65.3910924 12.72188561
-0.0002729992684 18.3284814 37.94575561
-68.290966 -2.460195401e-05 -9.900288386
-44.57702 21.2518504 -61.50009739
-0.0002729992684 53.7579944 -6.355311386
-139.506447 67.9999754 -65.38980739
-0.0002729992684 77.0447444 70.91587961
-8.651338999 19.5794124 -61.50009739
-126.09488 -2.460195401e-05 -60.45869739
-144.924393 4.024379398 -67.50009739
-174.535024 -2.460195401e-05 47.28620561
-0.0002729992684 31.5823424 33.81637961
-80.151051 4.988727398 -61.50009739
-193.141411 64.6934234 -67.50009739
-226.327754 -2.460195401e-05 -31.43987139
-93.149017 35.7872014 -61.50009739
-0.0002729992684 58.5523034 -38.39936939
-0.0002729992684 61.8101184 39.17698461
-38.923825 65.1898714 -61.50009739
-0.0002729992684 67.6029644 57.31771261
1.673495001 65.8288524 -40.87262839
-245.993643 -2.460195401e-05 -14.44767139
-74.417899 -2.460195401e-05 -35.01146739
-0.0002729992684 56.2267124 21.89057561
-117.589666 67.9999754 -65.34506239
-0.0002729992684 78.6155384 77.59766461
-17.337598 -2.460195401e-05 15.72509961
-58.092803 21.4828854 -61.50009739
-180.297095 -2.460195401e-05 -29.23494739
-142.473584 -2.460195401e-05 55.39068361
-0.0002729992684 48.3946504 25.96827161
-168.444513 -2.460195401e-05 71.05003261
-120.589114 -2.460195401e-05 -2.687899386
-175.885087 29.1445254 -61.50009739
-0.0002729992684 83.8428564 25.57679161
-0.0002729992684 58.4830084 -3.543887386
-0.0002729992684 60.0870264 71.61459461
-237.104902 34.4434704 -67.50009739
-0.0002729992684 88.4221564 73.28620461
-30.061917 -2.460195401e-05 9.283845614
-0.0002729992684 39.9657434 16.63083061
-45.962451 -2.460195401e-05 -54.94983239
-215.453365 18.2267874 -61.50009739
-0.0002729992684 149.2449104 62.26537061
-102.917501 24.8829324 -67.50009739
1.591823001 157.7718474 61.74464461
-242.690433 31.8186844 -61.50009739
-0.0002729992684 27.2929284 14.32728561
-0.0002729992684 10.7973404 58.28804161
-0.0002729992684 94.5457314 51.30306061
-198.584536 59.4171664 -61.50009739
-179.745112 -2.460195401e-05 -49.82682239
-0.0002729992684 84.0345364 55.91845461
-0.0002729992684 61.8191454 -28.61929839
-194.473813 -2.460195401e-05 58.54706161
-57.95033 2.248579398 -61.50009739
-0.0002729992684 129.5558894 52.52230761
-0.0002729992684 23.2314454 19.55236561
-0.0002729992684 71.6745844 37.53261261
-247.108158 21.2321014 -67.50009739
-157.874834 50.2941294 -61.50009739
-53.634817 67.9999754 -62.29192039
-0.0002729992684 20.0719214 -54.07281439
-0.0002729992684 107.7322924 48.80926061
-0.0002729992684 7.746957398 -17.74961039
-113.976627 -2.460195401e-05 11.22167561
-0.0002729992684 40.2505244 -34.82329639
-0.0002729992684 83.4547794 48.57382461
-0.0002729992684 35.2888974 -12.72879139
-0.0002729992684 6.761231398 -37.91253239
-0.0002729992684 76.5594394 16.19821361
-235.233236 27.7631234 -67.50009739
-0.0002729992684 24.4515934 -47.67569639
-9.512875999 -2.460195401e-05 33.89117861
-102.275784 -2.460195401e-05 -58.91867339
-3.897620999 -2.460195401e-05 67.40854661
-189.196934 42.7471074 -67.50009739
0.7992440007 97.4521584 14.49836561
-208.015894 -2.460195401e-05 2.834678614
-13.155198 -2.460195401e-05 -47.69542639
-0.0002729992684 45.1251674 9.231171614
-0.0002729992684 4.964291398 -52.71029739
-0.0002729992684 35.9766804 -48.72663139
-210.493313 -2.460195401e-05 35.30104361
-0.0002729992684 19.4740824 2.347124614
2.276686001 23.6242084 72.16017061
-77.436929 -2.460195401e-05 -19.35586739
-47.807566 -2.460195401e-05 7.180146614
-61.104226 -2.460195401e-05 -24.60175839
-0.0002729992684 40.9046044 -50.19892739
-21.163507 -2.460195401e-05 -10.42664439
0.4223590007 9.270736398 -58.50009739
-36.243188 -2.460195401e-05 59.38967461
-0.0002729992684 63.7190464 -36.85805039
-0.0002729992684 113.0095194 54.27483661
-92.740633 -2.460195401e-05 -31.84607939
-123.544509 -2.460195401e-05 -52.08467539
-0.0002729992684 5.497780398 41.42363161
-0.0002729992684 63.2713594 -11.76051039
-0.0002729992684 40.2867284 -9.392814386
-0.0002729992684 32.9392784 42.29782161
-239.138859 6.139992398 -67.50009739
-0.0002729992684 79.0757424 42.01184961
-0.0002729992684 55.5402764 54.40308361
-0.0002729992684 108.2812444 31.71115761
-82.782235 -2.460195401e-05 -39.36808839
-0.0002729992684 99.0386474 52.73900161
-154.827341 29.4155224 -61.50009739
-177.137915 67.9999754 -64.22981539
-0.0002729992684 40.8606714 35.82318861
-119.089449 -2.460195401e-05 19.99881561
-0.0002729992684 63.1361084 25.79280461
-42.909683 11.4352274 -61.50009739
-10.912674 39.1942454 -61.50009739
-0.0002729992684 99.9687804 37.43130361
-0.0002729992684 72.7414504 -15.05405939
-0.0002729992684 33.9047364 -30.10635339
-0.0002729992684 116.6023304 77.38772861
-0.0002729992684 25.3210734 23.73008561
-0.0002729992684 63.2110694 -18.34472739
-132.96168 11.9490124 -67.50009739
-4.292738999 -2.460195401e-05 -2.505312386
-167.632875 60.8991804 -61.50009739
-0.0002729992684 47.1960884 -53.38285639
-229.840361 -2.460195401e-05 -58.82166539
-0.0002729992684 149.4883844 69.30503161
-137.333832 -2.460195401e-05 22.01971561
-153.831232 3.046109398 -61.50009739
-192.697331 2.635388398 -61.50009739
-198.067488 38.4954564 -67.50009739
-0.0002729992684 70.2497464 6.674077614
-89.53437 -2.460195401e-05 18.00474661
-215.689533 64.2590274 -67.50009739
-24.092325 -2.460195401e-05 67.39276961
-0.0002729992684 34.9990264 20.53671561
0.1450670007 86.7252494 0.3818516136
-0.0002729992684 42.8121384 41.03432661
-0.0002729992684 30.6224694 47.51947761
-0.0002729992684 114.8118584 39.44358561
-0.0002729992684 4.788527398 53.27957961
-136.566644 28.3226784 -67.50009739
-0.0002729992684 103.8340904 57.04285961
-0.0002729992684 128.4332544 60.20368861
-0.0002729992684 40.3310914 21.63736061
-0.0002729992684 33.1741134 -35.51663439
-51.290955 -2.460195401e-05 64.95922361
-0.0002729992684 45.4826054 60.14131661
-134.233938 12.8630984 -61.50009739
-0.0002729992684 1.411623398 43.48042661
-228.839882 -2.460195401e-05 7.557205614
-69.335426 28.7348854 -61.50009739
-0.0002729992684 19.1906784 -24.82247739
-89.457529 -2.460195401e-05 -57.65409739
-233.832279 49.2711544 -61.50009739
-134.830356 2.447218398 -67.50009739
-0.0002729992684 27.7806874 58.82559961
-0.0002729992684 13.4131134 -50.19521539
-33.562333 -2.460195401e-05 -35.82213939
-0.0002729992684 135.6246434 60.21506161
-202.672982 -2.460195401e-05 -38.15300439
-0.0002729992684 47.0877084 -45.94405239
-0.0002729992684 28.6938444 -57.45478639
-216.954851 57.6841624 -61.50009739
-110.940735 2.145618398 -67.50009739
-0.0002729992684 64.4102604 5.123742614
-0.0002729992684 140.4100624 71.79767361
-0.0002729992684 35.9591754 2.542198614
-0.0002729992684 66.9923514 -4.845574386
-0.0002729992684 66.9006744 64.44686861
-166.855774 -2.460195401e-05 -4.762216386
-0.0002729992684 43.1993424 -23.28904939
-56.951075 60.4969414 -61.50009739
-125.881612 -2.460195401e-05 28.33277261
-222.103281 51.0115194 -61.50009739
-170.525545 -2.460195401e-05 37.59055661
-12.585752 -2.460195401e-05 46.84350761
0.1655000007 0.499975398 21.11958861
-167.984207 -2.460195401e-05 27.26992061
-0.0002729992684 22.2917964 56.59300061
-0.0002729992684 75.3509134 57.06330261
-116.994382 26.2543254 -67.50009739
-0.0002729992684 11.7427644 -19.77323639
-125.823077 -2.460195401e-05 70.62560361
-0.0002729992684 102.5621824 73.09525361
-155.325488 52.7551094 -67.50009739
-124.294952 50.2036904 -61.50009739
-207.195983 -2.460195401e-05 -47.21488539
-125.795174 64.6369884 -61.50009739
-23.161028 -2.460195401e-05 7.463750614
-84.132099 -2.460195401e-05 67.75200961
-0.0002729992684 74.8501634 43.41469861
-0.0002729992684 115.1382234 59.23507961
-0.0002729992684 44.4808264 73.90246361
-100.232768 -2.460195401e-05 30.96188761
-158.906036 4.463308398 -61.50009739
-0.0002729992684 63.4541274 34.46765361
-121.40645 -2.460195401e-05 46.80579561
-24.204052 52.2640964 -61.50009739
-207.233948 3.760430398 -67.50009739
-0.0002729992684 35.1899414 -2.637782386
-0.0002729992684 120.9953724 69.00833061
-0.0002729992684 61.3140714 65.08347761
-0.0002729992684 70.3621744 68.90142161
-129.87075 -2.460195401e-05 22.61993361
-158.160395 42.3407624 -67.50009739
-0.0002729992684 27.6898934 -42.85698039
-0.0002729992684 20.2924964 -14.84130939
-0.0002729992684 55.5397364 26.67622661
-74.877198 62.4977474 -67.50009739
-229.930628 49.5097814 -67.50009739
-114.44497 -2.460195401e-05 24.12914661
-84.800218 -2.460195401e-05 36.94683061
-160.261842 65.6974304 -61.50009739
-0.0002729992684 54.3633634 15.59060861
-110.760992 -2.460195401e-05 -22.24863039
-52.819178 -2.460195401e-05 44.47974561
-0.0002729992684 83.8729414 15.44279361
-80.50284 44.5196284 -67.50009739
-162.594536 67.9999754 -64.96109639
-62.021836 -2.460195401e-05 -53.69289939
-0.0002729992684 11.8345054 -7.132104386
-173.297386 57.1211044 -67.50009739
-0.0002729992684 11.2231404 -29.07663739
-56.415337 -2.460195401e-05 25.54360961
-106.540112 -2.460195401e-05 44.17665561
-188.651206 -2.460195401e-05 67.85462061
-110.068941 -2.460195401e-05 -39.03529339
-10.07242 44.5446934 -61.50009739
-101.333418 67.9999754 -66.88277439
-0.0002729992684 11.2039864 0.9858006136
-130.50483 67.9999754 -65.38051039
-122.859077 -2.460195401e-05 4.246979614
-245.744078 -2.460195401e-05 42.92395561
-245.600879 -2.460195401e-05 30.73436761
-241.642463 -2.460195401e-05 70.82164661
-216.488375 -2.460195401e-05 47.27260161
-208.537283 -2.460195401e-05 13.60165061
-117.182889 24.4853244 -61.50009739
-35.345917 -2.408691602 -61.50009739
-81.329512 62.4105814 -67.50009739
-136.245771 -2.460195401e-05 12.32851161
-10.316716 3.295603398 -61.50009739
-146.213847 -2.460195401e-05 50.55018961
-63.533602 -2.460195401e-05 71.03387261
-0.0002729992684 94.7885914 39.39120161
-239.93692 -2.460195401e-05 -39.56013239
-178.676001 -2.460195401e-05 28.94945161
-3.790498999 -2.460195401e-05 -38.29360039
-148.646598 -2.460195401e-05 1.830840614
-137.062652 2.962639398 -61.50009739
-191.992457 -2.460195401e-05 -18.10078839
-145.923146 13.0523684 -61.50009739
-51.388276 -2.460195401e-05 49.01794061
-101.038302 -2.460195401e-05 -9.615079386
-42.294495 39.2647024 -67.50009739
-97.951831 27.4320654 -61.50009739
-94.493843 11.1136084 -61.50009739
-0.0002729992684 1.489891398 13.27234461
-46.544736 0.524934398 -67.50009739
-35.925173 -2.460195401e-05 69.42795361
-27.500428 -2.460195401e-05 34.02799561
-7.375284999 -2.460195401e-05 41.58207361
-240.59385 54.8441124 -61.50009739
-118.126304 60.8418104 -61.50009739
-53.816801 -2.460195401e-05 -31.09210839
-11.502084 -2.460195401e-05 -30.05650839
-6.550237999 -2.460195401e-05 1.038207614
-25.496426 47.9240944 -61.50009739
-0.0002729992684 49.3893854 -57.99735939
-43.859858 -2.460195401e-05 17.03264961
-160.668025 21.2323954 -67.50009739
-58.963622 -2.460195401e-05 54.89685861
-167.308928 -2.460195401e-05 66.90072161
-98.642144 -2.460195401e-05 -17.67411739
-108.514804 53.0711114 -61.50009739
-11.500714 33.0697294 -67.50009739
-233.520941 21.8575524 -61.50009739
-51.346393 -2.460195401e-05 -10.17437139
-99.22172 -2.460195401e-05 -49.72979239
-161.093291 -2.460195401e-05 22.11342961
-34.049868 -2.460195401e-05 7.672711614
-64.585263 28.8599044 -61.50009739
-13.328735 62.6598074 -67.50009739
-125.791944 -2.460195401e-05 7.655738614
-161.51994 44.7070384 -67.50009739
-3.893624999 -2.460195401e-05 -60.26477039
-43.128903 -2.460195401e-05 -15.52851539
-40.930077 46.2380114 -67.50009739
-161.167727 32.7001034 -67.50009739
-190.262342 -2.460195401e-05 -35.53388739
-50.623654 59.3431354 -61.50009739
-144.49297 28.5856564 -61.50009739
-18.266534 52.7371194 -67.50009739
-201.086892 9.004399398 -61.50009739
-70.194342 -2.460195401e-05 1.537708614
-144.906856 -2.460195401e-05 42.21741861
-79.769938 9.019590398 -61.50009739
-228.369255 -2.460195401e-05 11.57743561
-232.418992 -0.359375602 -67.50009739
-68.634248 1.486123398 -67.50009739
-127.963336 51.9538814 -61.50009739
-183.34525 6.551948398 -61.50009739
-16.960737 15.9533224 -67.50009739
-25.00241 -2.460195401e-05 42.00546961
-217.637942 -2.460195401e-05 37.23578961
-178.1451 33.5098464 -61.50009739
-106.360662 36.0135384 -67.50009739
-35.067576 62.2066604 -67.50009739
-85.363861 43.4386644 -67.50009739
-7.662356999 63.8144464 -61.50009739
-124.212814 -2.460195401e-05 38.47857261
-123.16761 -2.460195401e-05 20.50057661
-33.832453 -2.460195401e-05 -56.79245739
-172.505297 1.345609398 -67.50009739
-199.323064 -2.460195401e-05 -40.70930739
-196.112968 -2.460195401e-05 23.85901361
-4.617192999 -2.460195401e-05 -26.97378839
-126.574754 -2.460195401e-05 45.77142861
-163.709477 6.280733398 -61.50009739
-184.149266 60.0654164 -61.50009739
-232.717308 -2.460195401e-05 -17.96905339
-146.678964 -2.460195401e-05 -9.937694386
-91.273381 -2.460195401e-05 -50.13732339
-89.813824 33.6742984 -61.50009739
-87.575194 -2.460195401e-05 -48.39576639
-45.863623 39.1794274 -61.50009739
-136.344593 33.0264744 -61.50009739
-15.740652 29.9054964 -67.50009739
-134.676129 -2.429292602 -61.50009739
-91.918657 -2.460195401e-05 22.03292361
-56.804039 54.1785964 -67.50009739
1.299155001 -2.460195401e-05 -4.291819386
-240.608994 -2.460195401e-05 30.33361561
-211.599487 36.0327614 -67.50009739
-64.712595 -2.460195401e-05 65.55226961
-89.125174 -2.460195401e-05 59.62992861
-218.921524 -2.460195401e-05 -48.67846439
-226.437749 20.5653804 -61.50009739
-247.99161 67.9999754 -61.70284239
-141.039516 54.6421534 -61.50009739
-8.310719999 -2.460195401e-05 56.18036761
-142.99205 -2.460195401e-05 74.18468661
-103.075563 -2.460195401e-05 -25.22040439
-70.769825 -2.460195401e-05 50.69640861
-210.24425 -2.460195401e-05 20.14625161
-79.979408 14.6201444 -61.50009739
-209.06709 -2.460195401e-05 -35.25257939
-231.835993 -2.460195401e-05 -6.606953386
-62.847519 67.1539794 -67.50009739
-69.383078 -2.460195401e-05 -50.89722739
-172.512638 -2.460195401e-05 -32.49784539
-236.10227 59.7953114 -67.50009739
-156.029399 -2.460195401e-05 -33.30625939
-176.063582 53.4063434 -61.50009739
-186.010717 -2.460195401e-05 31.51247961
-75.42952 48.2852514 -61.50009739
-217.597483 3.809346398 -61.50009739
-78.026005 59.4302694 -61.50009739
-170.215264 48.5632874 -61.50009739
-181.091339 41.0343304 -67.50009739
-248.320828 26.6265874 -61.50009739
-174.386798 -2.460195401e-05 65.92507161
-170.793929 -2.460195401e-05 22.92453661
-114.419214 -2.460195401e-05 34.31573061
-128.124275 56.6498244 -61.50009739
-25.532696 61.4442124 -67.50009739
-185.002237 27.2284254 -61.50009739
-19.078581 8.412747398 -61.50009739
-153.469053 25.9136564 -61.50009739
-6.898562999 -2.460195401e-05 -12.65883539
-40.012113 19.3989244 -61.50009739
-189.725303 61.3549534 -61.50009739
-137.377028 -2.460195401e-05 50.21337261
-55.118477 -2.460195401e-05 48.88761061
-186.356198 -1.151431602 -61.50009739
-44.253221 -2.460195401e-05 -25.62404839
-217.557237 -2.460195401e-05 -42.95954839
-186.178872 -2.460195401e-05 9.279474614
-26.718128 54.9987274 -61.50009739
-195.755399 -2.460195401e-05 55.06405261
-157.93401 -2.460195401e-05 6.275727614
-251.859803 51.2038384 -67.50009739
-251.386438 67.9999754 -65.99149239
-246.969212 -2.460195401e-05 -39.56241839
-15.079241 67.9999754 -66.10390039
-74.795619 36.0797954 -67.50009739
-182.154783 23.3608984 -67.50009739
-174.078357 -2.460195401e-05 -22.24484339
-89.23984 47.7065694 -61.50009739
-220.438645 55.8774354 -61.50009739
-161.137426 -2.460195401e-05 26.75996361
-188.419724 11.4110154 -61.50009739
-179.656766 -2.460195401e-05 -20.99884739
-50.235003 -2.460195401e-05 22.32799261
-220.963058 -2.460195401e-05 -31.59887639
-131.720495 -2.460195401e-05 -34.04571839
-15.490099 -2.460195401e-05 58.78971561
-213.897785 -2.460195401e-05 67.77368361
-64.572805 32.8939214 -67.50009739
-75.902863 16.4711634 -61.50009739
-43.06199 47.6894344 -61.50009739
0.6742510007 17.1237644 -58.50009739
-216.945831 59.0890354 -67.50009739
-123.238552 -2.460195401e-05 51.64229561
-57.529225 -2.460195401e-05 -44.04881839
-135.338729 -2.460195401e-05 73.63258261
-240.142694 -2.460195401e-05 -29.22956139
-113.837003 -2.460195401e-05 45.56414561
-227.094845 -2.460195401e-05 70.95468261
-129.022161 39.5696794 -67.50009739
-59.317026 -2.460195401e-05 -49.76926539
-90.404349 28.9787204 -61.50009739
-88.485057 -2.460195401e-05 51.76222561
-28.667814 -0.784527602 -67.50009739
-0.0002729992684 3.350819398 -8.147664386
-193.809438 -2.460195401e-05 72.67757161
-31.521282 -2.460195401e-05 14.33206861
-161.136316 -2.460195401e-05 11.86900461
-106.149075 -2.460195401e-05 20.57826061
-69.419678 -2.460195401e-05 24.94526861
-45.173298 -2.460195401e-05 41.29544761
-107.159583 -2.460195401e-05 -2.439696386
-243.088885 67.9999754 -64.59678639
-19.671906 -2.460195401e-05 45.57686061
-95.332822 32.1348204 -61.50009739
-181.489201 -2.460195401e-05 13.16012661
-6.561421999 30.1655664 -67.50009739
-151.467025 46.3655984 -67.50009739
-62.19248 -2.460195401e-05 34.78998461
-7.055982999 37.0668324 -67.50009739
-143.756438 3.652398398 -61.50009739
-27.975432 61.8693564 -61.50009739
-79.627277 -2.460195401e-05 -33.71324539
-157.108597 -2.460195401e-05 -46.96328039
-225.970719 57.9425244 -61.50009739
-54.493606 62.9674144 -67.50009739
-16.187822 63.9170234 -61.50009739
-205.916218 -2.460195401e-05 -39.37775839
-200.839293 67.9999754 -67.18452639
-197.559069 17.5126364 -61.50009739
-163.736996 34.1616614 -61.50009739
-63.262028 -2.460195401e-05 -45.16671839
-108.825499 60.7404504 -67.50009739
-216.457574 -2.460195401e-05 52.46304161
-219.471546 -2.460195401e-05 56.35468261
-200.026081 28.6068054 -61.50009739
-187.859651 52.0107424 -67.50009739
-227.707178 37.4610324 -61.50009739
-165.408546 64.2019264 -61.50009739
-46.762814 24.5372524 -61.50009739
0.08435700073 10.8540824 -61.50009739
-48.420807 57.9141354 -67.50009739
-238.35883 -2.460195401e-05 -44.57156639
-77.487225 -2.460195401e-05 27.66968961
-114.933339 -2.460195401e-05 73.55906861
-120.979738 67.9999754 -65.58941539
-193.458856 34.0282584 -67.50009739
-192.05694 -2.460195401e-05 46.09400761
-14.323058 5.287656398 -67.50009739
-168.732852 -2.460195401e-05 62.00313561
-197.226874 -2.460195401e-05 -34.60270039
-181.163149 67.9999754 -65.38566439
-229.588459 31.3688024 -61.50009739
-2.501856999 -2.460195401e-05 -24.35362339
-47.255211 31.2886474 -61.50009739
-81.271621 15.7263944 -67.50009739
-206.293169 63.4372604 -61.50009739
-8.269748999 33.1760614 -61.50009739
-190.117706 -2.460195401e-05 76.09271561
-165.022898 23.2088694 -67.50009739
-153.702655 58.3843104 -67.50009739
-95.103541 -2.460195401e-05 -45.94542939
-81.098301 -0.622739602 -61.50009739
-168.915946 2.903755398 -67.50009739
-125.213917 -2.460195401e-05 62.88809661
-39.554475 -2.460195401e-05 -59.80987439
-71.327533 -2.460195401e-05 -26.79813139
-46.742348 45.9132054 -61.50009739
-107.537538 -2.460195401e-05 52.21425561
-170.3046 3.308012398 -61.50009739
-245.588794 1.279001398 -61.50009739
-95.391125 -2.460195401e-05 27.90185961
-165.897441 53.1821744 -67.50009739
-206.476045 -2.460195401e-05 -52.05780439
-19.087672 59.0091414 -67.50009739
-2.800230999 -2.460195401e-05 38.00915361
-232.190754 6.948993398 -61.50009739
-213.169846 -2.460195401e-05 46.05710161
-76.290426 -2.460195401e-05 -54.72735939
-15.505106 57.8956214 -61.50009739
-170.847242 -2.460195401e-05 28.85886361
-171.249459 56.0532974 -61.50009739
-58.975897 -2.460195401e-05 59.12368661
-148.449486 -1.459590602 -61.50009739
-155.133789 28.6471764 -67.50009739
-60.600735 35.6745244 -67.50009739
-182.06627 6.278344398 -67.50009739
-192.852218 -2.460195401e-05 -30.70940739
-46.626057 -2.460195401e-05 76.95164861
-133.768168 15.2670404 -67.50009739
-105.3165 7.969703398 -67.50009739
-167.021919 -2.460195401e-05 47.50602761
-147.848918 18.6136364 -67.50009739
-191.310395 58.5525894 -61.50009739
-158.374605 24.1652104 -67.50009739
-11.093818 -2.460195401e-05 -38.27825039
-174.640618 65.7278524 -61.50009739
-132.130342 21.9575394 -67.50009739
-119.125397 42.3612104 -67.50009739
-17.753043 16.2537774 -61.50009739
1.711038001 -2.460195401e-05 0.2642656136
-11.266662 -2.460195401e-05 -59.69753739
-137.046867 -2.460195401e-05 -30.46531839
-251.339014 59.1411684 -61.50009739
-146.229831 49.9566404 -67.50009739
-28.832086 -2.460195401e-05 -59.92058339
-227.067593 51.6279204 -67.50009739
-247.174141 -2.460195401e-05 -27.75492739
-204.546349 -2.460195401e-05 27.25752561
-117.001055 -2.460195401e-05 41.80844161
-101.629747 -1.719953602 -61.50009739
-46.768897 -2.460195401e-05 -3.628714386
-47.432568 -2.460195401e-05 48.70806661
-42.752185 -2.460195401e-05 -7.864245386
-198.217841 34.7270614 -61.50009739
-59.663487 -0.391851602 -61.50009739
-243.576447 63.5395474 -67.50009739
-106.192659 25.9764254 -67.50009739
1.054662001 21.8856804 -61.50009739
-204.332057 58.7595994 -67.50009739
-149.321241 -2.460195401e-05 50.86323361
-83.575425 -2.460195401e-05 -17.21327239
-63.376677 4.032142398 -61.50009739
-141.403409 -2.460195401e-05 41.50115861
-245.887012 16.0468904 -61.50009739
-207.241001 7.540630398 -67.50009739
-131.296848 41.3687044 -61.50009739
-192.262664 -2.460195401e-05 34.46058361
-130.1354 15.6808394 -61.50009739
-176.574816 39.8993884 -67.50009739
-92.195067 35.9485314 -67.50009739
-20.089812 -2.460195401e-05 68.64104761
-195.188051 11.5461864 -67.50009739
-37.41283 -2.460195401e-05 -16.02857039
-99.959653 41.3461494 -61.50009739
-125.525615 43.5097014 -67.50009739
-110.870436 -2.460195401e-05 -18.60490039
-69.121984 3.095388398 -61.50009739
-21.762218 52.0829764 -67.50009739
-210.003316 -2.460195401e-05 52.83526761
-217.000694 0.804349398 -61.50009739
-119.768633 45.4060854 -67.50009739
-129.353276 -2.460195401e-05 49.67251161
-201.314586 19.5785454 -67.50009739
-108.719097 -2.460195401e-05 24.70695761
-205.498488 11.1726234 -67.50009739
-22.984928 65.8821094 -67.50009739
1.184405001 -2.460195401e-05 53.70335261
-4.277537999 34.3418884 -67.50009739
-146.589005 67.7506584 -61.50009739
-109.662708 17.7314654 -67.50009739
-234.140088 -2.460195401e-05 -11.38039639
-196.064716 -2.460195401e-05 -25.10348239
-106.43653 17.7811154 -61.50009739
-223.194011 -2.460195401e-05 -43.74117739
-237.995002 -2.460195401e-05 14.15187561
-99.709425 45.0667684 -61.50009739
-225.770121 63.3964414 -61.50009739
-139.224709 -2.460195401e-05 29.40970161
-148.35012 14.7691604 -61.50009739
-104.883492 -2.460195401e-05 -57.52979539
-208.64987 39.2070094 -67.50009739
-75.622189 17.2133554 -67.50009739
-39.095086 61.6189384 -61.50009739
-23.325051 1.524957398 -67.50009739
-13.216136 -2.460195401e-05 -50.62809439
-140.746893 60.8569364 -67.50009739
-168.534178 32.7085454 -61.50009739
-201.796161 14.5396274 -67.50009739
-207.149692 48.5172934 -67.50009739
-118.881763 -2.460195401e-05 -52.86749239
-18.719844 -2.460195401e-05 5.649630614
-161.025391 51.5824464 -67.50009739
-15.038969 58.8147244 -67.50009739
-205.451272 -2.460195401e-05 36.80690361
-185.798649 1.702641398 -67.50009739
-83.607638 -2.460195401e-05 -20.89469839
-245.868484 -1.748492602 -67.50009739
-38.321009 67.9999754 -61.89364939
-8.870633999 -2.460195401e-05 -33.48263939
-97.601051 -2.460195401e-05 9.505661614
-208.476303 12.2529474 -67.50009739
-184.531485 -2.460195401e-05 -34.29176939
-25.698168 64.8789814 -67.50009739
-222.091817 23.8005894 -67.50009739
-142.154204 67.9999754 -64.17934639
-29.14054 59.5281894 -67.50009739
-1.984353999 21.1744734 -67.50009739
-75.872103 10.8213404 -61.50009739
-92.289127 -2.460195401e-05 19.19144461
-175.135863 -2.460195401e-05 -5.418917386
-95.215819 -2.460195401e-05 63.76085161
-40.872717 1.900697398 -61.50009739
-172.441908 -2.460195401e-05 -29.63448739
-1.184039999 -2.460195401e-05 41.04014261
-158.614208 -2.460195401e-05 61.48494961
