# .PCD v0.7 - Point Cloud Data file format
VERSION 0.7
FIELDS x y z
SIZE 4 4 4
TYPE F F F
COUNT 1 1 1
WIDTH 1330
HEIGHT 1
VIEWPOINT 0 0 0 1 0 0 0
POINTS 1330
DATA ascii
67.77656001 -2.211996602 -83.00009741
171.24973 101.4125284 -64.65313241
161.65927 99.0548924 -3.000097407
171.24973 169.7122864 -50.49814341
136.27756 250.018348 1.999902593
141.54721 129.2250144 -3.000097407
-80.54820999 -2.460221594e-05 -71.99122441
9.346420006 -2.460221594e-05 -72.95506741
48.65741001 -2.460221594e-05 -48.87563041
-116.58553 -2.460221594e-05 -13.67142541
169.84569 175.3602734 -97.62412541
44.22578001 30.7680224 4.999902593
111.94922 52.2622274 -89.00009741
144.19281 -2.460221594e-05 -76.39096641
81.75944001 67.9999754 -85.33169241
39.61927001 58.9906734 4.999902593
166.24973 192.7585354 -40.29664941
41.33224001 -0.9426936022 4.999902593
171.24973 245.0801291 -82.94972741
166.24973 198.1650364 -13.25002641
36.10147001 -0.2456516022 -89.00009741
135.76294 101.7769654 1.999902593
169.83572 154.9643754 -1.520260407
-118.0568 -2.460221594e-05 -44.96017141
85.37042001 34.6388884 4.999902593
-132.01276 55.6495474 -89.00009741
119.17785 67.9999754 8.758082593
121.24973 202.0140144 1.173963593
30.79257001 19.4428734 4.999902593
-82.68773999 -2.460221594e-05 -38.70401741
166.24973 11.9437364 -16.60911941
-95.47153999 67.9999754 -88.79670141
105.44313 25.4921444 -89.00009741
-84.94631999 13.3249144 -83.00009741
134.04127 221.7357921 1.999902593
200.38964 62.8504894 -89.00009741
189.07316 11.0413964 -89.00009741
166.24973 47.7650694 -98.92176941
-41.93866999 -2.460221594e-05 -52.70070441
162.05644 -2.460221594e-05 -24.83903541
180.51378 136.2572124 -89.00009741
166.24973 251.9581926 -21.30993441
166.24973 184.5815444 -77.45474441
10.72215001 10.5551314 -83.00009741
118.32787 23.6027294 10.99990259
-153.94288 -2.407607602 -83.00009741
171.24973 226.4086903 -65.99640341
-46.02749999 33.9319894 -83.00009741
-140.57204 -2.460221594e-05 -29.80677541
-159.52076 29.9250284 -83.00009741
191.66665 152.1875594 -99.00009741
202.75098 195.3065304 -99.00009741
82.73607001 51.3784614 4.999902593
78.22481001 -2.460221594e-05 -33.98851141
-138.23036 -2.460221594e-05 -61.92930041
165.55591 54.9444134 4.999902593
189.95245 42.8685324 -83.00009741
35.48355001 -2.460221594e-05 -34.24454741
122.63987 83.0648434 1.999902593
166.24973 114.8241714 -62.20240941
-38.48642999 -0.4730716022 -83.00009741
171.24973 45.4848714 -69.13036741
55.66157001 32.3408084 -83.00009741
142.05251 56.7179684 10.99990259
13.24507001 -2.460221594e-05 -28.92855941
118.00256 35.3359904 4.999902593
171.24973 209.4102854 -34.08336341
149.83606 227.5219161 1.999902593
166.24973 196.6045274 -57.34387041
62.28743001 -2.460221594e-05 -26.44391141
128.59321 59.1958654 -89.00009741
171.24973 135.3206884 -25.85075841
71.17919001 24.5561104 4.999902593
162.64218 216.0027371 -3.000097407
-100.39565 27.8127174 -83.00009741
149.68502 161.6006934 -3.000097407
167.78213 -2.460221594e-05 -69.35781941
-5.927759994 -2.460221594e-05 -19.61348141
88.00350001 12.0806674 10.99990259
-160.68783 -0.04700360222 -27.50009741
-12.00969999 -2.460221594e-05 -66.62116741
168.29976 121.5867094 -99.00009741
99.52070001 55.6241454 -89.00009741
137.87674 113.3611884 -3.000097407
-33.16733999 20.7625714 -83.00009741
200.80981 6.446058398 -89.00009741
167.39766 -2.460221594e-05 -0.5133664072
154.85198 42.2028564 -89.00009741
-129.34601 43.4525694 -83.00009741
45.52676001 7.180256398 -89.00009741
184.27539 6.725324398 -99.00009741
105.71385 -2.460221594e-05 -35.83900441
-86.82461999 51.3429494 -83.00009741
171.24973 23.3982974 -45.74502141
-168.75027 61.4761434 -86.01114941
-68.60932999 -2.460221594e-05 -69.63387441
-139.28281 7.782411398 -83.00009741
166.24973 208.6305434 -75.32118541
184.60373 -2.460221594e-05 -40.23000941
193.18153 215.6853934 -94.00009741
187.76931 248.7159065 -99.00009741
144.89841 206.0642424 1.999902593
165.85606 120.3109844 1.540405593
83.95455001 9.074918398 -89.00009741
148.48963 13.8288944 10.99990259
142.37396 84.5665904 1.999902593
140.89043 -2.460221594e-05 -64.22638341
192.05454 234.0732614 -94.00009741
-113.33605 57.6241414 -89.00009741
174.38396 82.9770054 -89.00009741
190.56244 136.3420934 -99.00009741
-157.55959 -2.460221594e-05 -58.79910841
152.29423 23.7769974 4.999902593
-9.045369994 6.735450398 -89.00009741
171.24973 213.7605801 -50.10012441
88.56327001 67.9160414 4.999902593
168.43852 135.2545884 -99.00009741
166.24973 183.8166744 -64.86906841
130.21686 237.26466 1.999902593
166.24973 57.4822814 -91.01229641
199.11144 159.9999754 -93.41414741
133.80144 38.4395494 4.999902593
135.96108 198.2560784 1.999902593
180.81918 72.4276234 -99.00009741
171.92961 -0.6422306022 -99.00009741
184.20475 66.7667254 10.99990259
-18.83565999 -2.460221594e-05 -1.511201407
199.3841 45.4834604 -89.00009741
191.13398 100.6359634 -99.00009741
62.76199001 -2.460221594e-05 -4.550317407
-66.69621999 -1.756292602 -89.00009741
170.6524 237.3418514 -3.123962407
94.38339001 36.4024614 -83.00009741
184.27184 56.2814024 -99.00009741
114.69073 58.0720204 4.999902593
166.24973 63.0873234 -31.99431041
64.11829001 -2.460221594e-05 -52.03349141
200.97422 96.0923714 -89.00009741
176.05973 94.5052584 -89.00009741
154.81955 53.1211274 -83.00009741
166.28203 250.7016667 1.323266593
131.27416 135.2655784 1.999902593
174.38523 71.0781034 -89.00009741
166.24973 112.7743004 -17.27740841
198.69098 108.7318444 -89.00009741
179.96197 180.8776984 -94.00009741
112.46047 10.8517404 4.999902593
180.64219 154.5290694 -99.00009741
182.6529 194.7627924 -99.00009741
173.67069 218.3476213 -98.90835641
171.24973 177.6227604 -40.16126541
166.24973 155.9395524 -42.24591141
147.56901 67.9999754 -85.63573441
-127.91471 28.0553604 -83.00009741
166.24973 117.7132344 -81.21948241
100.158 -2.460221594e-05 -60.80299941
166.24973 96.7952334 -76.00112341
196.16621 178.0428774 -94.00009741
192.92508 80.5307634 -99.00009741
192.72012 14.4378004 -99.00009741
190.16732 -2.460221594e-05 -77.88630141
45.13620001 -2.460221594e-05 -7.452008407
166.24973 150.8570324 -65.97622541
17.42393001 -2.460221594e-05 -57.17423741
185.9345 66.7869284 -83.00009741
148.0726 117.7024684 1.999902593
185.6703 37.2272004 4.999902593
-63.59518999 -2.460221594e-05 -17.00845941
152.37784 137.2854754 -3.000097407
-44.16695999 -2.460221594e-05 -38.28210741
100.46351 54.8427214 4.999902593
136.59801 4.616724398 -83.00009741
154.22566 186.4256194 -3.000097407
-141.07166 -2.460221594e-05 -15.29483241
171.24973 44.4482244 -55.52667041
-5.468229994 -2.460221594e-05 -47.85452641
1.334770006 17.2176704 -89.00009741
183.41114 34.0688314 -99.00009741
166.24973 206.9196194 -20.75822441
100.52223 -0.8808036022 4.999902593
191.47323 28.0269834 -89.00009741
90.68905001 -2.460221594e-05 -39.88748441
200.74442 140.4498054 -99.00009741
171.24973 229.3495575 -32.07311341
-10.46591999 25.4507214 -89.00009741
171.24973 173.0293984 -20.73586441
171.24973 82.5455404 -46.42256941
171.24973 122.7795084 -45.87626041
166.79855 39.6422684 10.99990259
-94.78674999 8.446471398 -83.00009741
122.01905 39.5578184 -83.00009741
62.88230001 40.7060714 4.999902593
88.21266001 43.0365124 -89.00009741
-114.00261 40.0385634 -89.00009741
-27.21771999 -2.460221594e-05 -21.13129141
172.28052 21.6966924 4.999902593
-22.36575999 39.6335114 -89.00009741
9.264290006 33.3041974 -89.00009741
-52.58855999 27.3923464 -89.00009741
193.06512 148.4501584 -89.00009741
50.39754001 45.6877484 -83.00009741
120.98855 19.0005954 -89.00009741
3.416330006 -2.460221594e-05 -6.859016407
166.24973 9.578786398 -29.39476641
180.00235 116.1545064 -99.00009741
-47.69713999 -2.460221594e-05 -27.27894141
-82.59449999 -2.460221594e-05 -52.22227541
194.84111 -2.460221594e-05 -37.10077041
176.39274 38.6635794 -89.00009741
121.24973 120.5583114 -1.925953407
-116.57284 -2.460221594e-05 -65.17498141
-158.97111 7.000115398 -83.00009741
154.10686 12.7539594 -89.00009741
171.51058 157.4046114 -89.00009741
79.30868001 -2.460221594e-05 -23.38699941
-118.55766 20.7550974 -83.00009741
-127.61116 7.260926398 -89.00009741
-123.92039 35.8503334 -89.00009741
184.66428 22.4840034 4.999902593
-89.85191999 26.6583464 -83.00009741
171.24973 236.789624 -63.91883441
166.24973 95.6686014 -56.47195241
-67.95630999 24.4588154 -83.00009741
-95.87057999 35.2008734 -89.00009741
178.28573 -2.460221594e-05 -68.59365641
190.65702 113.0043034 -99.00009741
171.24973 109.4876544 -43.05901841
-100.92307 -2.460221594e-05 -57.78202241
32.34502001 46.5705434 -89.00009741
22.05927001 -2.460221594e-05 -7.982187407
154.40208 -0.8592426022 10.99990259
174.16001 3.585035398 -89.00009741
166.24973 247.0867703 -43.32725241
19.14594001 15.1219254 -89.00009741
136.50028 69.9999754 0.8658415928
151.07757 -2.460221594e-05 -66.55705241
177.15923 146.3579834 -89.00009741
-153.79458 17.8828934 -89.00009741
172.64289 -2.460221594e-05 -28.08879741
137.35135 53.4549274 -83.00009741
166.51206 199.0344564 -92.65623141
199.54492 42.3613024 -99.00009741
-6.924979994 42.0193604 -89.00009741
-145.46699 -2.473338602 -89.00009741
189.96102 165.5485944 -94.00009741
166.24973 54.4637444 -58.79034041
63.47984001 55.4843014 -89.00009741
158.77499 -2.460221594e-05 -12.33551341
200.37605 122.8511894 -89.00009741
94.50932001 17.4073384 4.999902593
179.4883 55.2620224 4.999902593
166.24973 25.0406304 -58.52769241
-148.78048 51.8977864 -83.00009741
203.68681 78.5460784 -99.00009741
138.40433 -2.460221594e-05 -43.87624841
80.25099001 30.4409104 -89.00009741
171.24973 95.6903244 -21.78456041
171.24973 100.3300674 -38.39303441
166.24973 224.7944468 -77.54738041
145.14897 243.8449351 -3.000097407
34.05342001 -2.460221594e-05 -62.61608541
166.24973 79.8459444 -68.29133441
127.4774 182.4485394 1.999902593
171.24973 43.2037114 -26.00200041
178.0542 93.8012574 -99.00009741
-124.02048 -1.313433602 -83.00009741
141.56432 156.7855994 1.999902593
169.92473 180.9958924 -1.695051407
124.22002 46.8041544 4.999902593
105.15733 40.8814144 4.999902593
-93.10310999 -2.460221594e-05 -15.83391441
104.47596 17.3292774 -83.00009741
-19.72280999 58.0613924 -89.00009741
70.21651001 67.0930014 -89.00009741
145.26847 93.0133094 -3.000097407
-168.75027 9.783106398 -83.81286641
34.95614001 27.1244634 -83.00009741
-7.687469994 57.8005794 -89.00009741
169.95791 150.0664174 -99.00009741
132.15068 19.7219934 -89.00009741
178.73141 -2.460221594e-05 -5.120024407
166.43237 209.3972774 -92.15315041
166.24973 9.464783398 -62.72632041
166.24973 187.3497184 -20.65553941
166.7947 141.1854104 -72.56251041
-6.622599994 -2.460221594e-05 -7.941737407
163.0346 36.2908804 -89.00009741
171.24973 54.9732734 -38.12069341
161.42678 27.4148254 10.99990259
108.07879 -1.257185602 -89.00009741
163.4585 108.0603444 1.966858593
116.04004 12.6340854 -83.00009741
35.58351001 46.3745574 4.999902593
-35.35980999 55.0947594 -89.00009741
191.01867 126.3038684 -89.00009741
166.24973 158.4744194 -14.03918141
171.24973 166.5932824 -75.71987641
-24.95763999 -2.392542602 -83.00009741
166.24973 182.0381824 -88.77593841
142.79865 34.2013704 4.999902593
116.28482 -2.460221594e-05 -30.65296941
-65.84929999 56.1955204 -83.00009741
59.97683001 -2.460221594e-05 -75.77332941
171.24973 226.7535056 -45.32620341
171.24973 66.8939864 -42.22596041
171.24973 219.1269484 -58.96225441
29.60611001 -2.460221594e-05 -14.35328341
179.25305 248.6546385 -94.00009741
11.73935001 58.5506134 -83.00009741
80.70990001 50.5375244 -83.00009741
-149.24364 34.0212934 -83.00009741
-106.4696 -2.460221594e-05 -40.65652541
96.28641001 16.9745674 -89.00009741
-90.66079999 -2.460221594e-05 -80.27449641
171.24973 148.2924464 -55.31311841
171.24973 138.4106794 -16.28063841
-37.77072999 -2.460221594e-05 -10.83599641
121.24973 92.4084154 -0.4380984072
152.00624 239.0809144 1.999902593
9.591070006 46.7935754 -89.00009741
131.41427 60.7733034 4.999902593
-68.17099999 12.7917834 -89.00009741
50.35358001 38.7879864 4.999902593
184.40014 21.3930834 -89.00009741
82.79125001 -2.460221594e-05 -4.184340407
171.24973 165.2972464 -59.12225441
-55.29099999 -2.460221594e-05 -55.43893541
33.47952001 10.1458774 4.999902593
194.15642 89.2437824 -89.00009741
171.35198 168.0281074 -91.51376141
-153.09854 58.2801554 -89.00009741
175.21188 9.282100398 4.999902593
-6.526709994 -0.3315566022 -83.00009741
-108.0666 6.380211398 -83.00009741
89.47810001 1.230354398 -89.00009741
171.24973 174.9820714 -61.27975841
3.614730006 -2.460221594e-05 -18.86277141
138.28845 -2.460221594e-05 -11.24878141
39.49971001 -2.460221594e-05 -43.34645441
192.66631 127.0152434 -99.00009741
166.24973 170.7704744 -29.30876141
171.24973 200.2220964 -37.05634241
75.32427001 14.4633394 4.999902593
-53.06798999 17.8678424 -89.00009741
171.24973 62.4522864 -57.36527641
173.85028 62.9390534 10.99990259
158.71943 78.3791124 -3.000097407
131.14152 77.7696234 1.999902593
122.4628 -2.460221594e-05 4.051726593
166.24973 80.6402294 -54.26120141
113.37183 -2.460221594e-05 -49.50148541
-0.5122399944 10.1130434 -83.00009741
13.07112001 3.603941398 -89.00009741
-140.3281 -2.460221594e-05 -51.22048641
196.12822 225.4876463 -94.00009741
182.0759 45.9823224 4.999902593
132.97856 50.3806774 4.999902593
-38.89513999 32.3344684 -89.00009741
173.48614 25.1024164 -99.00009741
-168.75027 36.3575484 -83.67521541
142.49669 222.7877581 -3.000097407
92.66191001 62.1879624 -83.00009741
163.83268 146.6902094 1.907635593
201.36254 237.3339863 -94.00009741
180.77343 60.6062654 -89.00009741
168.56762 -2.460221594e-05 -49.91514441
168.85146 74.9999754 -82.48923141
75.31940001 -2.460221594e-05 -74.19633341
193.10943 91.4582484 -99.00009741
119.05368 53.4939194 -83.00009741
159.20557 158.9744324 -3.000097407
-49.13420999 -2.460221594e-05 -79.42990241
179.90217 32.9618734 10.99990259
22.07721001 59.2854484 -83.00009741
171.24973 200.7796784 -75.75326241
176.96876 127.6420214 -89.00009741
171.24973 240.4083613 -13.64236841
166.24973 106.4968254 -98.41978741
-13.63501999 -2.460221594e-05 -56.54000141
168.68137 -2.460221594e-05 -78.60837741
121.55486 -2.460221594e-05 -58.65734741
-107.06132 -2.460221594e-05 -64.74486941
197.71509 -1.739510602 -83.00009741
178.32827 103.4992664 -89.00009741
162.98193 60.8034164 -83.00009741
-140.20775 17.4119684 -83.00009741
152.57716 5.950724398 4.999902593
171.24973 162.6149964 -32.50274441
2.933520006 -2.460221594e-05 -43.15737741
-83.65755999 -2.460221594e-05 -14.49091141
153.226 -2.379750602 -89.00009741
171.24973 175.2466294 -11.76573641
-157.4428 -2.460221594e-05 -16.14745941
-69.17819999 -2.460221594e-05 -31.90832441
50.53199001 16.6764204 -83.00009741
166.24973 152.3668264 -25.26474041
66.62807001 4.667766398 -89.00009741
47.07476001 24.0629524 -89.00009741
171.24973 65.7420394 -65.92931241
36.28061001 6.691902398 -83.00009741
166.24973 22.0110064 -37.75497441
92.34294001 -2.460221594e-05 -53.07585441
-58.47728999 22.1979954 -83.00009741
-122.60768 -2.460221594e-05 -29.10866341
154.87886 4.418838398 -83.00009741
137.00203 212.8156731 1.999902593
166.24973 119.0540174 -10.61611641
75.65986001 25.2848304 -83.00009741
171.24973 237.9025413 -27.70854441
193.78165 -0.9822736022 4.999902593
14.73046001 28.3225864 -83.00009741
-151.59799 -1.346797602 -48.26698541
6.179530006 67.5853704 -89.00009741
184.3878 87.9117574 -89.00009741
107.13307 41.3811514 -89.00009741
137.65873 26.9819144 -89.00009741
129.56488 7.726957398 10.99990259
172.19479 237.6945305 -93.16538741
-38.88295999 49.0613404 -83.00009741
73.08034001 -2.460221594e-05 -45.85553341
175.85796 52.8685164 -99.00009741
171.24973 8.528753398 -52.20997741
166.24973 127.5171314 -26.90304041
138.09753 60.8012564 -89.00009741
101.97194 31.4531214 -83.00009741
-136.68432 -2.460221594e-05 -40.59901641
182.26577 212.2569813 -99.00009741
201.82509 63.3617284 -99.00009741
152.52491 -2.460221594e-05 -50.33826841
133.1328 176.2996844 -3.000097407
127.83794 113.8391684 1.999902593
161.27243 129.8221544 -3.000097407
-122.16725 -2.460221594e-05 -53.47205741
171.24973 228.8332459 -21.85348341
49.81235001 63.6242994 -89.00009741
69.53825001 -2.460221594e-05 -59.21687941
114.8056 25.4255244 -83.00009741
-104.44768 20.9104184 -89.00009741
166.24973 200.8125384 -65.28053541
180.38569 -2.460221594e-05 -13.94839041
166.24973 40.9132174 -34.35842941
149.9179 79.7647604 1.999902593
166.24973 77.1244654 -31.21535541
171.24973 176.5190924 -74.31945141
130.67719 167.7228384 1.999902593
171.24973 204.8013764 -56.17583141
86.32882001 -2.460221594e-05 -75.95559141
160.25673 70.6339464 1.999902593
185.241 -1.972921602 10.99990259
125.87467 40.4396464 10.99990259
91.77005001 1.156816398 4.999902593
153.17721 208.0664664 -3.000097407
166.24973 149.5833364 -7.613979407
126.87847 -2.460221594e-05 -34.17040141
-123.54548 59.0275734 -89.00009741
-165.92575 -2.460221594e-05 -61.76485541
171.80403 139.2833364 -89.00009741
-23.39523999 26.2885114 -83.00009741
71.11997001 50.4312424 -83.00009741
136.20126 151.8056294 -3.000097407
166.24973 241.609085 -74.85960141
171.24973 128.4270074 -80.96672141
112.18151 38.2249434 10.99990259
202.03263 16.3461294 -89.00009741
-102.1148 62.1715494 -89.00009741
195.59724 54.2827114 -89.00009741
166.24973 139.0255274 -53.49933141
135.06898 10.9222424 -89.00009741
-48.48432999 52.4192024 -89.00009741
94.84549001 -2.395482602 -83.00009741
-152.37274 28.3725774 -89.00009741
94.34359001 25.5655454 -89.00009741
151.7433 58.7776384 -89.00009741
166.24973 214.2850237 -11.22197141
-9.103839994 -2.460221594e-05 -27.80822641
30.16730001 17.3787014 -83.00009741
156.43803 106.2696074 -3.000097407
26.44786001 -2.460221594e-05 -56.15024441
63.25083001 20.4329134 -83.00009741
185.25289 109.0385874 -89.00009741
28.78665001 -0.3118436022 -83.00009741
155.76315 232.9564222 -3.000097407
-86.43522999 62.1346054 -83.00009741
160.34534 22.7178864 -89.00009741
154.90181 35.8507454 -83.00009741
127.72872 67.9999754 -85.19693641
191.03984 -2.460221594e-05 -56.51774641
-157.86445 45.5862544 -83.00009741
199.83064 184.5777004 -99.00009741
166.24973 113.6225474 -25.95506041
-52.50204999 9.699537398 -83.00009741
171.24973 123.3029164 -62.21714541
-36.22957999 7.200759398 -89.00009741
166.24973 128.2794404 -40.97558141
-99.02549999 -2.460221594e-05 -72.99868941
-73.48851999 47.7575644 -83.00009741
55.31920001 41.1350374 -89.00009741
187.09675 37.2835434 -89.00009741
-56.46892999 67.9999754 -84.45188041
137.12759 -0.5542866022 4.999902593
166.24973 132.3859724 -60.03163741
116.21162 41.8741694 -89.00009741
151.79453 43.7246414 4.999902593
171.24973 142.7897624 -38.97822241
43.82914001 29.3938694 -83.00009741
171.24973 18.4441754 -62.13099341
146.30734 -2.460221594e-05 -28.66983641
39.89174001 39.7400634 -83.00009741
171.24973 189.2569844 -46.41766941
188.04943 49.1095474 -89.00009741
135.9202 47.4089624 -89.00009741
40.61377001 61.5188054 -83.00009741
144.01135 41.4871784 -89.00009741
166.24973 35.8715904 -45.37601541
110.23305 -2.460221594e-05 2.841204593
52.00274001 22.2122774 4.999902593
-22.64756999 -2.460221594e-05 -73.43716741
170.09416 195.6035104 -2.027743407
-2.919459994 49.8734084 -89.00009741
89.29875001 47.9033434 10.99990259
-76.75757999 26.1721714 -83.00009741
26.31584001 31.9885434 -89.00009741
10.13290001 -2.460221594e-05 -64.13093841
166.24973 145.5196634 -30.39635541
-52.99256999 -2.460221594e-05 -36.78083641
171.24973 74.2068984 -48.26494541
104.70827 60.9779644 -83.00009741
166.27637 31.1590114 -83.00009741
-93.76235999 -2.460221594e-05 -36.98281641
167.18679 8.495368398 -89.00009741
171.24973 32.7427234 -22.21534541
45.58055001 -1.343178602 -89.00009741
-148.71267 13.6514744 -83.00009741
189.48359 173.3132674 -99.00009741
-25.29623999 55.7201924 -83.00009741
31.27932001 61.5343544 -89.00009741
61.09682001 7.047789398 -83.00009741
166.24973 205.8627994 -40.98304941
-26.47583999 -2.460221594e-05 -7.985802407
-83.92908999 4.411772398 -83.00009741
106.03165 -2.460221594e-05 -53.77434241
103.35387 -2.460221594e-05 -68.66526341
144.67518 9.885426398 -83.00009741
147.27529 144.0652844 -3.000097407
91.46953001 -2.460221594e-05 -61.51433541
169.26019 49.1909784 -89.00009741
35.17023001 -2.460221594e-05 -23.76438441
-97.67417999 43.3672984 -83.00009741
166.24973 219.1488049 -71.24171341
-33.71962999 -2.460221594e-05 -33.19547541
177.85045 40.9554134 -99.00009741
-94.13531999 58.6498454 -83.00009741
191.86215 67.9999754 7.684761593
131.03307 -2.460221594e-05 -76.56156341
175.02844 26.4337584 -83.00009741
128.16122 -2.460221594e-05 -10.75718941
171.24973 69.9963014 -32.82016541
171.24973 218.4577417 -34.26276741
-136.45825 -2.460221594e-05 -22.45367341
120.05404 6.771346398 10.99990259
145.52451 21.9687694 -89.00009741
-0.7609499944 -2.460221594e-05 -26.67042341
130.42012 -2.460221594e-05 -57.99161241
171.24973 188.2004554 -35.32230441
156.65251 13.3682504 4.999902593
-36.87018999 40.6179744 -89.00009741
62.61583001 36.9728904 -83.00009741
-54.95153999 -0.9480136022 -89.00009741
-50.73506999 -2.460221594e-05 -71.23143641
39.07210001 20.5267574 4.999902593
166.24973 92.4624644 -64.17437741
82.43485001 20.1004854 -89.00009741
95.39299001 63.1364604 4.999902593
166.24973 17.8708684 -98.60425241
-107.52766 32.1821234 -89.00009741
141.58544 77.9471524 -3.000097407
170.80857 5.536147398 10.99990259
158.42464 140.0838864 1.999902593
-50.18177999 41.1490534 -83.00009741
-76.02656999 -2.460221594e-05 -45.04090041
-87.80573999 -2.460221594e-05 -58.70990241
143.43861 67.9999754 9.013452593
201.97293 130.5879774 -99.00009741
50.74026001 3.579628398 4.999902593
171.24973 81.4192314 -24.77923141
70.10547001 66.4153504 4.999902593
-7.969509994 33.7747964 -89.00009741
109.2109 59.7993464 10.99990259
161.69702 62.2990384 4.999902593
171.24973 60.2660204 -23.89760341
129.44023 99.7837834 -3.000097407
166.24973 204.4249734 -84.69768241
127.81573 143.5686014 1.999902593
170.18996 17.5271104 -89.00009741
172.13188 197.9618054 -98.66455541
171.24973 80.3182944 -8.633216407
171.24973 182.5515054 -57.70221141
-36.64172999 -2.460221594e-05 -60.67759041
51.22589001 -2.460221594e-05 -28.28108141
127.31076 252.1745463 -3.000097407
139.19742 190.6399664 1.999902593
110.95492 19.3206034 -89.00009741
134.99249 28.9603064 4.999902593
160.29369 197.9451444 -3.000097407
1.210490006 31.2349254 -89.00009741
149.12369 51.5608234 4.999902593
-135.45371 51.1503184 -83.00009741
181.43868 204.8824304 -94.00009741
-54.11075999 55.5710304 -83.00009741
166.24973 96.1974144 -92.52920941
35.86702001 -2.460221594e-05 -9.018367407
124.10666 239.5442748 -3.000097407
17.64875001 -2.460221594e-05 -70.66621041
172.19198 71.6557724 -99.00009741
-83.73073999 20.0315134 -89.00009741
166.24973 98.5711154 -48.61422741
-4.091659994 -2.460221594e-05 -68.75812041
159.31805 250.8540202 -3.000097407
-103.47217 13.1698244 -83.00009741
-65.11877999 31.2526734 -89.00009741
138.24792 91.6585234 1.999902593
-64.34109999 49.7097664 -89.00009741
96.54478001 37.8140474 10.99990259
-162.12727 18.2019814 -89.00009741
-25.68886999 67.9999754 -83.80488741
46.64025001 63.1721494 4.999902593
-103.39834 -2.460221594e-05 -79.89886141
185.20164 218.0093188 -94.00009741
166.24973 245.836951 -67.78499641
171.24973 123.1577784 -33.02761841
132.69558 128.4490684 -3.000097407
114.36021 52.2365854 10.99990259
166.24973 48.8252674 -46.56904341
-78.19938999 34.8079834 -83.00009741
76.43135001 9.834583398 -83.00009741
64.79954001 14.2430534 -89.00009741
171.24973 212.6400683 -17.41821441
-37.44666999 67.9999754 -88.79864541
166.24973 66.2821234 -89.52374741
171.24973 186.8782464 -83.42845541
-140.5268 -2.460221594e-05 -73.27040941
199.12964 99.2592334 -99.00009741
-139.19542 23.3130004 -89.00009741
145.92331 152.1428694 -3.000097407
184.52848 -2.460221594e-05 -21.00386641
27.84553001 22.2758864 -89.00009741
-122.24116 7.983591398 -83.00009741
104.8771 51.7270344 10.99990259
103.72605 21.6448594 10.99990259
46.98118001 53.3999184 -83.00009741
-41.74974999 26.6857104 -83.00009741
-139.23199 58.4292834 -83.00009741
-10.80184999 -2.460221594e-05 -1.056200407
64.95876001 32.5692324 4.999902593
25.59566001 44.3869364 -83.00009741
-9.095999994 67.9999754 -84.53460341
-99.86217999 -2.460221594e-05 -28.52418641
138.13733 239.2083034 1.999902593
142.24853 103.1466064 -3.000097407
125.40654 1.524208398 -83.00009741
171.24973 180.7574964 -22.77327141
-79.24109999 41.6664254 -89.00009741
-106.65853 -2.460221594e-05 -48.64032941
141.56073 39.3123184 10.99990259
171.24973 71.3214774 -17.21528941
-67.46489999 -2.460221594e-05 -77.52114241
170.86711 100.0340144 -99.00009741
194.98753 38.3190714 -89.00009741
166.24973 88.5782394 -89.61357041
-55.73651999 -2.460221594e-05 -18.22739241
83.59799001 -2.460221594e-05 -60.41998641
171.33936 251.404014 -91.45036641
166.24973 28.0462534 -27.03666141
198.6305 11.1508854 -83.00009741
159.03976 91.9792204 1.999902593
192.19198 240.2053814 -99.00009741
65.38257001 65.3150414 -83.00009741
-64.27095999 5.762472398 -89.00009741
171.24973 191.5309944 -16.19354841
166.24973 239.1994079 -33.68684141
171.24973 119.0288444 -54.74322741
137.32686 42.2100064 -83.00009741
69.41807001 53.2101654 4.999902593
156.90681 167.9186704 -3.000097407
171.24973 124.1245364 -14.00385341
174.72887 163.9668094 -99.00009741
147.41627 -2.460221594e-05 4.726161593
98.06666001 6.500206398 -89.00009741
-140.11672 39.7509834 -83.00009741
109.15878 34.1150444 4.999902593
187.22402 121.3578554 -99.00009741
166.24973 104.2368414 -8.252054407
-163.23024 -2.461375602 -83.00009741
171.24973 106.0843644 -21.11929641
1.449620006 56.3561134 -89.00009741
167.55058 221.5490611 -95.25599841
38.50655001 31.2853704 -89.00009741
-64.12090999 65.0495014 -89.00009741
171.24973 109.1587854 -60.23356241
-31.39318999 40.4360654 -83.00009741
166.84914 142.9091174 -99.00009741
171.24973 241.7703146 -46.08277041
-120.49354 44.3646074 -89.00009741
-17.29844999 42.7921154 -83.00009741
185.47522 16.5291064 -83.00009741
-143.41398 67.9999754 -86.82370041
4.323990006 -2.460221594e-05 -33.86346141
109.39413 -2.460221594e-05 -15.80451341
171.24973 94.4029934 -6.740964407
-116.20572 65.7063554 -89.00009741
164.88104 -2.460221594e-05 -39.63847141
167.26434 15.2459644 4.999902593
-13.68341999 8.468003398 -83.00009741
70.85770001 5.390778398 4.999902593
158.86718 36.7757074 4.999902593
166.24973 66.8390554 -21.68891941
171.24973 157.6867714 -21.30246041
87.23008001 24.4026204 10.99990259
145.09597 10.2452794 4.999902593
5.419130006 43.3171364 -83.00009741
200.6574 23.9903384 -89.00009741
176.4257 -0.7844606022 -83.00009741
-5.879089994 -2.460221594e-05 -60.97921341
153.94506 111.6500744 1.999902593
146.4733 186.6744494 -3.000097407
124.20776 220.6434324 -3.000097407
133.21298 107.1214744 -3.000097407
70.05331001 -2.460221594e-05 -7.166355407
-64.72911999 43.0749244 -83.00009741
-5.602139994 25.8872604 -83.00009741
121.34939 208.5253174 -3.000097407
149.82084 27.9705844 10.99990259
51.69245001 51.7514604 -89.00009741
107.1383 52.9527244 -83.00009741
53.89973001 -2.460221594e-05 -40.48598441
171.24973 88.2664784 -76.00066541
35.66274001 67.7774514 -83.00009741
146.38153 34.1556434 -89.00009741
126.61475 67.9999754 6.778235593
-126.12723 52.0211524 -83.00009741
171.24973 199.9142194 -18.81841041
173.97311 232.6132426 -98.95627141
184.97926 149.6743444 -89.00009741
166.24973 243.3225871 -8.610742407
-28.67863999 22.3855164 -89.00009741
52.18404001 4.531824398 -83.00009741
166.24973 26.0127514 -69.60551341
110.19826 15.0291994 10.99990259
-67.15340999 -2.460221594e-05 -60.27314841
59.10310001 -2.460221594e-05 -58.78058141
167.58697 21.0460914 10.99990259
150.07351 62.9880734 4.999902593
192.7539 62.8139904 -89.00009741
171.24973 242.2446235 -57.84679141
-166.7975 50.5509274 -83.00009741
166.24973 171.2538504 -79.06633141
91.53752001 26.2356624 4.999902593
-75.54662999 -2.460221594e-05 -11.89895841
-162.91679 38.5122894 -89.00009741
166.24973 231.6169649 -26.83339541
-69.51718999 32.6906234 -83.00009741
-50.88382999 21.9253744 -83.00009741
171.24973 135.2508314 -68.15645241
152.98914 199.8613284 -3.000097407
105.48947 7.977030398 4.999902593
64.28629001 21.4025864 4.999902593
166.24973 222.6135364 -49.14299941
107.92619 5.094714398 -83.00009741
200.80105 141.8663704 -89.00009741
166.24973 86.1322554 -21.55342441
153.46663 -2.460221594e-05 -26.40390841
171.24973 113.0139144 -31.52418741
94.37179001 66.8295124 -89.00009741
171.24973 233.9002625 -52.17700041
16.67964001 18.8964654 -83.00009741
58.81803001 28.7742674 -89.00009741
151.3104 168.8587464 1.999902593
33.47316001 53.9844254 -89.00009741
88.94554001 15.4703684 -89.00009741
-25.44057999 51.2358874 -89.00009741
167.20534 116.5705564 -89.00009741
158.95852 48.4649554 -89.00009741
166.24973 110.2391664 -81.64749741
169.37532 -2.460221594e-05 -8.053951407
157.40313 -2.460221594e-05 4.197122593
177.50161 173.8146534 -94.00009741
166.24973 171.5951374 -55.73017341
-19.88305999 -2.460221594e-05 -19.68255141
28.35919001 -2.460221594e-05 -31.98274441
93.48520001 54.7802304 -83.00009741
126.31628 38.5235474 -89.00009741
42.80408001 -2.460221594e-05 -25.25819941
171.24973 213.5106399 -77.90457441
144.85516 197.8097254 -3.000097407
73.33015001 54.2471144 -89.00009741
189.85573 0.9206583978 -99.00009741
182.23613 187.9556704 -94.00009741
166.24973 41.4113164 -60.11025641
172.53809 87.0977894 -99.00009741
-94.25093999 3.011881398 -89.00009741
-114.80496 33.2316634 -83.00009741
194.97347 1.647478398 -89.00009741
-145.77983 36.6620384 -89.00009741
66.85510001 37.9532244 -89.00009741
166.06588 186.3364014 -5.076334407
166.24973 82.3618734 -36.44631341
-150.20936 -2.460221594e-05 -59.62697741
171.24973 25.2154124 -52.91089441
166.24973 169.5786794 -86.26235841
171.24973 231.2825475 -11.92294441
171.24973 120.2043174 -70.72102041
145.32294 235.9322295 1.999902593
160.916 117.2230374 -3.000097407
-128.65953 -2.460221594e-05 -11.56568741
177.54643 27.1570744 4.999902593
166.24973 143.1909854 -18.80789741
64.89474001 -2.460221594e-05 2.495649593
194.89372 155.8985024 -89.00009741
175.01689 42.6829724 -83.00009741
195.34409 165.5212614 -99.00009741
-128.40093 64.1279264 -83.00009741
93.23377001 53.6287574 4.999902593
190.94467 -2.460221594e-05 -44.26133041
97.99237001 -2.460221594e-05 -39.55679041
166.24973 67.6687354 -51.14629941
148.64656 130.9383484 -3.000097407
-139.79664 3.043089398 -89.00009741
166.24973 109.3925134 -67.08135141
166.24973 242.9457954 -26.04281041
148.23693 -2.460221594e-05 -13.02083241
200.81644 86.0657894 -89.00009741
169.56429 95.5344204 -85.85800741
47.49664001 -2.460221594e-05 -0.4563884072
186.64678 140.1881984 -89.00009741
-4.938579994 45.6388114 -83.00009741
-151.1853 67.5019724 -83.00009741
41.30135001 48.7440164 -83.00009741
171.24973 33.3576874 -39.04011641
181.9625 12.5638694 -89.00009741
103.39948 15.7300364 4.999902593
171.24973 176.3220484 -47.47514341
198.16606 30.8534104 -89.00009741
187.05007 16.5599784 10.99990259
171.24973 209.5991464 -85.67379041
168.42362 134.7639274 -75.52755341
188.87438 24.7296724 -99.00009741
162.04649 57.0107744 10.99990259
34.29047001 39.2391914 4.999902593
-63.91016999 18.6554214 -89.00009741
171.24973 188.1944514 -25.83363341
169.75449 70.7070074 -1.360761407
197.74909 41.7589114 -83.00009741
147.73247 54.6064994 -83.00009741
173.84648 33.5766504 -83.00009741
88.12558001 8.031354398 4.999902593
-26.17005999 -2.460221594e-05 -48.22678141
171.24973 11.4037954 -45.57945641
-87.24461999 47.3369264 -89.00009741
171.24973 87.0172414 -52.58317241
166.24973 102.7429904 -71.90925341
169.57375 215.2650584 -1.149133407
20.49423001 -2.460221594e-05 -15.01727941
-157.31686 11.5964574 -89.00009741
156.99317 190.8109474 1.999902593
152.97537 46.1592244 -83.00009741
54.91229001 9.603389398 -89.00009741
176.70064 20.5918884 -89.00009741
166.24973 162.8811994 -44.14182641
171.82013 -2.341858602 4.999902593
146.92801 -0.7442826022 -83.00009741
60.81404001 -0.4204746022 -83.00009741
127.89869 34.3369044 4.999902593
90.70575001 30.2318004 -83.00009741
0.5739300056 -2.460221594e-05 -82.01342241
160.63516 67.3925084 10.99990259
171.24973 26.4235964 -31.91789141
166.24973 19.4677044 -20.99866741
57.91503001 64.0764244 -83.00009741
166.36338 -2.460221594e-05 -62.28606841
171.24973 157.3226944 -47.19546241
121.51551 49.8639164 10.99990259
179.56915 160.4999754 -95.00834741
177.70611 3.200727398 10.99990259
-121.30731 11.7867984 -89.00009741
133.64645 -1.911911602 -83.00009741
196.57479 231.6560093 -99.00009741
-78.02472999 -2.460221594e-05 -79.20554841
198.11598 109.5101764 -99.00009741
-156.28779 -2.460221594e-05 -65.83815341
166.24973 225.9974063 -38.73830741
171.24973 50.1713904 -63.72837041
60.50422001 61.0466194 4.999902593
-15.84766999 58.0440054 -83.00009741
166.24973 81.5308184 -61.35737241
156.66278 100.0075554 1.999902593
171.24973 196.6941984 -87.87210541
140.54624 -2.460221594e-05 -4.491216407
181.61964 24.8043354 10.99990259
185.65914 162.8806994 -99.00009741
170.66072 122.6794264 -3.140288407
118.11467 59.7508464 10.99990259
131.16809 62.1791444 -83.00009741
166.24973 149.0268224 -37.12329841
135.7804 52.9534374 10.99990259
-43.68233999 13.2276054 -89.00009741
26.46780001 39.0891124 -89.00009741
37.87065001 54.9679704 -83.00009741
75.48861001 35.7074974 -89.00009741
-59.18302999 36.6614714 -89.00009741
167.71995 99.9213314 0.5902955928
-89.44402999 30.4059264 -89.00009741
148.80743 17.5785114 4.999902593
166.07833 203.9308354 -5.138912407
58.18738001 4.788662398 4.999902593
200.23829 59.1102484 -83.00009741
196.27061 219.6183083 -99.00009741
185.52091 108.1440554 -99.00009741
163.02845 8.382252398 -83.00009741
-20.91866999 -2.460221594e-05 -53.23740041
82.20338001 -1.911844602 4.999902593
-79.53781999 -2.460221594e-05 -64.74603941
166.24973 191.3617694 -62.07635841
139.5482 169.4390304 -3.000097407
171.24973 193.1324164 -52.31500241
92.15792001 -2.460221594e-05 -16.28897041
166.24973 158.2224654 -69.15564441
153.30681 213.5062135 1.999902593
76.73271001 55.0619674 4.999902593
-120.44272 3.300113398 -89.00009741
159.79142 2.986038398 -89.00009741
173.45442 10.7038514 -99.00009741
-49.72907999 62.4751294 -83.00009741
87.60249001 15.9279764 4.999902593
189.08363 184.9277034 -94.00009741
166.24973 182.5584214 -36.51453541
200.443 214.4577366 -94.00009741
151.44576 62.7929114 -83.00009741
171.24973 35.0962564 -30.18950141
178.14904 2.568546398 -99.00009741
21.67114001 0.03969139778 -89.00009741
166.24973 189.4098484 -87.61502741
-74.10700999 28.6030494 -89.00009741
136.50662 1.023246398 -89.00009741
166.24973 212.3195605 -30.15620641
172.93145 57.1221424 -89.00009741
166.24973 219.2892838 -16.09820541
171.24973 181.1447234 -68.94973441
166.24973 66.0889314 -97.85894841
-5.561969994 20.4955944 -89.00009741
-150.50645 -2.460221594e-05 -77.43393541
81.17215001 61.4576904 -83.00009741
162.44562 6.973887398 10.99990259
166.24973 233.499029 -60.10688741
83.69633001 31.1623164 -83.00009741
171.24973 92.0515204 -28.86969541
153.45294 46.8244104 10.99990259
-112.51977 46.6297724 -83.00009741
167.08923 39.9657984 -69.85800741
166.24973 158.1543104 -34.33201641
130.10128 201.9849294 1.999902593
118.9608 48.2514704 -89.00009741
171.24973 106.2858904 -84.44362741
166.24973 178.4795914 -80.76766641
107.92357 67.9999754 10.49431059
192.29949 159.2823874 -99.00009741
-147.31623 4.916301398 -83.00009741
136.88527 208.0084164 -3.000097407
-61.64586999 25.2108104 -89.00009741
166.24973 102.6164054 -16.24711941
122.97306 191.5944254 1.999902593
166.24973 6.600692398 -36.96331841
171.24973 239.8794354 -70.12027341
6.972300006 3.166429398 -83.00009741
166.24973 61.7805314 -47.12605541
-35.24920999 -1.612285602 -89.00009741
137.61575 14.6699024 4.999902593
-162.84079 30.6527654 -89.00009741
-1.477279994 20.3633744 -83.00009741
179.49023 30.9094454 -89.00009741
194.37444 207.8428364 -99.00009741
-33.94967999 58.1753224 -83.00009741
146.59812 12.6735264 -89.00009741
8.790050006 36.6457324 -83.00009741
88.06640001 39.6667784 -83.00009741
191.14232 56.6670814 -99.00009741
191.82299 246.2860891 -94.00009741
192.83959 4.246591398 -83.00009741
197.25688 70.2787344 -99.00009741
-83.76062999 23.4664964 -83.00009741
100.26875 41.0110464 -89.00009741
40.16082001 22.5282714 -89.00009741
171.24973 17.3998264 -36.78636441
68.69062001 7.297503398 -83.00009741
128.75064 217.3597931 1.999902593
-84.94612999 -2.460221594e-05 -21.23427541
37.16425001 41.6862894 -89.00009741
75.33220001 60.9067304 -89.00009741
170.79004 50.5150014 4.999902593
27.69417001 56.8292884 4.999902593
178.50214 110.4108664 -89.00009741
121.24973 112.1441424 1.221901593
171.24973 117.0048704 -41.59286741
171.24973 197.0129044 -62.55813941
161.87292 -0.6112896022 -83.00009741
-56.86461999 45.6995384 -89.00009741
141.42865 110.3261464 1.999902593
103.93574 -2.460221594e-05 -11.67886341
116.53378 9.395236398 -89.00009741
105.93628 -2.460221594e-05 -42.67125541
152.06549 92.3162104 1.999902593
166.24973 206.5639894 -49.29874041
11.62169001 49.3497374 -83.00009741
-121.48298 18.6143394 -89.00009741
171.24973 154.7869914 -63.49684541
68.74744001 -2.460221594e-05 -24.27353341
168.08023 -2.460221594e-05 -33.13936441
167.68453 113.1229284 -99.00009741
186.91256 57.4988604 -89.00009741
171.24973 138.3699334 -48.93323341
-17.80715999 12.8276584 -89.00009741
145.10677 57.3056604 -89.00009741
85.12089001 -2.460221594e-05 -43.78580041
171.24973 82.3555674 -83.00997741
171.24973 244.3401867 -39.54659141
167.44904 150.6087424 -72.65201741
181.10307 75.4367904 -89.00009741
153.23847 15.7775824 -83.00009741
-132.71908 -2.460221594e-05 -57.58269441
-89.28761999 63.4589844 -89.00009741
-72.48029999 -2.460221594e-05 -53.16491441
171.24973 168.6313154 -13.19138641
37.27275001 -2.460221594e-05 -79.71985741
171.24973 171.1682934 -35.36829541
170.43293 225.3201477 -2.692985407
180.35734 67.9999754 -88.20203741
166.24973 230.539747 -48.24468241
-136.56709 9.301779398 -89.00009741
132.48855 -2.460221594e-05 -25.29507441
-44.05585999 4.909547398 -83.00009741
140.45277 177.0529024 -3.000097407
37.68218001 29.1494764 4.999902593
-15.08175999 -2.460221594e-05 -41.12470041
153.01001 30.4733334 4.999902593
154.58642 147.4584814 -3.000097407
-31.80503999 -2.460221594e-05 -82.36530741
-71.95112999 64.5584634 -89.00009741
171.24973 45.3941554 -34.74980041
125.82748 57.9606304 -83.00009741
98.60585001 5.557757398 4.999902593
56.77264001 49.1203184 -83.00009741
-112.40161 11.5048434 -83.00009741
166.24973 188.0996064 -53.66472541
166.24973 208.6426724 -68.13914541
169.18753 76.5719764 -89.00009741
163.72787 159.4712634 1.924224593
56.12627001 -2.460221594e-05 -5.505614407
171.24973 228.008931 -59.48650941
148.08726 136.0498404 1.999902593
-90.15764999 53.3723964 -89.00009741
175.98394 224.6362581 -99.00009741
127.6091 46.9113904 10.99990259
171.24973 157.6459084 -28.01204641
81.60404001 39.5216514 -89.00009741
116.0803 -2.443100602 4.999902593
-40.80035999 59.3046514 -89.00009741
166.24973 243.1189973 -86.93595341
179.83242 61.9413604 4.999902593
193.92458 35.5706404 -83.00009741
128.04928 230.9489588 1.999902593
-18.90408999 25.8851514 -89.00009741
166.24973 195.5674914 -19.63025041
175.73114 56.5369984 10.99990259
2.381410006 9.733485398 -89.00009741
16.57944001 -2.460221594e-05 -38.48790341
166.24973 199.1826344 -31.43224941
136.77605 13.2674484 -83.00009741
166.24973 19.5660244 -30.53036841
166.24973 29.1721244 -50.99012041
181.71759 12.8735224 -99.00009741
-46.00545999 11.2765164 -83.00009741
50.34341001 -2.460221594e-05 -77.56402641
57.08685001 -2.460221594e-05 -31.43640941
93.70794001 51.3854484 -89.00009741
19.16590001 -2.460221594e-05 -0.8393624072
170.85883 121.1565064 -85.85800741
-19.07920999 45.6245104 -89.00009741
14.57493001 58.4231234 -89.00009741
142.60784 72.3364614 1.999902593
129.60834 139.5901684 -3.000097407
171.24973 116.7313554 -15.43820841
166.24973 66.5556294 -37.64740541
50.82420001 -2.460221594e-05 -20.54935541
166.24973 23.6070974 -94.55636841
184.01865 137.3588204 -99.00009741
128.97992 82.9430494 -3.000097407
171.24973 50.0671184 -21.25707541
-129.96932 18.2073744 -89.00009741
185.76448 238.6369098 -99.00009741
-157.51272 61.6937094 -83.00009741
-144.5737 59.9319664 -89.00009741
18.66533001 53.2783994 -83.00009741
171.24973 33.4066214 -58.71691741
166.24973 137.6891264 -93.26704841
-82.19229999 13.3389904 -89.00009741
188.58852 30.5380144 4.999902593
177.91236 16.9801884 4.999902593
166.24973 79.4888034 -12.85490041
163.50711 170.7796174 -3.051256407
66.11843001 56.1542814 -83.00009741
166.24973 248.1364389 -73.95480141
190.02467 209.9088604 -94.00009741
29.33673001 -2.460221594e-05 -39.82865041
-61.71669999 -2.460221594e-05 -69.72286041
166.24973 41.4666754 -52.46717041
171.24973 129.1342744 -56.74582841
-70.04634999 -2.460221594e-05 -7.618237407
171.24973 143.8255884 -26.48495941
-100.49906 -2.460221594e-05 -65.01746541
171.24973 28.4749274 -66.13137741
-56.92754999 41.9963484 -83.00009741
171.24973 126.7783914 -21.29317441
-138.10292 50.8995004 -89.00009741
-27.25930999 32.2114834 -89.00009741
186.74291 9.767287398 -83.00009741
184.89251 39.7548664 10.99990259
121.24973 126.4018184 1.731136593
166.24973 119.6964184 -19.56048541
124.45398 21.2778694 10.99990259
45.26828001 47.6740134 -89.00009741
113.97088 1.600226398 -89.00009741
186.63853 131.1646774 -89.00009741
44.45554001 4.804255398 -83.00009741
9.867490006 -2.460221594e-05 -4.624587407
183.36093 23.7587334 -83.00009741
133.98448 60.9945574 10.99990259
199.12726 156.6177324 -99.00009741
166.24973 167.1935164 -17.28836241
129.82298 5.172377398 4.999902593
166.24973 126.4246284 -48.92936341
75.27991001 67.9999754 8.720511593
202.68537 39.8598494 -89.00009741
34.36360001 67.5823224 4.999902593
134.39175 237.0654862 -3.000097407
191.09141 101.8272324 -89.00009741
-138.27407 38.0059874 -89.00009741
166.24973 38.9498864 -28.14861541
-33.79740999 6.525016398 -83.00009741
-130.43348 28.0105814 -89.00009741
174.12918 18.6276344 -99.00009741
191.83105 25.5397404 -83.00009741
159.46138 171.3369664 1.999902593
166.24973 120.2773874 -65.73158641
-115.35249 -2.460221594e-05 -20.04737341
150.41164 155.2544044 1.999902593
-22.10786999 62.3902844 -83.00009741
-136.39984 34.4266584 -83.00009741
171.24973 149.3185154 -48.52786341
119.02923 13.1817584 10.99990259
128.35839 40.9561614 -83.00009741
171.24973 187.2218424 -62.51604441
-109.2899 -2.166274602 -89.00009741
121.84455 168.0305444 1.999902593
65.34043001 -1.990345602 -89.00009741
-114.67232 67.9999754 -83.14232141
129.47665 105.4054674 1.999902593
26.98988001 -2.460221594e-05 -48.79194941
125.69883 74.2668894 1.999902593
100.24947 1.529860398 10.99990259
171.24973 6.128643398 -17.35112041
168.4942 160.4197724 -84.14608841
-49.77536999 -2.460221594e-05 -63.31563041
147.60091 -2.460221594e-05 -6.592850407
166.24973 86.2313354 -12.05488241
150.48699 7.697782398 10.99990259
121.28236 6.481068398 -83.00009741
-77.63519999 -2.460221594e-05 -19.77512841
-107.19587 8.997995398 -89.00009741
171.17092 31.8742084 -89.00009741
171.24973 160.2143764 -38.48128041
144.16126 138.4262004 -3.000097407
138.74213 244.5113354 -3.000097407
-129.88202 7.833834398 -83.00009741
89.14966001 3.545557398 -83.00009741
119.56102 25.5859584 4.999902593
-148.84108 65.3162254 -89.00009741
160.14582 -2.460221594e-05 -31.47205541
124.57108 54.4472184 4.999902593
166.24973 226.813228 -89.57035841
166.24973 100.4910664 -60.72337941
121.24973 153.0349154 -1.432617407
170.23792 129.0886514 -99.00009741
166.24973 207.9336324 -58.70913841
166.24973 249.5312988 -62.53401941
157.3461 -2.460221594e-05 -65.19972241
-168.75027 3.414592398 -83.06304541
112.87529 67.8967024 -83.00009741
20.29534001 67.6766264 -83.00009741
187.39004 201.2824854 -94.00009741
171.24973 233.8461587 -82.07708441
156.48008 124.6860504 -3.000097407
159.19249 27.3361104 4.999902593
85.72342001 10.4347704 -83.00009741
101.90052 -2.460221594e-05 -1.191088407
126.58653 204.8570704 -3.000097407
142.44576 15.9152204 10.99990259
-168.58304 17.8118644 -83.00009741
172.59713 100.6763584 -89.00009741
171.24973 107.5742814 -34.86424041
148.87263 -2.460221594e-05 -35.45840841
-94.19555999 -2.460221594e-05 -60.83074541
166.24973 8.910073398 -23.05070841
192.11816 48.8668844 -83.00009741
166.24973 96.4314514 -10.12382741
191.00601 8.304768398 -99.00009741
153.44393 182.5605584 1.999902593
90.67829001 16.7053614 -83.00009741
12.52853001 11.6732264 -89.00009741
166.24973 28.7374674 -39.43848841
184.00379 5.763153398 -89.00009741
185.08763 98.6742134 -99.00009741
166.24973 198.2884984 -72.72097641
-40.06290999 -2.460221594e-05 -43.13560041
192.16816 67.9999754 -83.22522641
-160.35099 24.8085624 -89.00009741
36.50037001 -2.460221594e-05 0.9903585928
166.24973 84.3915964 -75.49042341
196.71908 134.8202144 -99.00009741
171.24973 250.2149045 -45.65368441
0.2698700056 38.7960184 -89.00009741
7.536800006 -2.460221594e-05 -23.84093841
166.24973 144.3719444 -65.74498841
115.01951 3.801205398 4.999902593
156.35542 11.3788064 10.99990259
166.24973 179.5712444 -45.23835941
-32.14255999 64.9351404 -83.00009741
88.04575001 -2.460221594e-05 -69.08092541
-136.05891 -2.244674602 -83.00009741
172.58514 -2.460221594e-05 -65.25400741
171.24973 103.4419254 -57.54895741
-154.67041 25.8814454 -83.00009741
171.24973 75.5442844 -54.43452941
19.53918001 -2.460221594e-05 -29.37712141
-80.25247999 43.3358114 -83.00009741
197.80799 58.4984854 -99.00009741
194.53396 18.7208014 -89.00009741
146.86515 176.9558764 1.999902593
166.24973 66.9645164 -61.79264741
201.07068 11.4553724 -99.00009741
136.09027 141.0170824 -3.000097407
193.45966 61.0229264 -83.00009741
27.59691001 50.7130244 -89.00009741
166.24973 86.1396184 -41.48756341
187.85275 66.8507034 -89.00009741
-146.58477 47.5604654 -89.00009741
170.27555 40.1558374 -89.00009741
170.93774 104.9994924 -4.030565407
182.01251 235.7208057 -94.00009741
164.91682 177.4441504 -3.575182407
166.24973 97.6708164 -35.64945941
183.90657 -2.460221594e-05 -78.51065441
176.9056 48.6832844 -83.00009741
136.3717 216.579105 -3.000097407
152.23493 248.191661 -3.000097407
-88.97798999 67.8818094 -83.00009741
103.90548 67.0896384 -89.00009741
176.36365 9.718409398 -89.00009741
168.3172 38.5790244 4.999902593
-162.29423 5.973118398 -89.00009741
167.05991 65.5384214 10.99990259
171.24973 165.9354534 -41.88573741
171.24973 60.3053654 -41.43447041
166.24973 165.3802294 -68.99294941
24.83219001 33.0558284 -83.00009741
71.36297001 -2.460221594e-05 -67.67301741
111.28387 -2.095181602 -83.00009741
166.24973 249.9850336 -36.34915941
140.49985 57.5877284 4.999902593
137.93362 25.2335744 -83.00009741
59.87856001 42.5974184 -83.00009741
180.50677 44.7683374 -89.00009741
171.24973 98.9920644 -71.93380941
164.40291 127.3684744 1.817384593
107.6851 44.6302984 -83.00009741
42.28980001 61.1995194 -89.00009741
-107.41781 38.4157374 -89.00009741
166.24973 238.2163174 -47.16981541
196.10272 68.0663894 -89.00009741
-23.81065999 -2.460221594e-05 -66.68005041
196.46137 52.3385044 -99.00009741
-111.64806 -2.460221594e-05 -81.09212041
125.2836 136.9492264 1.999902593
173.90425 113.2628554 -99.00009741
-37.38862999 32.9890064 -83.00009741
-69.74997999 -2.460221594e-05 -17.86588941
196.77665 11.1699984 -89.00009741
171.24973 196.2542134 -8.094451407
171.24973 216.4876377 -43.58798641
-21.92237999 50.5103014 -83.00009741
150.71367 61.5416594 10.99990259
30.00759001 60.6081084 -83.00009741
-12.58408999 48.8404704 -83.00009741
178.24203 -2.460221594e-05 -35.99191341
203.97794 201.3777224 -99.00009741
122.01095 47.7810664 -83.00009741
163.80602 37.5977084 -83.00009741
124.82571 -2.460221594e-05 -64.66671641
-68.48684999 25.8751184 -89.00009741
-99.19552999 28.7292474 -89.00009741
-74.33125999 46.5102584 -89.00009741
142.78705 216.3894894 -3.000097407
193.35664 192.1876854 -94.00009741
172.36721 161.7782074 -93.28056141
166.24973 181.8046314 -17.93995041
166.24973 82.8967464 -93.42145941
166.24973 54.9036034 -41.74114141
-131.35535 61.7844294 -89.00009741
49.34756001 62.2778014 -83.00009741
185.1225 67.8539894 4.999902593
108.9889 27.4679254 -83.00009741
185.08438 124.6365204 -89.00009741
171.24973 250.078406 -18.23953141
-155.1107 -1.658667602 -89.00009741
-54.70036999 29.4463094 -83.00009741
152.28484 224.8938629 -3.000097407
-76.36138999 5.797474398 -89.00009741
-111.47069 45.7794974 -89.00009741
-53.83742999 9.846312398 -89.00009741
166.24973 168.7645314 -61.18343841
-39.47266999 67.9082994 -83.00009741
121.24973 196.5380274 -1.609672407
