# .PCD v0.7 - Point Cloud Data file format
VERSION 0.7
FIELDS x y z
SIZE 4 4 4
TYPE F F F
COUNT 1 1 1
WIDTH 1273
HEIGHT 1
VIEWPOINT 0 0 0 1 0 0 0
POINTS 1273
DATA ascii
-40.25016127 173.9454654 141.3911826
-36.25016127 137.6099764 104.7658516
-19.04377427 219.5663597 -9.738722883e-05
24.90913173 238.1025632 151.9999026
-40.25016127 53.65950139 92.59081761
-36.25016127 188.1934264 125.0167296
-36.25016127 230.9715967 128.9920266
3.270713725 -2.46071113e-05 8.994594613
-36.25016127 171.9983224 121.2032806
-40.25016127 101.8851644 86.90673461
-36.25016127 149.3563594 144.5851636
-40.25016127 144.0091694 119.2765436
-15.21407827 133.7603204 155.9999026
17.35438073 240.3890288 -9.738722883e-05
0.7231127253 89.61796839 -9.738722883e-05
-36.25016127 150.7556144 6.951488613
-28.12654527 52.83546739 -9.738722883e-05
14.51610373 -2.46071113e-05 141.4386116
-19.98056927 77.92305139 -9.738722883e-05
-21.06736927 158.1592574 151.9999026
-30.96447327 171.7051944 151.9999026
-11.57811527 155.1100314 -9.738722883e-05
-36.25016127 147.7533374 80.59613561
-36.25016127 95.87759639 38.86092161
-40.25016127 39.04559539 189.9253356
32.63572973 188.1532274 151.9999026
3.369843725 46.97102239 -9.738722883e-05
11.78890073 29.04476139 151.9999026
25.15171873 26.65433739 201.9999026
11.18314473 37.39679639 -9.738722883e-05
-37.19321127 224.6596263 154.2625926
4.894277725 27.48271139 -9.738722883e-05
-30.50713227 106.5688734 -9.738722883e-05
-19.70180427 33.34442439 151.9999026
-40.25016127 21.59999039 103.7557466
7.988205725 245.6773575 151.9999026
-40.25016127 40.57825839 28.73338261
30.61310573 -2.46071113e-05 24.64289961
-7.753858275 181.6277704 155.9999026
-15.81092527 -2.46071113e-05 41.81559861
-40.25016127 57.15354139 130.5547526
-40.25016127 56.81489639 34.17791461
-40.25016127 73.73495739 -0.02862238723
24.56437273 76.23218939 151.9999026
1.209528725 35.58818439 151.9999026
39.48174173 67.99997539 201.5506636
-36.25016127 114.6666384 136.2080376
-40.25016127 203.6269814 5.885673613
37.74983873 173.2178544 -0.1964483872
-36.25016127 68.60554339 143.1187876
-16.85872827 224.2129325 155.9999026
-14.23342327 87.50415539 -9.738722883e-05
3.914187725 194.9982484 151.9999026
-40.25016127 42.44177839 -1.623320387
14.69417973 186.2549724 151.9999026
-30.74087627 5.547566393 201.9999026
20.60083373 105.2067854 -9.738722883e-05
-40.25016127 242.4243474 8.300962613
-40.25016127 78.84436939 58.58566761
-40.25016127 18.38063939 4.719175613
-40.25016127 21.56912139 168.1113256
-5.161224275 -2.46071113e-05 33.16564061
-18.98525627 -2.46071113e-05 126.6301196
-36.31322627 33.79108439 201.9999026
-36.25016127 252.0050587 22.59979061
3.800534725 11.11606339 -9.738722883e-05
0.4874667253 235.9809765 -9.738722883e-05
-0.5523172747 55.95809639 151.9999026
-40.25016127 18.49528639 24.14927361
-36.25016127 112.8991444 45.44221961
-40.25016127 41.46609739 38.83098961
-18.75527527 -2.46071113e-05 88.96920061
-40.25016127 46.68909439 21.14354661
-40.25016127 105.7672264 13.32936261
-36.25016127 87.06654639 86.17138161
-15.85629027 57.61763839 195.9999026
-40.25016127 205.6842904 134.6665926
28.20410573 147.4611074 155.9999026
-36.25016127 188.0828904 92.92287161
-40.25016127 146.2653324 25.16498361
-14.52946227 12.17688039 155.9999026
-1.608519275 -2.46071113e-05 49.60767861
-36.25016127 170.9846624 130.6403486
-31.82556827 33.74186839 151.9999026
9.736855725 -2.46071113e-05 110.7461666
43.06244973 -2.46071113e-05 116.2428546
-0.9543622747 140.6853234 -9.738722883e-05
9.477505725 61.12067539 201.9999026
-36.25016127 159.9038244 62.91998861
-36.25016127 6.203988393 53.75474061
32.55009073 -0.4967076071 195.9999026
-8.412819275 41.84362139 -9.738722883e-05
-40.25016127 138.7915544 50.88364961
-36.25016127 172.4936214 7.269938613
6.093307725 186.9548434 155.9999026
29.19009873 -2.46071113e-05 49.28488761
-36.25016127 31.50125039 142.2848476
1.939463725 71.45801339 155.9999026
-36.25016127 186.8415964 107.0619626
-40.25016127 125.2791794 76.89772961
-36.25016127 109.5135844 32.15141761
-40.25016127 78.18068139 102.2457296
-16.47817427 24.61304139 195.9999026
-36.25016127 252.158528 31.39580461
-36.25016127 144.7746924 98.40206661
-28.46310527 116.5104094 155.9999026
6.070500725 208.2791504 -9.738722883e-05
11.49285873 -2.46071113e-05 79.98103461
-13.81793027 112.4967234 -9.738722883e-05
-40.25016127 64.90211239 51.40887461
-16.23109827 50.62525539 201.9999026
27.46140873 52.48200239 155.9999026
-40.25016127 82.32389839 78.58981861
6.407208725 -2.46071113e-05 93.19416961
-40.25016127 87.63034839 102.6195836
-40.25016127 9.011497393 40.53906461
-32.31813227 160.0532944 0.007826612771
-38.04712227 137.6083604 153.4865336
-40.25016127 113.7649024 55.82626761
-7.375982275 212.7444975 155.9999026
20.09307173 -2.266105607 52.99990261
27.48092273 -2.46071113e-05 161.5886806
-40.25016127 40.22693239 142.4151706
-19.19666027 242.3264077 155.9999026
-42.89408127 45.48548439 194.9999026
-40.25016127 229.6254668 44.43220261
-39.81653327 50.24775639 201.9999026
-36.25016127 153.5219944 133.1100646
22.57716773 -2.46071113e-05 80.11882461
23.83839473 67.99997539 196.1367686
21.72860073 30.68386839 155.9999026
-42.95097727 18.55800339 195.9999026
-40.25016127 241.7039001 129.6104826
0.3134797253 144.5241994 151.9999026
-40.25016127 171.8626224 58.72278361
-40.25016127 35.76093039 3.685938613
-42.89231227 -2.46071113e-05 82.07942761
-40.25016127 203.2681794 117.8043326
27.93491573 -2.46071113e-05 40.87702361
-36.25016127 91.42709939 25.98316561
-9.476202275 228.9348762 151.9999026
-3.253116275 124.5746244 151.9999026
-40.25016127 7.169822393 99.32327861
-40.25016127 64.47357239 1.483540613
-40.25016127 26.00348439 88.60321461
2.820390725 53.37994039 195.9999026
-40.25016127 70.73572639 67.31911461
-5.009835275 33.65081839 201.9999026
-40.25016127 4.000033393 111.0486436
-36.25016127 234.7654309 73.39647061
28.58833173 210.4181084 -9.738722883e-05
-40.25016127 152.1250774 97.04021561
8.057593725 -2.46071113e-05 40.67754461
23.81653473 58.88416139 151.9999026
-38.18706627 136.3310154 -1.332597387
-36.25016127 121.8633574 104.4287766
12.68114373 5.397734393 195.9999026
26.48927173 124.4604614 151.9999026
-40.25016127 126.8082194 24.22620861
-40.25016127 37.50302439 102.1334906
-40.25016127 136.3001644 14.80843161
-19.34191027 117.3803824 151.9999026
-36.25016127 67.46768739 134.2201786
22.66380573 193.6387254 151.9999026
36.03109273 172.6550624 155.9999026
37.63521173 32.26311339 -1.524579387
31.19329173 244.5205732 155.9999026
-40.25016127 134.5873824 136.3322986
-40.25016127 139.4928004 87.01210961
-3.170441275 247.130421 -9.738722883e-05
-36.25016127 44.81437539 107.5629396
-40.25016127 71.01059539 118.3437806
11.20814773 -2.46071113e-05 160.4325756
-40.25016127 95.23603939 99.35502361
-40.25016127 130.5285464 122.5379686
32.74679973 -2.46071113e-05 121.4169306
-36.25016127 227.1293481 76.80637261
21.58213873 176.1530074 155.9999026
-40.25016127 98.41071739 55.02719661
7.083696725 -2.46071113e-05 188.5579686
-40.25016127 22.38053639 119.3651976
-36.25016127 19.99205639 126.8863826
-23.49456327 22.45451039 -9.738722883e-05
-40.25016127 190.8765994 30.50645261
17.24434573 112.7512574 -9.738722883e-05
-0.7317182747 133.4448734 155.9999026
-36.25016127 194.2354494 72.09244561
-40.25016127 25.71410339 70.92830361
-31.73227527 46.92358439 201.9999026
-1.971203275 58.22325439 201.9999026
-36.25016127 69.31450839 82.47172161
-36.25016127 38.03127239 93.92656061
12.81348073 -2.46071113e-05 126.5005206
-39.55490927 -2.46071113e-05 94.80315661
-15.34557227 69.73604439 -9.738722883e-05
-20.72136827 41.19456239 201.9999026
16.74811473 204.2354604 155.9999026
31.21146073 45.17935539 155.9999026
-36.25016127 48.80668739 50.18997561
-36.25016127 145.8203714 111.8404616
-1.360307275 121.5103964 -9.738722883e-05
-36.25016127 71.87446839 15.08731161
-40.25016127 86.62720239 123.1970526
43.16286873 -2.46071113e-05 158.2132816
15.61763273 87.18479739 155.9999026
0.2595177253 24.49605639 195.9999026
-36.25016127 142.0065974 43.15095561
-40.25016127 139.8432494 64.34127261
-40.25016127 39.34426839 126.2605656
35.21502073 -2.46071113e-05 64.25514061
-40.25016127 130.6789364 91.26348461
-40.25016127 202.9756274 40.38210261
-43.10912827 109.8444454 130.8023886
-11.18636827 219.8012812 151.9999026
13.40952973 90.97690439 -9.738722883e-05
-42.41611327 130.6126814 48.59389661
-40.25016127 101.1350394 72.59361961
32.77954373 -2.46071113e-05 154.8981716
-37.07126127 26.61277339 195.9999026
27.51087473 168.5762544 -9.738722883e-05
-15.66238927 183.2760754 155.9999026
6.985202725 149.8480114 -9.738722883e-05
3.056917725 -2.46071113e-05 144.1397806
4.969988725 84.24762739 151.9999026
-36.25016127 74.18818639 35.84897561
-40.25016127 199.9012384 100.4928126
-36.25016127 217.3364526 33.18827161
-40.25016127 179.6207024 78.35389361
21.94384373 15.20761339 201.9999026
4.495854725 62.99584139 195.9999026
-40.25016127 19.28696739 178.7958246
27.97081873 60.83163339 195.9999026
-40.25016127 52.81027139 68.83389161
-32.18712827 -2.46071113e-05 70.00784361
-36.25016127 76.46212139 26.43173561
-36.25016127 240.9531572 78.45477761
1.421473725 81.67520139 -9.738722883e-05
-16.40400327 40.82601339 151.9999026
-41.23468027 -2.46071113e-05 2.413266613
-0.7585432747 244.1591779 155.9999026
15.56934273 63.24040639 155.9999026
-40.25016127 161.5401434 107.9972826
-40.25016127 232.2380876 51.93545361
-31.15781427 -2.46071113e-05 188.2715696
-35.88845027 -2.46071113e-05 17.70739261
-40.25016127 129.0348444 111.3322236
37.74983873 195.5825224 155.9506186
7.996785725 53.00338739 201.9999026
-6.561831275 18.84967539 195.9999026
-40.25016127 8.157132393 140.3277906
-36.25016127 214.4303947 91.63792761
19.71480573 122.7024834 155.9999026
-5.258444275 23.38674839 151.9999026
-40.25016127 31.42710739 107.1542016
37.65641273 232.1493645 151.9999026
35.31142073 153.7798004 -9.738722883e-05
-36.25016127 109.3378984 102.3308436
-42.30653127 178.7321344 55.46967361
20.37728973 156.4014214 155.9999026
-40.25016127 251.1176357 135.7684166
-23.08395227 26.25744139 151.9999026
-40.25016127 204.5651634 31.41649161
30.74808373 213.8516737 151.9999026
-23.11219127 23.41645339 201.9999026
-36.25016127 218.3696325 18.37851661
-36.25016127 213.4474332 78.57526261
31.64216173 60.69348839 151.9999026
-40.25016127 7.188182393 72.51964361
-40.25016127 119.0151094 24.16692261
25.31523473 141.4352504 151.9999026
1.519722725 109.6630744 -9.738722883e-05
7.644039725 170.8582264 151.9999026
27.77501573 10.93603339 -0.2940773872
-12.64163027 82.40959539 151.9999026
15.48060073 56.28281339 195.9999026
-8.843202275 193.8165484 155.9999026
-31.14775727 52.60345239 195.9999026
-40.25016127 78.87640139 16.73841261
-18.17194327 131.4219414 -9.738722883e-05
-33.86248227 18.51214739 0.3592086128
-40.25016127 141.0628494 72.97171161
-36.25016127 89.96381339 109.4911976
-40.25016127 115.8395964 107.1430116
-36.25016127 85.91886639 73.05958161
31.43478673 50.22988839 -9.738722883e-05
-37.82271327 241.5115 153.7327326
37.74983873 63.57570239 -0.5392823872
-40.25016127 164.8650074 73.23473061
-36.25016127 96.13980339 83.69282361
29.82150673 182.1131174 -9.738722883e-05
-40.25016127 248.6183317 60.77357161
-15.71942027 247.1932601 -9.738722883e-05
-24.53937927 236.7354554 155.9999026
37.22540573 35.85448339 195.9999026
13.93468773 -2.46071113e-05 11.64770961
-7.697092275 -2.46071113e-05 184.6383476
-9.413774275 148.2283894 155.9999026
10.19070273 176.5824074 -9.738722883e-05
-36.25016127 24.77947939 35.71552961
12.10817673 100.4165524 151.9999026
-40.25016127 128.2432114 41.36244561
-40.25016127 216.218529 145.9097376
-40.25016127 235.4375239 88.35631161
7.767967725 -2.46071113e-05 172.6569366
-40.25016127 174.3313814 71.05591561
-36.25016127 188.4165254 18.95484461
9.051726725 68.71697039 155.9999026
-35.93396627 -2.46071113e-05 174.0977976
28.26556873 35.38571239 -9.738722883e-05
-36.25016127 110.2001504 90.67979461
-17.18568427 31.44809139 201.9999026
-0.7265942747 3.319452393 201.9999026
-40.25016127 175.2595414 22.18406661
-33.04727827 47.05613539 0.1567986128
5.713056725 12.78943539 201.9999026
-17.52039627 170.5226384 155.9999026
-31.82236727 32.62427239 195.9999026
-21.69931927 194.4760574 -9.738722883e-05
-40.25016127 13.41908639 127.6881706
-40.25016127 244.1825917 23.77045961
-40.25016127 189.8813474 54.69538761
-36.25016127 65.48203439 26.38909861
-36.25016127 252.1768669 7.661055613
-36.25016127 99.20740839 11.36698161
31.41900573 72.92241839 151.9999026
22.07218373 169.2096254 151.9999026
-36.25016127 52.19264439 102.1333476
-36.25016127 86.43954739 41.20720861
-7.758001275 41.55549739 155.9999026
30.74637673 142.3618524 -9.738722883e-05
-14.58685727 17.32436339 195.9999026
-36.25016127 224.0411024 125.7001826
6.266630725 150.8397084 151.9999026
-36.25016127 223.6966019 13.06937261
-40.25016127 37.53164139 65.61781461
9.621686725 -2.46071113e-05 100.6243486
-11.74792827 210.6667334 -9.738722883e-05
-33.33412527 79.21722739 151.8363076
-10.55786427 22.82719539 201.9999026
-20.56290427 57.78155339 151.9999026
20.34336073 64.63503539 -9.738722883e-05
-12.43191827 170.3379814 -9.738722883e-05
-36.25016127 39.19382839 74.80884361
-36.25016127 203.3356404 127.8774486
20.65554073 39.86984239 195.9999026
-40.25016127 226.5664533 114.0488276
-17.60875127 206.9326744 151.9999026
-36.25016127 251.1509753 117.0343606
-40.25016127 41.06035339 82.16048561
-27.34587027 59.78675439 195.9999026
-1.989233275 202.5249874 151.9999026
18.10413373 -2.46071113e-05 154.5790776
6.290620725 236.0109071 155.9999026
22.25209773 25.37462839 -9.738722883e-05
35.81412273 31.54470139 151.9999026
-36.25016127 20.52487939 76.80840861
-31.60101727 162.6701834 151.9999026
-40.25016127 158.0265374 41.66280761
29.53357573 106.0073444 155.9999026
-32.36500427 131.8253984 151.9865466
-36.25016127 97.61841439 123.5609426
-36.25016127 229.0523132 84.34822961
-36.25016127 103.8817074 145.8941816
-36.25016127 174.8306654 64.15153261
-21.49999727 71.18700139 155.9999026
-36.25016127 210.1191394 99.68709861
-28.93834727 215.7705632 151.9999026
-33.37561527 151.3795474 0.2158806128
-36.25016127 108.7720394 116.9881576
-40.25016127 123.9228994 11.02409561
2.843651725 156.1005114 155.9999026
-36.25016127 240.5480236 94.16541661
-31.18518127 122.9085434 -9.738722883e-05
22.89090473 -2.46071113e-05 189.6675576
-31.72320927 100.7087294 151.9999026
-36.25016127 169.2222494 109.5385256
-36.25016127 157.8063594 127.1699566
-36.25016127 60.21045839 8.546163613
-40.25016127 160.3495204 33.57916761
-36.25016127 12.16399039 31.90948861
15.11346673 80.43022739 151.9999026
7.526966725 115.7404204 151.9999026
-40.25016127 101.7924114 22.33531561
-40.25016127 227.005541 96.59109661
-40.25016127 25.15950939 130.1241396
-36.25016127 10.15513539 92.35503061
-36.25016127 147.8052104 54.11927061
19.20575573 2.243393393 201.9999026
-31.07026927 143.7009114 151.9999026
19.42390773 152.2244914 -9.738722883e-05
-36.25016127 76.65351039 110.6490276
-6.045970275 104.6127374 155.9999026
-40.25016127 118.8841884 80.42348361
-29.15048627 35.72443039 201.9999026
-36.25016127 -2.001938607 125.6313816
-41.16919627 -2.46071113e-05 31.91009961
-21.55932327 181.8196864 151.9999026
15.07650773 100.4995014 -9.738722883e-05
-36.25016127 242.8309456 42.19665061
-40.25016127 212.8767255 133.7679166
12.37667073 124.7461684 155.9999026
-35.81199027 239.9224507 2.221074613
-40.25016127 38.88971739 14.61984361
-36.25016127 235.5819872 45.39532861
-40.25016127 213.5335872 118.6237806
-36.25016127 60.93064439 144.6357656
-36.25016127 245.8290465 109.5899306
-3.813239275 67.89713339 195.9999026
-37.12610327 63.17188739 201.9999026
31.28791473 17.02063639 154.4401346
0.2862897253 158.2729144 -9.738722883e-05
-31.72876227 -2.46071113e-05 146.9337266
-40.25016127 15.12530139 142.1436876
-36.25016127 24.42447239 96.42517061
-40.25016127 193.3925614 78.03705361
-15.15194127 48.56251539 -9.738722883e-05
-28.43995127 -2.46071113e-05 42.22026661
12.23846473 7.189000393 151.9999026
-36.25016127 131.2976234 129.4682136
13.89287873 219.3818312 155.9999026
-39.43779527 159.8759564 0.5049006128
-36.25016127 175.2576934 102.7446916
-31.77995527 -2.46071113e-05 95.87333361
-40.25016127 7.142665393 47.93187661
-36.25016127 186.9229104 67.50443161
18.94659273 64.36824939 201.9999026
-5.333799275 163.0708854 155.9999026
1.937356725 202.4952854 -9.738722883e-05
0.8906067253 102.8450514 155.9999026
-40.67960327 52.14880439 193.9433496
-5.052634275 -2.46071113e-05 164.8737036
-1.369023275 94.06169039 155.9999026
-34.44252427 4.851787393 195.9999026
-40.25016127 244.5955642 147.8360796
-38.93472827 0.4999753929 67.93603261
-39.20308727 187.7627614 151.8879806
-40.25016127 16.66819839 67.16491861
-29.24935527 93.49881139 -9.738722883e-05
-40.25016127 210.0340664 65.36924361
-21.52082627 237.2178581 -9.738722883e-05
16.31902973 173.2953614 151.9999026
-36.25016127 63.60394239 78.33158361
-16.86019027 3.467838393 201.9999026
-40.05118427 -2.46071113e-05 159.0983376
21.09019773 -2.46071113e-05 138.4253206
-40.25016127 30.15645039 117.0284166
-40.25016127 245.9588339 103.0005156
-14.09827627 35.78772539 195.9999026
-10.76091327 182.4669614 -9.738722883e-05
-40.25016127 94.51297939 129.3520946
-40.91351427 -2.46071113e-05 134.8201656
-36.25016127 8.823749393 114.2695816
9.552549725 20.90088739 201.9999026
29.37759573 42.83061539 195.9999026
-40.25016127 55.25076239 56.91474761
-7.557097275 131.8875324 155.9999026
12.30478973 3.959951393 -9.738722883e-05
16.34450973 23.73931639 151.9999026
-40.25016127 158.4661934 120.0932536
-20.97641827 135.8135054 151.9999026
-36.25016127 212.0045064 142.0587646
-6.181276275 88.18830839 -9.738722883e-05
-31.13471427 52.04996839 151.9999026
-40.25016127 178.7162004 4.283817613
19.12600873 136.9099764 155.9999026
-19.43292627 -2.46071113e-05 135.0096926
-40.25016127 210.3931524 7.751133613
0.5975787253 14.65932339 151.9999026
-40.25016127 112.0272994 141.2321286
-19.99042527 -2.46071113e-05 175.5373286
24.78960173 126.6515214 -9.738722883e-05
37.74983873 166.5692994 -2.164966387
4.838675725 62.32403139 -9.738722883e-05
-40.25016127 53.77911339 27.94766661
-7.884376275 8.842029393 201.9999026
-41.17935827 68.30989039 163.8636466
-40.25016127 170.3576414 33.08040661
38.35569073 6.159245393 201.9999026
16.78926873 243.4708769 155.9999026
-40.25016127 49.50257139 158.1282056
18.86238573 211.9710224 151.9999026
-35.98931827 167.3715914 2.634561613
-41.24812127 155.5552494 64.89421961
-36.25016127 125.5500564 116.5655686
-22.38615327 47.63591939 155.9999026
-21.24727027 -2.46071113e-05 54.32977861
-31.75794727 -2.46071113e-05 137.2421626
-9.952621275 0.4999753929 152.1064996
-40.25016127 92.22418239 8.387890613
-40.25016127 16.41125239 108.7607086
3.289397725 190.5565204 -9.738722883e-05
-36.25016127 124.2414984 35.11446661
-36.25016127 43.82720239 136.8975756
41.85100373 41.24489239 201.9999026
-36.25016127 75.37674139 141.9269956
-10.87826527 93.02308939 151.9999026
-36.25016127 57.26621939 118.2926646
-36.25016127 33.49776339 25.40446461
37.10299473 -2.46071113e-05 144.3157666
-40.25016127 61.04990539 23.00962161
-36.25016127 83.26524839 4.535013613
-40.25016127 183.5272424 121.9728486
-40.25016127 219.5854126 111.6608356
-40.25016127 47.55305239 179.2333196
0.4740007253 -2.46071113e-05 38.85789761
-40.25016127 175.5929424 89.72892061
-40.25016127 43.26870039 49.75620061
-40.25016127 248.6860407 122.0481036
20.62851873 32.69956639 195.9999026
-40.25016127 126.3468894 97.10344061
-36.25016127 155.5106584 46.77633361
-14.79312927 -2.46071113e-05 35.07888261
-40.25016127 134.8736974 35.85814861
-40.25016127 73.52525039 41.95484461
7.468975725 -2.46071113e-05 26.20445761
-40.25016127 26.29820239 157.8910416
-19.63161127 139.8288724 -9.738722883e-05
12.62715173 -2.46071113e-05 167.5522256
-40.25016127 6.241652393 81.62663061
-4.704546275 0.4999753929 -0.3662353872
6.526285725 0.4526323929 195.9999026
30.41365773 193.1580374 155.9999026
-40.25016127 96.83450139 114.4000126
-22.74669127 6.180864393 195.9999026
-40.25016127 50.07766539 140.4006096
-40.25016127 55.84990039 46.18711361
-20.46582427 -2.46071113e-05 103.3308746
-21.52280227 84.55130139 151.9999026
-5.865197275 119.7939344 155.9999026
-36.25016127 179.6826144 133.6972176
-40.30950427 85.05978439 143.4950516
-34.62122527 26.35221739 151.1513546
-36.25016127 49.48075439 117.2192896
6.095376725 19.86804939 -9.738722883e-05
-39.62351427 107.8647884 151.0989176
-35.22149627 -2.46071113e-05 84.06848561
-36.25016127 144.5268594 9.519018613
33.13466273 -2.46071113e-05 78.03453961
22.20531873 14.81069439 155.9999026
4.217110725 37.30805739 201.9999026
-40.25016127 55.12123139 148.1807106
-36.25016127 51.29283639 5.808021613
-34.58445027 93.69181039 155.6149546
-13.10476727 -2.46071113e-05 161.9925216
-36.25016127 207.5195214 89.33214461
-36.25016127 59.08101839 92.51180161
-38.05375827 37.22334539 195.9999026
-40.25016127 109.8948684 70.42195761
34.16873773 55.28417239 195.9999026
26.33462273 111.6850884 -9.738722883e-05
-40.25016127 199.6739794 89.85665961
-36.25016127 149.2848934 118.1866506
-23.61232727 -2.46071113e-05 121.7751156
-36.25016127 21.83105439 143.6636276
-40.25016127 182.0450634 138.6646826
-33.04260727 70.71801039 151.9077386
-36.25016127 194.9357694 60.35017361
-5.691553275 -2.46071113e-05 23.32987861
16.57202973 -2.46071113e-05 177.0671676
-36.25016127 176.7721004 47.21493561
-15.14745127 62.99059939 155.9999026
-40.25016127 100.0766204 42.19415061
-15.84659627 124.1183274 151.9999026
37.06106173 153.0397234 155.9999026
-9.608896275 207.8767394 151.9999026
-36.25016127 197.3207114 13.96569261
-29.25419527 -2.46071113e-05 54.23637461
-40.25016127 164.1513044 59.67030361
-39.92502327 232.3457705 150.1390876
-36.25016127 188.6346874 25.65628861
-36.25016127 247.9326659 75.35559761
-40.25016127 99.17077839 65.48344561
-36.25016127 233.8364118 109.9078406
37.74983873 49.43708039 -1.965863387
-36.25016127 180.8730094 22.08179061
-36.25016127 19.82376339 58.86883061
-40.25016127 67.98186839 90.76758461
-36.25016127 198.2713744 115.9973636
-40.11727327 57.94506739 2.849206613
6.370179725 94.20197039 -9.738722883e-05
-36.25016127 31.83028439 129.6745156
-40.25016127 65.05075739 126.6848956
12.13036773 -2.46071113e-05 56.19149061
-40.25016127 126.9942284 54.20044261
-36.25016127 134.8695204 84.46866861
-30.30011527 154.6358154 155.9999026
-20.07367327 -2.46071113e-05 160.3459856
-40.25016127 43.97459239 63.46587061
30.45007673 88.36317439 155.9999026
19.67406673 72.73333439 155.9999026
-35.60125427 175.9732644 150.0525806
35.81927773 -2.46071113e-05 137.8310456
31.51106873 61.51957239 -9.738722883e-05
-2.171845275 172.5495414 -9.738722883e-05
-19.07642927 153.3207744 155.9999026
25.71214573 36.77493739 201.9999026
-40.25016127 59.51296739 187.0143576
-36.25016127 66.33637939 70.40998861
-40.25016127 24.12685439 7.909349613
-14.86973827 198.8818364 151.9999026
-13.13408927 64.01245539 195.9999026
9.908029725 61.76622239 151.9999026
-36.25016127 216.372762 48.72998261
8.608855725 45.65739739 201.9999026
37.74983873 246.4417031 152.1480896
-40.25016127 238.105283 98.75052561
-40.25016127 55.67362139 105.9825006
-22.25426727 246.5136158 151.9999026
-36.25016127 86.20767439 116.9671896
26.28471073 41.61975839 -9.738722883e-05
-40.25016127 71.87047439 136.9141006
-3.506149275 176.7939414 151.9999026
-9.689011275 52.22241039 155.9999026
-42.11361327 -2.46071113e-05 177.4894886
-10.54782827 46.52076239 151.9999026
-36.25016127 224.1362215 135.8966716
6.270411725 10.12483639 195.9999026
36.63103873 -2.46071113e-05 103.5217706
-40.25016127 105.2665124 29.27369361
-40.25016127 239.996568 107.0048036
-21.79873627 -2.46071113e-05 21.65042261
-40.25016127 33.58355939 123.2632886
-40.25016127 100.8723444 -1.724972387
-40.25016127 82.77318839 50.12079961
-29.88686027 19.97057039 201.9999026
-40.25016127 236.9197537 119.5934046
-36.25016127 202.7721804 138.8420196
-36.25016127 146.8281814 71.48010561
14.56117873 6.928245393 201.9999026
-36.25016127 236.6857066 18.42524361
-40.25016127 115.4615764 14.70538361
7.076575725 198.9685294 155.9999026
11.21074473 162.3699314 151.9999026
-36.25016127 97.22910739 77.32444461
-36.25016127 96.58547839 45.87276961
-12.01037627 143.8728694 151.9999026
-40.25016127 193.2557544 125.2722196
-40.25016127 85.14839539 91.54316761
28.11403473 49.45347339 201.9999026
-36.25016127 143.2204964 29.21138461
11.68337773 21.93814039 195.9999026
-40.25016127 121.8163634 127.9176766
-40.25016127 184.5573344 98.13585561
27.59483373 65.74950839 151.9999026
-36.25016127 19.47995639 32.04690761
2.313553725 41.93807339 151.9999026
13.95134773 132.8266124 155.9999026
40.26432273 -2.46071113e-05 167.1981646
-40.25016127 104.9718044 104.8646926
14.08754073 35.06074739 151.9999026
30.25466073 100.2922464 151.9999026
1.193147725 79.04238539 151.9999026
-40.17740227 132.4004634 3.352267613
-31.88894127 129.7790884 -9.738722883e-05
40.79825573 65.04155039 195.9999026
-40.25016127 107.2672184 54.65691061
-40.25016127 64.66423139 153.9876626
-40.18973727 0.4999753929 42.54846061
-40.25016127 234.7818919 125.6424736
-40.25016127 102.4900854 128.0577736
-40.25016127 126.4708464 144.3282396
15.97048473 39.70413639 155.9999026
-29.98386127 239.9676623 151.9999026
37.74983873 128.6826504 -1.413143387
-40.25016127 6.939013393 118.9163286
-40.25016127 32.19016039 155.3812176
-36.25016127 24.41030939 83.59140861
-40.25016127 19.53530439 149.5147066
-36.25016127 89.66235539 96.40400361
-40.25016127 164.6764914 47.98773361
-36.25016127 130.9970664 98.86086561
-2.890913275 196.1113954 155.9999026
21.61335773 220.7547982 -9.738722883e-05
-36.25016127 190.2075294 7.873079613
-36.25016127 3.718815393 102.8732036
20.05654473 89.36505039 151.9999026
-35.31050527 -2.46071113e-05 110.9447506
-21.55726627 202.2872004 155.9999026
-36.25016127 106.4341184 24.01213561
-36.25016127 230.0669074 101.7244616
-40.25016127 15.08376939 166.7066796
-40.25016127 139.2283384 144.3325186
-33.15029827 17.65091339 155.3793906
12.45793573 201.8244514 151.9999026
-36.25016127 76.74301939 77.02499761
20.51990773 100.6642614 155.9999026
-40.25016127 121.4928644 109.9918366
29.51096373 29.56538339 151.9999026
8.019739725 67.99997539 198.7068516
-3.384969275 215.2933602 -9.738722883e-05
-40.25016127 239.5745769 65.10948561
-36.25016127 95.61816739 21.24929761
37.74983873 142.8290254 -1.753002387
-40.25016127 10.29362039 56.43697461
-40.25016127 157.9849394 72.70038661
-36.25016127 109.1164504 6.052314613
-40.25016127 40.72034039 167.2911496
-36.25016127 191.5566394 45.80386661
12.62278973 192.2056924 151.9999026
-40.25016127 227.9037523 16.93701261
11.12728273 151.0719154 155.9999026
-36.25016127 119.6714424 17.57126261
20.24983873 -1.434143607 68.06150461
-36.25016127 181.1627554 94.47315561
-40.25016127 23.53623139 187.8213816
8.185842725 56.88005539 155.9999026
3.595126725 -2.46071113e-05 56.60723161
-7.675260275 130.5632384 -9.738722883e-05
-40.25016127 206.5095884 59.93546061
-40.25016127 76.73988739 69.17906861
-36.25016127 83.37919939 18.51962861
-35.52552627 68.59480839 1.806231613
-7.379126275 66.45786839 -9.738722883e-05
-40.25016127 9.861241393 180.5137846
-40.25016127 222.6255223 85.11532061
-14.30580227 18.47256339 151.9999026
-36.25016127 232.2414805 66.47596161
17.58475373 180.6247784 -9.738722883e-05
-40.24470227 -2.46071113e-05 189.6272056
-13.56153627 32.11874439 151.9999026
25.42780473 0.3113783929 201.9999026
-9.578225275 -2.46071113e-05 114.4089036
-35.72074427 183.3226694 155.2000326
-36.25016127 38.86761039 60.21054261
-40.25016127 33.18643139 47.08640461
-36.25016127 46.98314039 125.6454246
-36.25016127 161.4582744 142.2929706
-40.25016127 84.33222939 61.55018161
43.22305373 13.11416239 195.9999026
-32.94025927 40.67408839 201.9999026
29.37435273 -2.46071113e-05 178.0470736
14.25300973 31.39378239 201.9999026
6.163777725 56.24466239 -9.738722883e-05
27.95655773 16.80747339 201.9999026
33.67359373 205.9109274 155.9999026
-36.25016127 29.20071639 135.3097316
-36.25016127 197.8678374 82.85508961
-36.25016127 44.50500439 16.91919661
-36.25016127 240.4433983 84.94624061
-40.25016127 9.624723393 4.861799613
-17.03155527 225.438754 -9.738722883e-05
17.98618673 20.87776339 195.9999026
-26.17127127 12.89237739 195.9999026
-6.571735275 67.99997539 201.5502236
-6.795564275 -2.46071113e-05 57.91269461
-40.25016127 218.2635343 53.28231661
-36.25016127 64.95300839 37.73435561
-40.25016127 196.6359724 140.0380796
11.63347173 15.80317239 155.9999026
18.18995273 15.96434539 -9.738722883e-05
37.74983873 159.6753664 -1.231592387
-36.25016127 220.8948751 146.4661106
-21.36710327 16.57451939 155.9999026
21.87015073 230.0293859 151.9999026
-36.25016127 125.8028004 138.8739456
2.664576725 240.9532755 151.9999026
-32.23786127 227.5438375 151.9999026
-23.64776627 71.48048739 -9.738722883e-05
-40.25016127 242.3171828 54.74715461
-40.25016127 172.8141794 77.02137261
-38.70279327 3.826225393 201.9999026
5.536148725 216.5748227 151.9999026
-36.25016127 155.9723754 87.00550761
-40.25016127 141.8880364 109.3558106
-40.25016127 140.5234394 5.667423613
-24.36561727 30.09504039 201.9999026
-36.25016127 116.7448874 91.85262961
-3.200016275 210.7175454 151.9999026
0.1460027253 30.61777739 195.9999026
-36.25016127 101.0653364 35.61400861
-20.18481727 8.599454393 201.9999026
-24.85562327 171.4905884 151.9999026
30.98277773 176.1010754 155.9999026
-40.25016127 15.30325639 47.57546861
-40.25016127 123.8427624 4.875420613
-4.281147275 47.80953039 195.9999026
-39.74205427 205.1573294 150.7410406
-40.25016127 39.02605439 54.13754761
1.241583725 -2.46071113e-05 108.3224976
-40.25016127 41.95468739 111.3696306
27.13479273 111.5846974 151.9999026
-40.25016127 48.16664139 54.73255161
6.240464725 73.05251039 151.9999026
-35.26397627 -2.46071113e-05 3.592526613
34.42769173 130.8494564 151.9999026
-40.25016127 45.64305739 78.16121961
-8.739375275 154.2714864 155.9999026
30.75922373 5.313417393 195.9999026
-36.25016127 211.2688634 14.47464461
-40.25016127 130.8074874 19.64807361
29.94804173 151.6894614 151.9999026
18.28394973 14.59132239 195.9999026
-40.25016127 90.12495739 71.27570861
-36.25016127 121.6983814 44.53759261
-40.25016127 168.1345984 22.94933161
33.56416973 -2.46071113e-05 38.63919561
-39.70977327 132.4194644 150.8428356
-30.54486027 139.3142314 -9.738722883e-05
-36.25016127 145.6555464 37.79972661
30.18561773 -2.46071113e-05 167.0029736
-15.31604327 37.42642939 -9.738722883e-05
-40.25016127 118.9448504 139.2106436
-36.24482627 214.8185499 3.954052613
38.01480273 -2.46071113e-05 151.8941336
39.52994873 58.11216439 201.9999026
5.526107725 68.31098739 -9.738722883e-05
-36.25016127 92.30492939 147.9787426
-33.92384827 -2.46071113e-05 179.7779846
-12.76371327 139.2636364 155.9999026
-40.25016127 28.92434039 169.9542966
21.95936673 3.546960393 -9.738722883e-05
8.503646725 140.5498534 151.9999026
-4.005660275 75.56875239 -9.738722883e-05
-36.25016127 240.1674205 12.17887561
-36.25016127 64.96845639 112.8197076
-40.25016127 33.69611939 92.79444661
-36.25016127 201.2695894 66.05978761
11.93821273 247.7845776 155.9999026
-40.25016127 63.51843439 84.92134661
-40.25016127 15.69695939 61.24321961
-13.44029727 193.0539774 151.9999026
11.27047873 227.3784672 155.9999026
-40.25016127 140.3260764 97.96207661
-37.46719827 58.89540539 195.9999026
-1.772527275 18.54228339 155.9999026
-6.427895275 113.3316724 151.9999026
-36.25016127 124.8683084 49.80465261
-1.395435275 39.20732939 155.9999026
-36.25016127 15.04579939 37.20477661
-30.05605827 -2.46071113e-05 123.6134496
-40.25016127 114.3452284 37.37712661
21.29465773 79.24578339 155.9999026
-35.33170627 39.45321139 150.4485876
-40.25016127 243.8897718 136.3147746
23.70838973 151.3828574 155.9999026
-36.25016127 169.9943984 43.20802361
-36.25016127 46.55024139 73.37688761
17.64674773 165.1903664 -9.738722883e-05
7.004065725 26.27783139 201.9999026
30.99936973 30.10095439 -9.738722883e-05
-36.25016127 102.8255614 116.8301886
-40.25016127 60.69010239 167.5121586
-36.25016127 31.15093139 102.4476576
12.16957873 49.68470039 151.9999026
-6.983139275 119.6152724 -9.738722883e-05
23.99362673 49.80389939 151.9999026
-36.25016127 95.55064239 140.6837976
-36.25016127 3.579104393 123.6241876
-21.35896027 204.0258054 -9.738722883e-05
28.54040273 -2.46071113e-05 81.78258461
-40.25016127 59.99824539 60.47411661
-40.25016127 137.5494934 118.5262636
-36.25016127 154.6079194 104.6956526
-36.25016127 246.3068103 131.2218836
-40.25016127 71.83300639 59.32117561
34.97569773 207.8148884 -9.738722883e-05
-40.25016127 222.8142168 42.98127561
-40.25016127 65.55735939 100.0440946
-36.25016127 206.4066784 79.90343861
1.612569725 222.0461834 155.9999026
-14.13204527 163.3219244 151.9999026
-40.25016127 207.1286524 12.67308361
18.26473973 46.28984139 195.9999026
-38.50260527 74.84196339 152.9316366
-7.407647275 18.41047239 -9.738722883e-05
-36.25016127 136.3059024 124.3442316
31.91794373 130.6253144 -9.738722883e-05
-36.25016127 171.7543014 145.9847016
-40.25016127 251.5360884 18.29403761
-22.93850627 -2.46071113e-05 84.71770061
8.828193725 183.3999914 151.9999026
-38.28341227 43.85804539 201.9999026
-26.25960927 143.0664924 155.9999026
-36.25016127 109.8364874 14.78183561
16.14107073 44.02037539 151.9999026
-36.25016127 89.49250939 36.17410661
-5.424028275 19.95136539 201.9999026
32.04764473 40.35636539 151.9999026
25.34534573 215.9440222 155.9999026
4.459741725 202.7578434 151.9999026
-30.20453827 -2.46071113e-05 172.1976816
-40.25016127 58.86629839 174.6141936
-7.554144275 29.73035439 151.9999026
-36.25016127 3.074255393 22.69005361
-40.25016127 36.29590739 42.11263961
-40.25016127 22.27458039 39.19336661
-36.25016127 96.00994739 32.35958861
-40.25016127 47.92850939 27.61633161
-40.25016127 37.73702539 33.85356461
-29.43825127 88.93099539 151.9999026
31.80194473 139.1807314 151.9999026
-36.25016127 250.477701 46.33860561
-40.76212627 153.5576094 90.81492461
6.474587725 1.811973393 155.9999026
-6.058352275 241.6833729 155.9999026
8.808264725 167.6906934 -9.738722883e-05
28.01373473 222.8447023 151.9999026
-40.25016127 100.2887894 139.4455296
-40.25016127 78.62103339 123.0821556
-36.25016127 154.6938574 23.71104361
-12.76383827 144.4005584 -9.738722883e-05
-40.25016127 243.9935563 81.42167161
7.156257725 -2.46071113e-05 125.0740466
38.36076173 -2.46071113e-05 195.9810246
-40.25016127 111.7136344 28.52241961
-35.96162627 101.9494094 2.557652613
-36.25016127 144.5447344 48.39405161
-25.80382327 -2.46071113e-05 192.0412546
-40.25016127 34.09804539 181.0239366
-40.25016127 222.1552791 73.75367661
-9.221193275 160.4317584 -9.738722883e-05
27.88147573 116.3786624 155.9999026
-40.25016127 34.64836039 74.33883361
11.95205173 0.2980953929 201.9999026
-36.25016127 43.23790539 54.01163661
-40.25016127 45.94025539 91.43033061
-26.52194027 40.93041639 201.9999026
7.877249725 193.2206384 155.9999026
-40.25016127 113.4312554 119.5985186
-27.95385527 120.6783904 151.9999026
23.82496873 -2.46071113e-05 105.6806346
3.273986725 -2.46071113e-05 14.79148361
-40.10582727 113.7402894 2.740158613
-26.10765827 85.27053339 -9.738722883e-05
-28.66521127 -2.46071113e-05 158.4166736
35.85832773 135.1280454 155.9999026
-40.25016127 219.2875026 97.22294261
-36.25016127 138.4839274 79.94936261
-24.96951027 68.87477439 151.9999026
-40.25016127 57.68758639 76.95180361
-36.25016127 154.0292004 147.9743606
-24.89322427 -2.46071113e-05 60.44467561
32.10525073 67.26041339 -9.738722883e-05
-21.94416527 10.49555339 -1.808012387
-36.25016127 105.3891044 133.0524936
6.424050725 104.4558094 155.9999026
-36.25016127 37.56328039 130.1506506
30.42246873 -2.46071113e-05 94.55438261
-36.25016127 34.67838039 81.62370261
-36.25016127 241.7372661 100.7129786
-40.25016127 116.9841194 132.8084786
-31.12607027 -2.46071113e-05 48.81268161
-1.727100275 61.57332339 151.9999026
-36.25016127 163.6479254 129.7789886
24.45438573 -2.46071113e-05 63.01210861
8.531249725 31.54884639 155.9999026
24.32342673 155.2004464 -9.738722883e-05
-16.12089027 111.3911404 155.9999026
-0.5866102747 173.0414884 155.9999026
-36.25016127 131.5220534 139.1407876
-36.25016127 90.91452739 133.1385136
-40.25016127 74.71646939 93.34548861
-36.25016127 247.7444484 35.03912061
-18.55522927 -2.46071113e-05 29.95022061
3.326833725 65.96643039 151.9999026
-20.17026527 15.94729539 -9.738722883e-05
-8.285443275 28.97618039 201.9999026
-36.25016127 166.3767514 96.00282661
20.35992873 18.43592739 151.9999026
-40.25016127 80.99255939 29.63745761
-40.25016127 175.9066714 113.6080376
0.1828887253 148.5850284 155.9999026
-40.25016127 82.65323439 84.28085261
-36.25016127 52.51185739 72.88389861
-40.25016127 8.346899393 174.4801956
-34.36391327 225.0398764 0.6886166128
-36.25016127 204.7018764 53.25941061
-40.25016127 4.866465393 156.1522006
-36.25016127 77.20415039 62.28802261
-40.25016127 86.46837139 27.77949561
-34.27957727 -2.46071113e-05 159.3426896
18.69309473 119.6266484 -9.738722883e-05
16.51654473 56.68018439 155.9999026
-40.25016127 99.25107439 91.94135361
-40.25016127 110.1218324 124.6412966
-40.67874327 8.674731393 124.5930276
-36.25016127 238.988425 133.2253766
-36.25016127 90.81121939 18.22831361
-26.46625827 187.2797924 151.9999026
9.507056725 53.43009939 195.9999026
-40.25016127 138.0722604 40.53865461
-20.42573627 96.73217839 151.9999026
-36.25016127 75.94552939 130.4779536
-40.25016127 149.7689004 112.5578776
1.355331725 97.00672239 151.9999026
-40.25016127 105.8171684 81.72292161
-40.25016127 224.8645765 64.48157461
-41.20763027 128.7568904 128.4835706
39.67219873 -2.46071113e-05 11.75872861
-10.58932627 12.80324339 151.9999026
-40.25016127 166.2410214 78.77394761
23.88844473 6.640620393 201.9999026
36.48383273 187.1342804 155.9999026
24.96906673 66.00746539 201.9999026
-15.96031027 15.71133639 201.9999026
-7.109327275 43.31564739 201.9999026
3.277389725 61.76591839 201.9999026
-36.25016127 183.1558624 101.8558376
-31.92958727 189.2986004 -9.738722883e-05
-13.78820027 208.0112874 155.9999026
37.68240873 169.0454374 151.9999026
17.90699873 62.82800239 195.9999026
-2.647375275 -2.46071113e-05 99.62172561
-40.25016127 92.84954539 29.96833861
-40.25016127 232.5581564 60.85764061
18.38491773 160.0411424 151.9999026
7.042013725 227.7785098 -1.213362387
-40.25016127 62.14302239 95.00550661
-30.18086027 194.7714214 -9.738722883e-05
-40.25016127 90.42554539 40.00395961
-36.25016127 17.16596039 120.1121556
-35.68132327 141.2676934 149.9314426
-36.25016127 101.4077394 99.71041061
-40.25016127 17.59183439 132.4974096
31.09744573 162.3560724 151.9999026
-7.138905275 185.4936194 151.9999026
1.663540725 24.60645339 201.9999026
-40.25016127 14.03852039 159.6856776
-34.71714727 56.50178839 155.5676396
-40.25016127 20.86177239 -0.5235743872
35.85118673 225.2405047 155.9999026
-36.25016127 56.05735739 13.74581461
-36.25016127 54.85282339 111.4852746
-40.25016127 47.83116139 37.70952461
-40.25016127 43.27044639 158.6181336
-6.077426275 198.7232524 151.9999026
-19.84633527 42.66450339 155.9999026
8.780510725 85.02667139 155.9999026
-40.25016127 38.54706539 120.7211436
-29.40668627 209.3082684 -9.738722883e-05
-40.25016127 113.7550934 49.22997361
-36.25016127 86.42679939 51.42027261
-40.25016127 200.0496484 69.92970761
-36.25016127 29.15437139 4.584564613
10.04908373 235.0686495 151.9999026
-40.25016127 100.1389104 109.9176106
-40.25016127 32.22791039 36.53846661
-36.25016127 60.27954739 45.98541461
-40.25016127 145.0165474 124.7491496
-17.74646427 27.82397539 151.9999026
20.87776773 -2.46071113e-05 116.0598536
-40.25016127 39.24661239 172.6475186
-36.25016127 208.8837944 111.5200336
-28.02177627 219.503604 155.9999026
-40.25016127 18.94379039 17.62252961
-40.25016127 74.05369639 47.74614461
-40.25016127 120.0622274 146.7111366
-36.25016127 29.58491439 94.38058761
22.12376173 10.18786539 151.9999026
-36.25016127 176.0814974 33.31261161
-41.15968127 25.49997539 94.10466261
-36.25016127 176.1413824 16.14792161
-40.25016127 204.9894284 97.35869961
29.01616973 198.0409624 -9.738722883e-05
-5.833354275 6.386726393 -9.738722883e-05
-40.25016127 213.2585288 28.90109961
-36.25016127 49.60839439 92.38887861
-36.25016127 126.9279124 93.35809261
-40.25016127 31.93452539 13.24110061
-40.25016127 154.3112524 5.658704613
-40.25016127 117.1082324 72.51672461
-31.46197727 44.07290039 151.9999026
-36.25016127 45.36426539 45.89765661
-33.26069827 212.3688857 151.8631256
-38.29777727 0.4999753929 115.7559766
9.639025725 44.80241439 151.9999026
-7.842515275 231.6158878 -9.738722883e-05
-40.25016127 178.5280314 66.36985761
-40.25016127 208.1217914 49.61930861
-40.25016127 99.40269239 102.9307866
0.5988047253 162.0223344 155.9999026
-36.25016127 246.1671339 8.557310613
-7.614120275 95.32204039 155.9999026
-40.25016127 173.5579864 94.84837661
-40.25016127 13.15102939 22.95747661
3.854646725 227.572418 155.9999026
29.34545173 243.545438 -9.738722883e-05
-40.25016127 59.36330839 28.21757261
-37.85595527 11.52767639 201.9999026
-40.25016127 28.98070339 163.2054066
-36.25016127 68.77894439 126.5177016
-40.25016127 170.4785834 124.6089996
-20.71417927 164.3676564 151.9999026
-36.25016127 60.76011439 17.57315761
-40.25016127 138.6162914 30.70306761
-28.41851127 20.11434539 -9.738722883e-05
-13.10432027 67.99997539 199.7162106
9.538381725 32.20778639 -9.738722883e-05
-36.25016127 72.51575539 147.6644286
35.99399573 -2.46071113e-05 23.83258161
-40.25016127 17.40459739 10.25995661
-36.25016127 135.0514114 26.95275961
3.683039725 16.82356939 195.9999026
-40.25016127 91.44484539 113.6987166
-36.25016127 139.5275034 36.60456661
-40.25016127 162.2388164 98.93627961
-28.54976927 160.6304364 155.9999026
-40.25016127 94.09774639 122.5372776
13.24983873 -0.7420736071 42.06185261
-36.25016127 35.21431539 9.975364613
-10.60088127 73.75291339 151.9999026
-36.25016127 152.0335104 139.8724386
-36.25016127 242.4178359 144.2526916
-5.080033275 86.44541439 151.9999026
20.25993873 70.16711039 -9.738722883e-05
34.45395173 148.3600784 151.9999026
-4.503889275 36.51795539 195.9999026
-40.25016127 155.4168354 50.41336661
-36.25016127 246.7342193 21.17732061
-40.25016127 78.23400039 35.77521361
34.68604073 65.15712339 151.9999026
-40.25016127 67.84974039 14.23263361
-40.25016127 111.9373354 112.2431346
-36.32769827 105.8102604 154.8466236
-40.25016127 42.51424339 104.1363996
-36.25016127 25.59446539 22.33165461
36.95801473 200.3039734 151.9999026
-36.25016127 141.3042254 114.7929506
-40.25016127 179.9314584 25.57701561
-40.25016127 86.94045639 66.26562461
-36.25016127 16.29237339 21.18193961
-36.25016127 171.5034234 19.39972861
-11.46802127 -2.46071113e-05 146.9628796
-40.25016127 71.42405539 102.4478396
-40.25016127 161.2560514 55.12968361
-36.23575327 123.3699454 148.1043956
-17.14812627 217.9357414 155.9999026
-34.01069727 75.56077639 155.7962966
-40.25016127 59.19990739 115.2683766
-24.47264227 227.3144628 155.9999026
-40.25016127 12.18493739 12.47494361
-1.577935275 238.7285988 155.9999026
9.746714725 130.1874654 151.9999026
-40.25016127 119.5140084 120.0447996
7.929893725 175.9754664 155.9999026
-38.13864427 206.8682844 -1.389716387
-40.25016127 71.43903839 30.11639461
-36.25016127 115.6257114 78.98829861
-27.29682227 92.45069739 155.9999026
-40.25016127 148.8801294 134.8365286
-36.25016127 143.1392214 56.73065961
-40.25016127 17.33287339 123.6558206
-36.25016127 134.1790754 70.38465361
-40.23330327 177.9018104 148.1712516
-36.20126327 73.58894039 3.579691613
-36.25016127 213.5051778 64.68118461
-32.50127627 215.7826477 155.9750536
-36.17658727 -2.46071113e-05 132.3685966
-40.25016127 233.3515019 15.25586361
-5.962058275 191.7864254 151.9999026
-40.25016127 82.91368839 99.79198061
-36.25016127 191.3455224 88.70696961
-32.53512527 48.77790839 155.9674286
37.74983873 202.5630974 -1.956832387
-40.25016127 110.6817954 11.27041661
-40.25016127 8.495471393 130.0055306
14.96032973 144.4452164 151.9999026
-40.25016127 223.4394456 9.569808613
-31.19060227 178.2182664 151.9999026
-36.25016127 190.5844504 51.26175061
19.67008473 179.0892744 151.9999026
-40.25016127 93.26254439 108.3125536
-1.166610275 166.0772314 -9.738722883e-05
31.08135273 78.32158839 155.9999026
-40.25016127 187.0940694 59.21940261
-20.84757227 39.51685039 195.9999026
-40.25016127 248.8343369 26.33633961
-40.25016127 175.4292434 121.8671676
-4.192974275 -2.46071113e-05 152.8841576
13.57902673 180.1731464 155.9999026
26.90104073 160.8311894 155.9999026
-40.25016127 109.9182454 106.7829906
-11.43053527 85.67764339 155.9999026
-3.487770275 217.3413973 151.9999026
-40.25016127 86.75014939 14.01596461
-40.25016127 70.52465139 85.73201261
-40.25016127 55.78898039 84.85944661
-36.25016127 189.2785524 119.7974256
-36.25016127 137.5889354 138.0698996
-36.25016127 246.0740345 49.27457561
-40.25016127 30.36062939 68.14469861
-40.25016127 107.2902844 49.36546961
-40.25016127 170.7411794 39.82685061
18.68376973 26.29019039 155.9999026
-36.48118927 -2.46071113e-05 194.7880936
-40.25016127 99.76353939 134.0434216
-36.25016127 209.4787434 4.414659613
-40.25016127 56.76009539 8.384037613
-36.25016127 166.2690064 69.22124061
-24.43082427 21.05467739 151.9999026
-36.25016127 13.46242739 65.22041361
-40.25016127 113.5687924 62.39731661
-24.12185327 41.06917839 -9.738722883e-05
21.44082973 -2.46071113e-05 58.67840861
-36.25016127 196.9494654 98.71983261
-0.9282032747 52.53569139 155.9999026
-40.25016127 83.14486739 71.02156861
-40.25016127 79.97829339 114.3887466
21.21562073 128.0575334 155.9999026
33.96291473 238.6224312 151.9999026
33.18611373 8.805232393 201.9999026
18.62614573 124.8961634 -9.738722883e-05
-36.25016127 218.3592172 28.01919361
-36.25016127 203.8231424 114.4225706
-36.25016127 42.73599939 4.245542613
-13.24385227 44.41814439 155.9999026
-36.25016127 170.6590234 86.20479261
-40.25016127 53.83220939 16.92764461
-36.25016127 215.4316589 83.44142461
-36.25016127 111.7495964 95.69967261
-40.25016127 205.9836344 122.5865446
3.729032725 -0.4331186071 201.9999026
-40.25016127 101.4510994 8.830253613
30.14223373 43.89494239 201.9999026
-40.25016127 53.60050639 183.1295626
-40.25016127 163.2640694 41.71049361
-36.25016127 33.06256639 55.30563561
15.12615573 0.7662953929 195.9999026
29.43659673 98.83790039 -9.738722883e-05
-40.25016127 11.31186739 153.8375486
14.17058173 -2.46071113e-05 107.9858486
-36.25016127 148.3680674 18.25774661
-40.25016127 107.8126864 -2.466569387
-38.70201927 232.4833824 25.49990261
-40.25016127 139.9076374 123.7224156
5.201664725 141.3514604 155.9999026
-36.25016127 136.9525334 130.5826326
-13.53019627 -2.46071113e-05 87.71891661
-40.25016127 192.6308804 35.40722661
22.81860773 164.0609884 151.9999026
-1.468233275 223.2892217 151.9999026
-40.25016127 74.34125039 80.43063161
31.97135573 24.97874039 155.9999026
20.75760573 207.6737584 -9.738722883e-05
-36.25016127 86.42054339 135.7417266
24.83590573 72.16661139 155.9999026
-18.79292727 173.5769544 151.9999026
-40.25016127 41.32767739 133.8452186
-40.25016127 4.940193393 165.1712166
-36.25016127 231.7311456 89.24070061
-25.98562227 247.7043166 155.9999026
-40.25016127 68.06218739 146.3751046
-40.25016127 39.17421939 9.441482613
-40.75035727 56.64466339 191.3611596
7.610631725 30.08612539 195.9999026
-40.25016127 148.1456744 35.64629461
-40.25016127 93.98884439 57.72162461
-36.25016127 151.3741764 125.7715036
-36.25016127 91.77502739 88.32082461
-36.25016127 178.8170724 89.10066861
-36.25016127 225.0103803 18.49162261
-40.55178327 176.6772764 51.05545161
-12.59820027 231.9713903 155.9999026
-40.25016127 38.42209239 107.2909066
23.29662873 89.78853539 155.9999026
-40.25016127 99.06815439 119.1968096
-12.78625327 -2.46071113e-05 194.9499956
-19.40745627 226.2533994 151.9999026
-40.25016127 -0.8866846071 26.90864661
-36.25016127 85.03913939 80.39633861
36.36237473 44.91665139 155.9999026
-40.25016127 178.0109214 83.36802961
-40.25016127 23.40053139 25.73840261
7.610817725 12.81379639 151.9999026
-40.25016127 8.088279393 35.46639261
-36.18566227 247.7165862 148.3940296
-40.25016127 36.06507939 22.85234861
-36.25016127 235.0152737 53.61123861
-36.25016127 44.58913039 37.63463661
-40.25016127 150.6919614 63.52815861
28.05012073 237.299129 155.9999026
33.15434073 186.0354724 -9.738722883e-05
32.29967873 47.06781039 195.9999026
