# .PCD v0.7 - Point Cloud Data file format
VERSION 0.7
FIELDS x y z
SIZE 4 4 4
TYPE F F F
COUNT 1 1 1
WIDTH 1233
HEIGHT 1
VIEWPOINT 0 0 0 1 0 0 0
POINTS 1233
DATA ascii
246.791354 -36.51819261 -9.738598055e-05
267.331075 -50.00002461 -201.2327094
363.441734 -2.460725e-05 -206.7456464
-459.473971 -27.42470661 -9.738598055e-05
-4.940254 -2.460725e-05 -241.9593164
273.000215 -31.94251161 -38.18866139
-500.707014 -2.460725e-05 -48.07969639
522.341645 -43.85660461 -9.738598055e-05
205.818059 -9.822850607 -9.738598055e-05
-69.043163 -20.41525961 -9.738598055e-05
102.205629 -2.460725e-05 -129.1597564
-732.519108 -2.460725e-05 -177.2118314
-565.967316 -0.9948026072 -9.738598055e-05
385.142649 -24.65745961 -9.738598055e-05
-643.68824 -2.460725e-05 -198.6240794
298.840712 -2.460725e-05 -162.5811554
-488.486694 -2.460725e-05 -233.0350754
18.865086 -2.460725e-05 -23.45487539
386.828826 -2.460725e-05 -145.2565114
-701.782443 -2.460725e-05 -251.6601324
68.821407 -2.460725e-05 -52.34449439
373.358425 -2.460725e-05 -35.40324139
248.875348 -2.460725e-05 -74.25504139
-675.310123 -2.460725e-05 -110.1753264
-545.172309 -2.460725e-05 -158.9112194
-160.384593 -2.460725e-05 -206.6923144
-74.555939 -2.460725e-05 -189.5102904
-276.955015 -2.460725e-05 -37.29083939
-28.433136 -42.62219661 -9.738598055e-05
76.828406 -2.460725e-05 -227.3391254
327.636625 -41.34812561 -9.738598055e-05
180.981324 2.302204393 -172.1842474
321.179118 -2.460725e-05 -201.2244074
-82.751769 -2.460725e-05 -99.58240739
-603.412628 -2.460725e-05 -120.5722314
-526.822067 -2.460725e-05 -81.43436539
642.571141 -2.460725e-05 -176.0407024
170.315689 -2.460725e-05 -251.8156794
488.368073 -2.460725e-05 -37.94237739
-34.725656 -2.460725e-05 -96.42818339
-192.939746 -2.460725e-05 -250.3454504
701.288281 -2.460725e-05 -38.41040439
-387.894792 -2.460725e-05 -35.75220439
524.608091 -2.460725e-05 -115.7459564
707.656443 -2.460725e-05 -153.6184204
611.872952 -40.55014261 -9.738598055e-05
-254.714814 -2.460725e-05 -3.559103386
-373.839836 -47.84176261 -9.738598055e-05
588.441675 -2.460725e-05 -150.6763034
-105.091641 -2.460725e-05 -39.50092639
712.558866 -2.460725e-05 -216.3378664
-323.571482 -2.460725e-05 -116.6553524
-330.382717 -25.38958361 -9.738598055e-05
-225.823795 -2.460725e-05 -79.33176139
-157.710883 -31.33650461 -9.738598055e-05
-466.931868 0.2457953927 -27.07928439
-151.093504 -2.460725e-05 -110.9248824
413.450025 -2.460725e-05 -71.36610039
-22.230965 -2.460725e-05 -38.48777739
715.009276 -2.460725e-05 -74.72606639
-294.720204 -2.460725e-05 -250.2595334
186.229519 -2.460725e-05 -133.0593704
589.07672 -2.460725e-05 -82.82349239
-146.575179 -2.460725e-05 -160.0202514
-692.473998 -26.33761761 -9.738598055e-05
-707.65072 -2.460725e-05 -33.94858039
-186.536697 -2.460725e-05 -41.52972039
-252.265394 -2.460725e-05 -214.0171094
-300.043791 -63.93871461 -9.738598055e-05
28.766168 -28.49112061 -9.738598055e-05
644.461794 -2.460725e-05 -37.55016339
-279.014438 -2.460725e-05 -121.4558344
430.333222 -16.50278161 -9.738598055e-05
-638.74811 -2.460725e-05 -49.83805939
443.252767 -2.460725e-05 -216.3121484
273.000215 -37.52448661 -118.1798394
663.87502 -2.460725e-05 -221.3420074
91.853279 -27.46870561 -9.738598055e-05
209.277145 -2.460725e-05 -57.28690239
-20.428007 -2.460725e-05 -148.6288134
237.398537 -2.460725e-05 -125.3531024
231.04758 -2.460725e-05 -206.0691634
-739.331441 -44.76037561 -9.738598055e-05
599.612381 -2.460725e-05 -234.3766104
663.205885 -29.37720861 -9.738598055e-05
-508.998733 -38.55136461 -9.738598055e-05
131.267005 -27.96554361 -9.738598055e-05
552.599298 -2.460725e-05 -80.90795239
267.000215 -14.18099561 -151.1644304
-635.884221 -17.37846061 -9.738598055e-05
-709.270356 -2.460725e-05 -97.65373939
-614.801105 -2.460725e-05 -220.1734934
-202.612132 -2.460725e-05 -111.8540144
517.271853 -2.460725e-05 -213.3948534
-581.61133 -2.460725e-05 -148.9060954
-562.483992 -2.460725e-05 -230.4351034
-211.746853 -2.460725e-05 -164.2562594
487.597485 -34.58512661 -9.738598055e-05
570.410045 -2.460725e-05 -206.7675934
-571.935768 -67.52792661 -9.738598055e-05
-214.959359 -64.38356561 -9.738598055e-05
483.287502 -2.460725e-05 -105.5753614
-334.714417 -2.460725e-05 -155.8776734
327.899718 -2.460725e-05 -31.91369739
-57.328269 -2.460725e-05 -28.21226239
211.461097 -2.460725e-05 -250.4174814
687.119037 -2.460725e-05 -97.96610139
526.086616 -2.460725e-05 -153.7709284
742.853172 -2.460725e-05 -139.9660724
-41.591056 -2.460725e-05 -179.5924144
-577.994103 -33.14041661 -9.738598055e-05
267.000215 -23.36312561 -227.0806694
17.935106 -2.460725e-05 -157.1509084
-90.692427 -2.460725e-05 -159.3224684
552.526188 -27.89321861 -9.738598055e-05
-451.796633 -60.62608161 -9.738598055e-05
-532.604872 -2.460725e-05 -6.809574386
-388.507552 -2.460725e-05 -250.8676434
454.85 -2.460725e-05 -32.93076239
-667.796435 -2.460725e-05 -166.5163824
304.273192 -2.460725e-05 -95.75475239
139.602538 -2.460725e-05 -37.95152339
-405.824425 -31.86616161 -9.738598055e-05
-256.674226 -2.460725e-05 -66.49095339
-26.309276 -2.460725e-05 -209.1507004
-281.610573 -36.03771161 -9.738598055e-05
347.163498 -2.460725e-05 -60.44358539
279.999497 -2.460725e-05 -43.57582639
521.434716 -2.460725e-05 -38.90046239
36.162977 -2.460725e-05 -91.37537639
-146.637087 -2.460725e-05 -5.787857386
-420.871101 -2.460725e-05 -193.1720564
35.182764 -2.460725e-05 -52.08413139
-398.593825 -2.460725e-05 -71.30282839
397.16402 -2.460725e-05 -103.4708994
190.294869 -2.460725e-05 -27.09623639
-100.138677 -30.97382961 -9.738598055e-05
-523.294431 -67.90556761 -9.738598055e-05
460.479661 -2.460725e-05 -129.7790344
416.412674 -2.460725e-05 -163.4743064
-3.674546 -20.11186061 -9.738598055e-05
-218.112539 -2.460725e-05 -11.23806239
253.020685 -2.865948607 -9.738598055e-05
254.891309 -68.00002461 0.403271614
632.955827 -2.460725e-05 -211.3808734
-332.713821 -2.460725e-05 -85.06471639
-355.411684 -2.460725e-05 -42.73067139
121.522183 -2.460725e-05 -102.2908074
-275.454923 -2.460725e-05 -187.6076024
-182.752443 -2.460725e-05 -183.4696804
373.733159 -2.460725e-05 -175.7539124
452.840743 -39.39634661 -9.738598055e-05
67.448979 -2.460725e-05 -179.5315754
250.797311 -2.460725e-05 -177.6665074
-223.082536 1.052799393 -234.1300634
-392.666097 -2.460725e-05 -133.2994104
-374.298318 -2.460725e-05 -159.4682794
-441.246551 -2.460725e-05 -167.4159584
-385.546875 -2.460725e-05 -101.9571624
597.238172 -2.460725e-05 -113.4650424
267.000215 -18.41431561 -92.60935539
188.760491 -36.50735161 -9.738598055e-05
366.734126 -2.460725e-05 -117.9753324
-366.094354 -2.460725e-05 -218.6113344
8.811451 -2.460725e-05 -213.6187354
501.066434 -1.022052607 -9.738598055e-05
-133.859793 -2.460725e-05 -222.9702004
556.94048 -2.460725e-05 -149.9743424
-459.41167 -2.460725e-05 -57.18198539
-425.537539 -2.460725e-05 -136.7923184
273.000215 -22.08341461 -180.6210484
-151.875598 -2.460725e-05 -69.29050439
-336.267163 -2.460725e-05 -210.3108834
45.043687 -2.460725e-05 -121.1331444
-586.243756 -2.460725e-05 -43.33920039
-384.601051 -2.460725e-05 -190.1177814
-90.370947 -2.460725e-05 -67.77795139
147.388382 -2.460725e-05 -76.83227939
310.113037 -2.460725e-05 -134.2014554
655.391509 -2.460725e-05 -101.2899914
-633.82293 -2.460725e-05 -118.0347994
107.57736 -2.460725e-05 -218.4091554
598.718453 -68.00002461 1.760164614
88.827148 -2.460725e-05 -157.9093264
429.147983 -2.460725e-05 -250.2226634
-121.340703 -2.460725e-05 -252.0612664
-627.63459 -2.460725e-05 -250.4718484
291.982994 -30.51466161 -9.738598055e-05
-449.613198 -2.460725e-05 -105.5885404
-187.811247 -30.92560361 -9.738598055e-05
-417.69535 -2.460725e-05 -243.2047484
-510.735298 -2.460725e-05 -204.5939684
-635.984974 -68.00002461 1.240951614
-94.249372 -65.68574861 -9.738598055e-05
-556.194508 -2.460725e-05 -76.97152839
117.500215 0.6931283927 -166.6848144
581.797435 -41.14804761 -9.738598055e-05
372.94118 2.247094393 -9.738598055e-05
-470.998979 -2.460725e-05 -168.4166274
-28.88716 -2.460725e-05 -67.24831839
-698.741453 2.482408393 -9.738598055e-05
479.564235 -2.460725e-05 -230.3021914
-73.243566 -2.460725e-05 -250.9750564
-713.321304 -2.460725e-05 -221.0874554
-258.91646 -2.460725e-05 -97.01738639
-4.732211 -2.460725e-05 -96.06219039
356.636384 -37.68347661 -9.738598055e-05
668.431623 -2.460725e-05 -162.4866264
143.958138 -2.460725e-05 -231.4990654
-740.230602 -2.460725e-05 -35.65284939
-618.852082 -2.460725e-05 -173.8823514
674.700916 -2.460725e-05 -26.85919839
559.367365 -2.460725e-05 -10.59938539
-734.035033 -2.460725e-05 -250.8780624
-322.03903 -2.460725e-05 -185.2364664
-391.208708 -7.024420607 -9.738598055e-05
-457.364893 2.359461393 -9.738598055e-05
-32.360627 -2.460725e-05 -250.7216934
-330.253304 -2.460725e-05 -13.51029739
98.693561 -2.460725e-05 -48.30553639
397.369146 -66.87592861 -9.738598055e-05
91.827029 -2.460725e-05 -251.8186554
-605.30552 -24.38739661 -9.738598055e-05
-487.477173 -2.460725e-05 -143.6015234
-516.638472 -2.460725e-05 -151.5322574
481.731548 -2.460725e-05 -169.2090804
283.152369 -2.460725e-05 -76.65493239
326.690534 -2.460725e-05 -230.1660964
-433.638224 -2.460725e-05 -218.8382554
-86.097298 -2.460725e-05 -14.29676839
583.524186 -2.460725e-05 -28.14257939
-127.947598 -22.22539661 -9.738598055e-05
435.86537 -2.460725e-05 -92.70670639
737.878266 -2.460725e-05 -91.62192439
542.462538 -2.460725e-05 -225.7775174
613.650817 -2.460725e-05 -162.9678404
-250.536045 -2.460725e-05 -144.5770384
407.818282 0.04714139275 -9.738598055e-05
328.532172 -2.460725e-05 -81.90514439
-671.373733 -2.460725e-05 -37.38926739
-353.909421 -2.460725e-05 -103.1362424
-659.769117 -2.460725e-05 -76.51714939
267.000215 -48.82748961 -15.73224139
374.547584 -2.460725e-05 -232.2546824
710.526281 -2.460725e-05 -181.5348104
315.549921 -2.460725e-05 -2.206685386
-661.876251 -2.460725e-05 -139.4155334
273.000215 -23.32219861 -65.69484939
509.014422 -68.00002461 2.267524614
-109.341163 -2.460725e-05 -107.2393324
-321.595341 -2.460725e-05 -233.7410984
707.54414 -26.38046861 -9.738598055e-05
-86.869675 -2.460725e-05 -132.0273704
320.983272 -68.00002461 0.964336614
515.388794 -2.460725e-05 -179.9881684
-536.563371 -2.460725e-05 -129.5106824
129.328923 1.424570393 -9.738598055e-05
74.859878 -2.460725e-05 -127.9410244
-727.304606 -2.460725e-05 -150.4566234
90.588048 -2.460725e-05 -81.35774839
742.026073 -2.460725e-05 -217.2465644
-438.951255 -2.460725e-05 -29.27454939
-434.183438 -2.460725e-05 -83.31156939
635.39052 -2.460725e-05 -63.05999639
-687.674444 -53.77480961 -9.738598055e-05
136.831038 -2.460725e-05 -124.8051754
296.426024 -2.460725e-05 -214.8746934
-37.4137 -68.00002461 1.220491614
610.442886 -2.460725e-05 -17.42635639
-250.251887 -37.09959761 -9.738598055e-05
-636.146727 -2.460725e-05 -20.56635639
-171.708538 -2.460725e-05 -231.1185984
434.874051 -2.460725e-05 -55.10639339
87.008671 1.072516393 -9.738598055e-05
-219.402388 -2.460725e-05 -136.7389624
720.996728 -2.460725e-05 -15.39948839
173.721401 -2.460725e-05 -204.0286014
-610.914429 -2.460725e-05 -62.67122939
180.212534 -68.00002461 1.166095614
-705.981601 -2.460725e-05 -180.0876114
635.250967 -27.70193161 -9.738598055e-05
578.567922 -2.460725e-05 -55.53087539
396.354275 -2.460725e-05 -51.08012239
189.482277 -2.460725e-05 -84.12713439
-607.19335 -2.460725e-05 -94.36549239
-356.819577 -25.70807861 -9.738598055e-05
201.896287 -2.460725e-05 -192.7163104
713.384007 -68.00002461 0.931603614
273.000215 -19.06432861 -252.2202744
-481.019182 -2.460725e-05 -110.6161474
-205.416392 -2.460725e-05 -59.61391739
484.693063 -2.460725e-05 -73.60873639
-481.382436 -2.460725e-05 -199.7141224
575.80416 -2.460725e-05 -173.4572764
-715.876448 -2.460725e-05 -58.65622639
273.000215 -14.61067261 -17.81675639
-225.289909 -2.460725e-05 -190.1322064
-527.562975 -2.460725e-05 -179.7222074
64.05962 -24.74273461 -9.738598055e-05
-578.484345 -2.460725e-05 -209.3268874
-431.54897 -34.15033061 -9.738598055e-05
413.354218 -2.460725e-05 -223.4109394
40.559158 -2.460725e-05 -175.2561794
41.246446 -67.60473561 -9.738598055e-05
-126.044981 -2.460725e-05 -54.37411339
-310.142154 -2.460725e-05 -67.00070339
-274.553605 -2.460725e-05 -226.7616584
460.678806 -2.460725e-05 -188.1082654
659.939627 -2.460725e-05 -247.2171844
-52.722698 -2.460725e-05 -202.8107754
-629.832978 -43.24012861 -9.738598055e-05
335.547029 -2.460725e-05 -138.6710454
-522.486275 -2.460725e-05 -30.24252239
3.498852 -2.460725e-05 -44.04890939
-8.793635 -2.460725e-05 -16.76190339
-411.659863 -2.460725e-05 -26.79392739
542.912136 -61.62968661 -9.738598055e-05
-667.293083 -24.32394061 -9.738598055e-05
-503.234481 -2.460725e-05 -90.44491439
-460.842277 -2.460725e-05 -230.4634214
-591.092922 0.7254763927 -9.738598055e-05
-666.823224 -2.460725e-05 -214.1535654
-566.055829 -2.460725e-05 -182.6484144
446.609147 -63.71132861 -9.738598055e-05
431.220441 -2.460725e-05 -183.6853014
360.66459 -2.460725e-05 -143.7155074
-155.937401 -58.52032561 -9.738598055e-05
33.932974 -2.460725e-05 -3.475436386
303.713883 -2.460725e-05 -25.51430039
139.082092 -66.97065361 -9.738598055e-05
84.561901 -66.28467961 -9.738598055e-05
275.212313 -2.460725e-05 -230.2080924
79.833273 -2.460725e-05 -23.87939639
-272.154378 -2.460725e-05 -157.0069454
228.446548 1.334627393 -9.738598055e-05
18.836345 -2.460725e-05 -189.2649864
38.01446 -2.460725e-05 -226.4220004
-60.359894 -2.460725e-05 -88.66466739
-479.148971 -43.93583661 -9.738598055e-05
388.665369 -2.460725e-05 -210.1857534
222.355375 -32.10698661 -9.738598055e-05
227.354348 -2.460725e-05 -230.5564634
-537.765881 -2.460725e-05 -104.8034274
213.152109 -2.460725e-05 -130.1994214
-580.122018 -2.460725e-05 -101.4758064
157.898037 -24.58489061 -9.738598055e-05
534.520007 -2.460725e-05 -64.06305539
-4.775103 -50.91730761 -9.738598055e-05
410.115407 -30.62811961 -9.738598055e-05
-63.794849 -2.460725e-05 -158.7875384
-741.499785 2.440039393 -89.21510739
-513.115187 -2.460725e-05 -232.6651294
-304.083403 -2.460725e-05 -28.79807539
-55.877571 -2.460725e-05 -3.354704386
-310.036028 -39.07513861 -9.738598055e-05
-118.235307 -2.460725e-05 -161.2698884
236.067215 -2.460725e-05 -97.80539839
67.455347 -2.460725e-05 -251.2840674
742.823258 -40.43844961 -9.738598055e-05
321.424329 -2.460725e-05 -171.7157104
52.98532 -2.460725e-05 -30.15069239
719.100073 -2.460725e-05 -251.0445544
-606.079992 -2.460725e-05 -144.7588984
689.595849 -2.460725e-05 -224.5316264
93.459453 -2.460725e-05 -105.4735634
-80.470782 -45.17759961 -9.738598055e-05
162.139227 -2.460725e-05 -130.4659354
-277.881197 -9.658499607 -9.738598055e-05
-742.980714 -2.460725e-05 -199.0005094
-27.776865 -2.460725e-05 -125.6648874
-141.887654 -2.460725e-05 -184.0544524
-79.427998 -2.460725e-05 -213.1119824
247.2545 -2.460725e-05 -147.3417094
293.851704 -2.460725e-05 -190.6378994
-718.574965 -2.460725e-05 -127.5322284
169.149571 -2.460725e-05 -227.8336964
-78.462816 -2.460725e-05 -39.56559239
676.310165 -67.06462561 -9.738598055e-05
662.882419 -3.517326607 -9.738598055e-05
257.387949 -2.460725e-05 -51.85511439
-642.970374 -2.460725e-05 -222.5599884
648.425298 -2.460725e-05 -146.0640684
-167.923723 -2.460725e-05 -19.70214139
507.938387 -2.460725e-05 -98.64467639
-720.973628 -29.56146061 -9.738598055e-05
-686.005308 -2.460725e-05 -233.8721854
222.433396 -2.460725e-05 -77.05506239
352.249589 -2.460725e-05 -24.56793639
-343.974628 -2.460725e-05 -63.51921639
-576.968573 -2.460725e-05 -21.50665339
-140.809487 -2.460725e-05 -134.1653884
267.28293 -50.00002461 -57.42184639
-538.88233 -2.460725e-05 -228.7173914
392.779926 -2.460725e-05 -18.19943339
199.70859 -2.460725e-05 -156.8368664
-238.683577 -68.00002461 0.263733614
609.490121 -17.10016561 -9.738598055e-05
181.551989 1.430333393 -9.738598055e-05
-179.528634 -2.460725e-05 -117.9398854
231.802996 -63.65152561 -9.738598055e-05
349.974791 -2.460725e-05 -93.11662939
-491.01844 -2.460725e-05 -70.47188339
143.513124 -2.460725e-05 -176.3967364
282.526323 -2.460725e-05 -140.9685934
-121.929693 -2.460725e-05 -20.41152439
-617.103147 1.368469393 -9.738598055e-05
607.522738 -2.460725e-05 -67.46115739
511.347201 -21.96869961 -9.738598055e-05
-378.674705 -2.460725e-05 -58.66495839
345.401281 -63.65138361 -9.738598055e-05
351.802019 -2.460725e-05 -226.8519514
460.077548 -2.460725e-05 -105.3292494
656.812071 -2.460725e-05 -194.3684304
742.683265 -2.460725e-05 -24.52466539
540.273589 -2.460725e-05 -25.42436139
-527.553812 -2.460725e-05 -58.31604839
-384.914079 -68.00002461 2.417125614
69.132735 -2.460725e-05 -205.6055414
-534.306437 -21.93990761 -9.738598055e-05
273.000215 -47.53988561 -223.3903294
435.378802 -2.460725e-05 -146.4431344
182.728457 -2.460725e-05 -110.3717644
691.960106 -2.460725e-05 -72.28787339
-51.303218 -42.72616461 -9.738598055e-05
-571.456729 -2.460725e-05 -252.0785574
11.402376 -0.3428796073 -9.738598055e-05
-300.868747 -2.460725e-05 -107.2210084
339.94894 -2.460725e-05 -188.3568734
-108.171665 -2.460725e-05 -206.3215114
412.054243 -2.460725e-05 -141.1951954
371.064357 -2.460725e-05 -58.22791739
736.661222 -2.460725e-05 -163.5206944
-163.384138 -2.460725e-05 -91.89812239
19.691156 -2.460725e-05 -243.0779814
121.671601 -2.460725e-05 -141.6115464
-500.278523 -2.460725e-05 -24.18600939
545.603793 -2.460725e-05 -105.1657814
164.654673 -2.460725e-05 -24.17190039
267.000215 -23.20351361 -204.4869284
381.516709 -48.85555861 -9.738598055e-05
165.976921 -2.460725e-05 -152.6551334
466.09033 -2.460725e-05 -52.43115139
-306.817842 -2.460725e-05 -131.6106254
278.689827 -2.460725e-05 -172.4210354
720.810611 -2.460725e-05 -51.96090739
443.057801 -2.460725e-05 -8.211628386
-341.878279 -44.68217261 -9.738598055e-05
-487.024788 -19.81486661 -9.738598055e-05
-593.481082 -2.460725e-05 -226.8514594
466.490931 -2.460725e-05 -210.6966924
-735.413533 -66.73176061 -9.738598055e-05
254.641279 -2.460725e-05 -215.2161944
-173.64164 -2.460725e-05 -61.35303739
211.43568 -2.460725e-05 -34.16193039
47.419697 -2.460725e-05 -70.70239239
-685.517074 -2.460725e-05 -88.19153639
230.442931 -2.460725e-05 -50.49844339
-64.791357 -2.460725e-05 -114.7878934
686.140383 -20.50909761 -9.738598055e-05
-550.313746 -2.460725e-05 -20.18042939
106.50017 -9.425343607 -9.738598055e-05
-298.202544 -2.460725e-05 -188.5797824
-502.36414 -2.460725e-05 -251.9985794
-28.886066 -20.50743161 -9.738598055e-05
266.289791 -26.13851361 -9.738598055e-05
-189.060438 -2.460725e-05 -161.7281444
226.121037 -2.460725e-05 -184.2066874
-616.406254 -2.460725e-05 -198.1897284
-648.217202 -2.460725e-05 -177.1659514
119.407502 -2.460725e-05 -195.4805254
-716.936505 -2.460725e-05 -199.0642684
642.509532 -2.460725e-05 -118.9977864
-193.83145 -2.460725e-05 -228.4904574
-201.37714 -2.460725e-05 -25.17924739
-378.600211 -26.64611361 -9.738598055e-05
-204.908187 -17.58006561 -9.738598055e-05
-668.308331 -2.460725e-05 -188.1964024
-231.434363 -2.460725e-05 -155.3009774
514.105565 -2.460725e-05 -135.7645454
682.392558 -2.460725e-05 -48.89056039
620.584895 -2.460725e-05 -229.3197604
273.000215 -44.66377761 -175.4259374
569.9959 -2.460725e-05 -228.2704044
396.059853 -2.460725e-05 -170.1359704
-695.718091 -2.460725e-05 -116.6157694
-183.828101 -2.460725e-05 -208.1840144
267.000215 -14.35820761 -128.9333584
-234.58712 -11.30026061 -9.738598055e-05
168.177904 -2.460725e-05 -84.42925739
-513.086304 -14.17273061 -9.738598055e-05
-296.895632 -2.460725e-05 -48.84041039
-251.663956 -2.460725e-05 -24.61316439
618.343417 -2.460725e-05 -110.8346074
273.000215 -32.18382061 -141.7670614
484.49194 -2.460725e-05 -17.12786239
-129.981387 -2.460725e-05 -112.3112354
-225.692345 2.246041393 -212.5277264
257.997398 -2.460725e-05 -97.81991639
188.953878 -2.460725e-05 -241.8880074
-597.966392 -2.460725e-05 -164.2256044
-438.185935 -12.61295161 -9.738598055e-05
-272.355739 -2.460725e-05 -80.43996839
650.490383 -2.460725e-05 -77.57893739
501.441993 -2.460725e-05 -230.0852834
114.073332 -39.91234261 -9.738598055e-05
542.267214 -2.460725e-05 -126.9114884
-546.158316 -64.67411261 -9.738598055e-05
-655.759954 -2.460725e-05 -97.00687839
335.189394 -20.60363261 -9.738598055e-05
727.65234 -2.460725e-05 -201.7385924
-645.888794 0.8717573927 -9.738598055e-05
-94.73206 -2.460725e-05 -184.4875344
-0.1990899999 -2.460725e-05 -143.9030324
340.839536 -2.460725e-05 -209.2151334
469.839339 -2.460725e-05 -152.2360694
-195.559747 -55.49985761 -9.738598055e-05
722.313229 -42.61998561 -9.738598055e-05
543.583925 -2.460725e-05 -248.7799134
622.970493 -2.460725e-05 -182.3693264
726.427715 -2.460725e-05 -231.5121894
573.09571 -2.460725e-05 -137.0006964
363.110618 -18.20537761 -9.738598055e-05
506.407628 -2.460725e-05 -24.92538839
-23.890707 -2.460725e-05 -169.2323654
-225.385876 -2.460725e-05 -103.9703564
-685.483181 -2.460725e-05 -177.1016164
605.878216 -2.460725e-05 -136.0092734
-474.042251 -2.460725e-05 -247.4754864
-245.992831 -2.460725e-05 -233.4511814
66.930838 -2.460725e-05 -76.67285539
142.357068 -2.460725e-05 -251.8275304
140.502235 -2.460725e-05 -16.99593339
648.311869 -43.31611361 -9.738598055e-05
-442.251377 -2.460725e-05 -124.5663744
-295.115474 -2.460725e-05 -228.1653714
325.332113 -2.460725e-05 -52.25155039
652.540181 -2.460725e-05 -18.87877539
267.000215 -48.66776761 -102.2873024
465.757426 -23.73373061 -9.738598055e-05
-366.916856 -2.460725e-05 -24.25761939
578.894551 -2.460725e-05 -100.3742674
497.492929 -2.460725e-05 -57.87018339
690.160623 -2.460725e-05 -163.8772574
697.014642 -2.460725e-05 -115.6655834
415.533719 -2.460725e-05 -91.50077239
459.371144 -2.460725e-05 -231.4581774
-245.214813 -2.460725e-05 -194.5953744
-742.838932 -23.08638761 -9.738598055e-05
-10.214036 -2.460725e-05 -115.7776594
-334.324262 -2.460725e-05 -133.6966934
-164.646137 -10.75331061 -9.738598055e-05
-431.663094 -60.90595461 -9.738598055e-05
718.628563 -2.460725e-05 -133.5571404
605.352009 -2.460725e-05 -94.67544839
706.237501 2.363810393 -9.738598055e-05
-143.303536 -2.460725e-05 -87.49000939
118.006936 -2.460725e-05 -42.68694839
595.821881 -2.460725e-05 -175.2723094
394.911517 -2.460725e-05 -79.12527039
-312.500778 -2.460725e-05 -90.84512739
-371.273367 -2.460725e-05 -240.5948804
-49.009552 -21.44606561 -9.738598055e-05
-404.285077 -2.460725e-05 -52.06750439
320.147829 -2.460725e-05 -249.7473664
46.091366 -39.76759161 -9.738598055e-05
-476.72517 -2.460725e-05 -4.139350386
-551.59198 -2.460725e-05 -247.1005244
709.610173 -2.460725e-05 -96.67241439
490.391689 -55.43231561 -9.738598055e-05
299.795201 -2.460725e-05 -115.0653714
-657.685807 -2.460725e-05 -55.68664039
698.492142 -2.460725e-05 -202.0507604
630.121092 -2.460725e-05 -19.58657339
-402.620381 -2.460725e-05 -91.95123039
-358.060734 -68.00002461 0.260527614
-694.377665 -2.460725e-05 -19.11043039
498.18745 -2.460725e-05 -121.7140524
533.077597 -24.72391261 -9.738598055e-05
-322.92228 -53.97512461 -9.738598055e-05
663.295158 -2.460725e-05 -43.28600539
-160.431315 -2.460725e-05 -132.7731454
560.673801 -45.79174561 -9.738598055e-05
-129.64996 -2.460725e-05 -201.4390684
-454.711473 -2.460725e-05 -76.25944239
-40.045054 -2.460725e-05 -149.7262894
-200.963258 -2.460725e-05 -92.30993539
-353.420782 -2.460725e-05 -148.6516684
277.352972 -2.460725e-05 -252.1747554
-304.190515 -20.43036061 -9.738598055e-05
-202.245348 -2.460725e-05 -184.4658024
-199.803113 -2.460725e-05 -143.0180624
-713.157717 -2.460725e-05 -77.96380439
544.018618 -2.460725e-05 -204.1105444
-279.880927 -55.79861161 -9.738598055e-05
189.70749 -2.460725e-05 -49.86077339
81.084033 -44.23618361 -9.738598055e-05
-554.530049 -16.71558361 -9.738598055e-05
-717.408859 -49.77517461 -9.738598055e-05
587.251802 -2.460725e-05 -216.4564904
-139.594892 -38.34249961 -9.738598055e-05
22.623427 -2.460725e-05 -138.3228634
508.388488 -2.460725e-05 -161.6577094
-275.407013 -2.460725e-05 -252.3413354
-564.592144 -2.460725e-05 -139.7090634
534.227399 -2.460725e-05 -86.93503639
-573.844971 -2.460725e-05 -58.17366339
214.458045 -2.460725e-05 -15.06770539
742.855216 -0.7500246072 0.00607261402
-282.297539 -2.460725e-05 -140.4941634
267.000215 -31.92689561 -162.2101244
13.113801 -2.460725e-05 -104.3640714
305.698685 -51.36228661 -9.738598055e-05
303.186292 -14.85499961 -9.738598055e-05
-419.23465 -2.460725e-05 -71.20179839
582.844446 -2.460725e-05 -245.5261974
277.659979 -2.460725e-05 -97.67691939
-262.444449 -21.02721561 -9.738598055e-05
-439.661804 -2.460725e-05 -189.4794484
-506.225037 -59.23345761 -9.738598055e-05
470.138979 -47.51071561 -9.738598055e-05
267.019614 -50.00002461 -136.2786284
-341.564563 -2.460725e-05 -28.87063739
-475.245617 -2.460725e-05 -44.22434839
141.865421 -2.460725e-05 -98.74647439
-40.343372 -2.460725e-05 -44.33302539
-208.26293 -41.37608861 -9.738598055e-05
626.758988 -52.32965561 -9.738598055e-05
-158.631898 -2.460725e-05 -174.6652794
8.779366 -37.65670761 -9.738598055e-05
-164.104169 -2.460725e-05 -151.3631584
256.980838 -2.460725e-05 -121.6931494
391.831316 -2.460725e-05 -188.5850354
-11.475565 -2.460725e-05 -74.66403839
667.832383 -50.14815161 -9.738598055e-05
-588.13394 -54.16598061 -9.738598055e-05
-40.574104 -2.460725e-05 -19.42431039
135.985285 -2.460725e-05 -61.74337939
-214.875993 -2.460725e-05 -40.22488439
-691.776918 -2.460725e-05 -47.93352039
267.000215 -12.61275961 -38.50109839
-716.893062 -2.460725e-05 -17.56953739
-654.009273 -2.460725e-05 -26.44727139
378.375382 -2.460725e-05 -102.7437264
160.922728 -2.460725e-05 -183.4849784
-398.198045 -51.87675761 -9.738598055e-05
550.797137 -2.460725e-05 -167.9327264
24.364577 -48.01362661 -9.738598055e-05
643.995499 -2.460725e-05 -226.4886634
142.186559 -12.15642961 -9.738598055e-05
-90.376651 -11.26273961 -9.738598055e-05
-461.532266 -2.460725e-05 -119.9802894
431.085872 -2.460725e-05 -230.4922994
570.254615 -2.460725e-05 -72.25819139
267.000215 -5.557843607 -69.14880339
672.216904 -2.460725e-05 -86.74703239
-7.572376 -2.460725e-05 -223.4975804
-106.922725 -51.15347561 -9.738598055e-05
734.719347 -2.460725e-05 -64.48075939
156.533379 -2.460725e-05 -45.73125639
-648.276757 -31.29213561 -9.738598055e-05
603.89827 0.7739793927 -9.738598055e-05
-563.791703 -2.460725e-05 -159.4832264
427.514205 -2.460725e-05 -204.6624844
738.778242 -2.460725e-05 -111.6630824
478.782454 -2.460725e-05 -123.6307524
-548.065785 -2.460725e-05 -177.2794304
406.842394 -2.460725e-05 -120.0387744
302.81831 -2.460725e-05 -44.07609939
381.513444 -2.460725e-05 -251.2444364
273.000215 -19.59448261 -112.2066984
-235.058738 -2.460725e-05 -59.12991339
-118.948421 -2.460725e-05 -233.7807294
-18.785126 -62.84132461 -9.738598055e-05
317.466516 -2.460725e-05 -151.0436054
-377.824624 -2.460725e-05 -122.4712254
-203.607976 0.9029153927 -9.738598055e-05
69.9408 -2.460725e-05 -158.7740294
-718.067512 -2.460725e-05 -241.8283574
564.009021 -2.460725e-05 -187.5063394
-273.899256 -2.460725e-05 -19.20640239
-169.745683 -2.460725e-05 -249.9055034
-638.423114 -2.460725e-05 -69.68291139
84.615219 -2.460725e-05 -61.55881239
-383.817019 -2.460725e-05 -17.36926939
145.242595 -39.69455361 -9.738598055e-05
-439.087501 -2.460725e-05 -149.0028124
-106.934591 -2.460725e-05 -57.64530339
689.523291 -2.460725e-05 -140.3463644
-509.190848 -2.460725e-05 -69.00813639
435.012558 -35.68336361 -9.738598055e-05
490.462614 -16.60791961 -9.738598055e-05
-622.535127 -2.460725e-05 -41.56009639
-600.871126 -2.460725e-05 -208.4549714
-232.750429 -2.460725e-05 -249.5114434
-228.982367 -52.60721361 -9.738598055e-05
-495.394576 -2.460725e-05 -214.3600024
0.6486930001 -2.460725e-05 -162.7552884
-243.023707 -2.460725e-05 -88.23382039
594.611093 -27.49944861 -9.738598055e-05
254.384931 -2.460725e-05 -197.0778174
272.073541 -50.00002461 -36.88339439
583.796003 -2.460725e-05 -194.5429624
-336.8211 -2.460725e-05 -174.7777404
-236.791695 -2.460725e-05 -14.29701439
494.720445 -2.460725e-05 -213.2854504
-307.78145 -2.460725e-05 -172.3089154
-281.641461 -2.460725e-05 -204.6104704
-739.748082 -2.460725e-05 -15.61874639
521.600989 -2.460725e-05 -14.59440139
-140.655989 -68.00002461 1.894591614
-560.403225 -2.460725e-05 -94.55372239
698.379996 -2.460725e-05 -20.57465339
236.160367 -14.99260161 -9.738598055e-05
-653.25038 -2.460725e-05 -114.8832854
624.386665 -2.460725e-05 -48.62658139
25.043238 -2.460725e-05 -71.23227739
-742.851004 -2.460725e-05 -141.3041974
-468.263781 -2.460725e-05 -186.2451904
87.159162 -2.460725e-05 -205.7380654
51.195571 -2.460725e-05 -101.9638714
-250.988059 -2.460725e-05 -49.39149539
206.797677 -2.460725e-05 -175.3898714
100.533692 -2.460725e-05 -236.0686684
444.610652 -2.460725e-05 -196.1939354
-420.922534 -2.460725e-05 -173.8225754
423.286215 -2.460725e-05 -9.140668386
570.282793 -25.19823861 -9.738598055e-05
-685.04803 -9.120171607 -9.738598055e-05
-128.317465 -2.347825607 -9.738598055e-05
264.341349 -2.460725e-05 -23.50625139
-717.849154 -2.460725e-05 -165.6627554
-588.60054 -17.96488361 -9.738598055e-05
-675.423411 -66.79877361 -9.738598055e-05
46.071625 -12.65682061 -9.738598055e-05
-415.227142 -15.69049361 -9.738598055e-05
359.640845 -2.460725e-05 -186.7098364
-369.975144 -2.460725e-05 -176.8776664
314.466659 -28.67405061 -9.738598055e-05
230.066339 -2.460725e-05 -248.1759714
673.453982 -2.460725e-05 -203.4734624
-343.657919 -2.737541607 -9.738598055e-05
493.535385 -2.460725e-05 -251.4763914
175.530751 -2.460725e-05 -39.11336439
-106.013646 -2.460725e-05 -76.21090739
-406.274982 -2.460725e-05 -8.166956386
-563.062993 -44.51304061 -9.738598055e-05
85.119056 -2.460725e-05 -175.2241904
-499.700625 -2.460725e-05 -156.6932224
-726.725183 -2.460725e-05 -100.6190124
389.400681 -4.264298607 -9.738598055e-05
-178.932846 -49.46830661 -9.738598055e-05
670.234858 -2.460725e-05 -110.8592474
273.000215 -34.43839061 -240.8012114
171.16981 -36.52904461 -9.738598055e-05
-313.914823 -2.460725e-05 -148.8563834
-114.012175 -68.00002461 1.148728614
-581.08984 -2.460725e-05 -169.1509144
-60.552655 -2.460725e-05 -45.94047739
469.399006 -2.460725e-05 -88.34078639
-407.71028 -2.460725e-05 -124.2298824
-398.370969 -2.460725e-05 -201.0205144
-552.768047 -2.460725e-05 -215.8045904
-580.430084 -2.460725e-05 -131.4174354
-434.353578 -2.460725e-05 -237.7809334
267.000215 -32.44855861 -79.39064839
497.5902 -2.460725e-05 -176.6389084
155.290338 -2.460725e-05 -214.7349294
-438.860369 -2.460725e-05 -65.02361939
505.567003 -39.13087861 -9.738598055e-05
-318.435755 -10.39472661 -9.738598055e-05
-73.021543 -2.460725e-05 -142.5971664
-723.274149 -2.460725e-05 -41.64271539
133.835911 -2.460725e-05 -211.5253684
433.391104 -2.460725e-05 -75.47944939
-164.786817 -2.460725e-05 -43.93129339
273.000215 -32.51955961 -15.84327939
21.436646 -2.460725e-05 -41.47635539
526.430178 -67.08698661 -9.738598055e-05
60.215724 -2.460725e-05 -232.3318584
-390.384074 -2.460725e-05 -173.7767524
228.584207 -2.460725e-05 -146.1579134
-557.297576 -2.460725e-05 -197.9062514
127.800722 -2.460725e-05 -83.72081439
63.944494 -67.99012261 -9.738598055e-05
-367.69775 -2.460725e-05 -196.3870594
57.339817 -2.460725e-05 -133.8553174
264.562759 -2.460725e-05 -138.2066114
-399.519563 -2.460725e-05 -236.2135504
-261.770995 -2.460725e-05 -122.2627294
-406.483063 -2.460725e-05 -146.4805474
-569.626318 -2.460725e-05 -38.71078239
401.451653 -2.460725e-05 -33.10154239
266.500215 1.435194393 -160.3491704
-93.380765 -2.460725e-05 -113.6699444
-22.933624 -2.460725e-05 -186.3963244
-676.712389 -38.69862461 -9.738598055e-05
617.166047 -2.460725e-05 -247.5957734
-10.843879 -3.130252607 -9.738598055e-05
-327.272695 -2.460725e-05 -68.10065739
-12.60538 -35.65111861 -9.738598055e-05
-45.667948 -2.460725e-05 -109.6387694
-178.652256 -2.460725e-05 -100.8133884
-134.530138 -2.460725e-05 -70.16234639
-675.076862 -2.460725e-05 -128.4876524
183.775229 -15.54868061 -9.738598055e-05
453.384041 -2.460725e-05 -145.3567574
-262.880492 -2.460725e-05 -171.6811424
187.099117 -2.460725e-05 -67.19514639
-14.943779 -2.460725e-05 -53.95546439
-76.787899 0.6617613927 -9.738598055e-05
324.267984 -2.460725e-05 -124.6670464
-417.756656 -44.18640161 -9.738598055e-05
-672.73782 -2.460725e-05 -251.3379294
125.412509 -52.62426761 -9.738598055e-05
-130.998439 -2.460725e-05 -38.08309839
55.046359 -2.460725e-05 -215.1660704
273.000215 -34.70449261 -193.4870074
-471.503785 -2.460725e-05 -149.4250214
-513.862672 -2.460725e-05 -9.346529386
218.69279 -2.460725e-05 -114.1392554
-540.771414 -2.460725e-05 -69.85435439
583.411684 -58.04992061 -9.738598055e-05
-470.628871 -2.460725e-05 -216.5942094
212.288803 -2.460725e-05 -213.0809964
-44.75085 -2.460725e-05 -82.05041339
651.464889 -17.14994261 -9.738598055e-05
-445.770734 -2.460725e-05 -12.12579939
-101.597876 -2.460725e-05 -141.1199974
384.684033 -2.460725e-05 -118.4403874
-31.426664 -2.460725e-05 -233.8346764
-311.543047 -2.460725e-05 -248.5965814
-210.319349 -2.460725e-05 -245.1469064
704.804165 -2.460725e-05 -231.8807754
105.9073 -2.460725e-05 -94.08628339
-41.650774 -2.460725e-05 -216.1677054
-448.803367 -2.460725e-05 -42.96855739
-381.405703 -2.460725e-05 -211.5479594
267.000215 -3.356708607 -184.0956364
396.607517 -41.36875961 -9.738598055e-05
271.725406 -68.00002461 0.05265861402
337.011929 -2.460725e-05 -17.41634339
674.017444 -2.460725e-05 -238.0086284
-480.607326 -2.460725e-05 -128.2473054
194.577179 -2.460725e-05 -10.54478239
-150.588996 -2.460725e-05 -221.3497104
724.313691 -2.460725e-05 1.044193614
273.000215 -10.97117761 -54.34587539
-469.252687 -57.47030961 -9.738598055e-05
411.26238 -2.460725e-05 -181.0779544
-717.293871 -12.41355161 -9.738598055e-05
310.871346 -2.460725e-05 -223.2982884
-669.525576 -2.460725e-05 -230.6525504
416.190955 -2.460725e-05 -54.87768739
656.771701 -2.460725e-05 -127.7132174
530.086939 -2.460725e-05 -172.0441304
557.156565 -2.460725e-05 -60.88501539
64.514546 -2.460725e-05 -114.8267114
-117.72175 -38.42840861 -9.738598055e-05
358.323387 -2.460725e-05 -73.58961339
-534.18032 -2.460725e-05 -146.3609154
213.714805 -47.25996261 -9.738598055e-05
-650.53643 -2.460725e-05 -157.3838424
-641.008981 -2.460725e-05 -240.3977844
74.556881 -10.01070461 -9.738598055e-05
-624.918711 -2.460725e-05 -132.1184284
203.73466 -2.460725e-05 -234.1963964
-150.031103 -2.460725e-05 -22.07936839
-484.610042 -2.460725e-05 -183.1792144
-514.556038 -2.460725e-05 -107.3542034
192.408834 -52.71334061 -9.738598055e-05
-319.134007 -2.460725e-05 -216.9394144
472.176895 -2.460725e-05 -34.29618439
-614.085524 -2.460725e-05 -240.8926084
367.587046 -2.460725e-05 -15.53988739
259.701081 -2.460725e-05 -237.4933854
9.848201 -2.460725e-05 -88.11902439
349.201544 -2.460725e-05 -44.00681839
-653.141097 -66.03852161 -9.738598055e-05
-168.223127 -2.460725e-05 -192.1611954
-622.00775 -2.460725e-05 -106.5300984
273.000215 -10.36191361 -217.6034714
-385.939074 -2.460725e-05 -81.81605639
24.526155 -2.460725e-05 -116.1932984
35.080988 -2.460725e-05 -20.81665239
246.079846 -54.14863861 -9.738598055e-05
628.404214 -2.460725e-05 -153.2296384
375.900556 -2.460725e-05 -192.5070654
385.853702 -2.460725e-05 -65.44888839
-374.47456 -2.460725e-05 -143.0677904
-313.927875 -2.460725e-05 -12.08283439
8.741949 -2.460725e-05 -229.9898074
-472.0393 -2.460725e-05 -67.57467339
-629.518745 -2.460725e-05 -213.0427814
562.565221 -2.460725e-05 -99.53156639
268.595436 -44.68408061 -9.738598055e-05
-69.023554 -2.460725e-05 -230.2091994
726.070936 -2.460725e-05 -148.1082234
614.381254 -62.98187161 -9.738598055e-05
669.863223 -2.460725e-05 -180.2780594
463.109343 -2.460725e-05 -14.74927039
-703.225949 -41.75588261 -9.738598055e-05
720.815774 -2.460725e-05 -31.67169139
554.725499 -2.460725e-05 -236.4526734
-75.212281 -2.460725e-05 -55.48920239
-451.557584 -2.460725e-05 -217.1348664
-279.441794 -2.460725e-05 -95.20249239
109.357757 -2.460725e-05 -152.6876164
69.169158 -2.460725e-05 -36.16265239
598.335851 -51.84362361 -9.738598055e-05
-348.912583 -2.460725e-05 -82.56577939
589.910766 -2.460725e-05 -44.04019139
-673.25765 -2.460725e-05 -151.3319464
-419.44211 -2.460725e-05 -89.85056139
122.22022 -14.61770861 -9.738598055e-05
-682.555724 -2.460725e-05 -217.6781454
-543.542434 -2.460725e-05 -86.91513639
-377.334765 1.121365393 -9.738598055e-05
155.136524 -68.00002461 0.03064561402
-97.576006 -2.460725e-05 -89.90161239
448.507284 -2.460725e-05 -119.0430394
-601.529672 -41.49154261 -9.738598055e-05
-414.502386 -2.460725e-05 -225.9735714
489.961813 -2.460725e-05 -88.76555539
369.6368 -2.460725e-05 -156.9765364
625.601118 -11.15293961 -9.738598055e-05
-432.275168 -2.460725e-05 -101.7116024
527.069408 -2.460725e-05 -249.1518744
-482.858089 -2.460725e-05 -25.93018239
273.000215 -34.32800561 -214.4233124
122.195307 -2.460725e-05 -232.8763354
-576.833794 2.229247393 -237.0396944
570.139454 -2.460725e-05 -41.67959039
584.371778 -2.460725e-05 -122.8527774
-350.172756 -2.460725e-05 -218.2793834
-74.779736 -2.460725e-05 -81.95673139
-496.393087 -2.460725e-05 -106.5615264
22.763791 -2.460725e-05 -221.9600534
38.257099 -2.460725e-05 -155.3078734
202.535296 -2.460725e-05 -118.3955504
-8.799749 -2.460725e-05 -207.6826324
-622.829358 -59.24097361 -9.738598055e-05
288.034909 -2.460725e-05 -27.80944039
268.118287 -7.665917607 -9.738598055e-05
168.263101 -12.40497661 -9.738598055e-05
-328.170287 -2.460725e-05 -101.5114124
-628.308892 -2.460725e-05 -187.7627904
273.000215 -34.83242861 -97.56897539
98.693319 -2.460725e-05 -32.50584739
453.024946 -2.460725e-05 -91.19467239
523.944212 -2.460725e-05 -98.92120039
484.636317 0.4228673927 -9.738598055e-05
397.591677 -2.460725e-05 -223.8536094
323.242206 -2.460725e-05 -96.75045139
353.659199 -2.460725e-05 -129.6084424
-357.074017 -2.460725e-05 -167.8476534
-511.119832 -2.460725e-05 -136.7850274
-527.464348 -2.460725e-05 -211.0066434
-592.211665 -2.460725e-05 -15.66308839
607.654176 -2.460725e-05 -210.4587834
514.844825 -2.460725e-05 -195.6896754
-106.532552 -2.460725e-05 -17.33929139
-292.52757 -2.460725e-05 -70.23732939
-320.896761 -2.460725e-05 -201.3452794
-390.893039 -2.460725e-05 -148.8838784
-347.119002 -2.460725e-05 -123.0308144
-199.573528 -2.460725e-05 -127.3657304
-697.891492 -2.460725e-05 -223.6648244
-58.692389 -2.460725e-05 -173.5719444
-467.943288 -2.460725e-05 -102.0405414
531.0568 -2.460725e-05 -195.3741394
443.523354 -2.460725e-05 -244.1157964
432.596464 -2.460725e-05 -21.67579039
-144.026526 -14.25057861 -9.738598055e-05
-540.217897 -2.460725e-05 -34.19633939
423.47121 -2.460725e-05 -104.9056734
286.935313 -15.78256561 -9.738598055e-05
-527.370449 -2.460725e-05 -162.8063234
541.630073 -11.72651161 -9.738598055e-05
-264.073706 -2.460725e-05 -238.9348414
-287.214976 -2.460725e-05 -177.4246504
-572.917144 -2.460725e-05 -80.98719939
126.047755 -2.460725e-05 -23.70009939
634.030805 -2.460725e-05 -105.9804424
-293.284691 -46.26337961 -9.738598055e-05
414.174172 -66.55156061 -9.738598055e-05
-72.498335 -2.460725e-05 -24.94202539
-674.101487 -2.460725e-05 -52.63187239
-645.19102 -2.460725e-05 -128.5226664
-133.686464 -2.460725e-05 -238.4572074
305.120635 -66.80434161 -9.738598055e-05
557.054685 -2.460725e-05 -134.5456344
351.194197 -2.460725e-05 -110.7652694
535.63937 -2.460725e-05 -141.6870774
-190.023881 -2.460725e-05 -13.06996039
-23.539075 -2.460725e-05 -108.0881304
306.938908 -2.460725e-05 -80.60397839
693.809167 -65.65828561 -9.738598055e-05
201.084322 -2.460725e-05 -73.57282339
-363.309556 -2.460725e-05 -58.31496039
281.526152 -2.460725e-05 -60.85912239
-471.858342 -13.94447761 -9.738598055e-05
237.083732 -2.460725e-05 -64.32013539
-13.986158 -2.460725e-05 -132.3577034
-370.297977 -2.460725e-05 -100.4011224
-19.868546 -2.460725e-05 -87.48735739
-419.212882 -2.460725e-05 -208.3894254
365.46852 -2.460725e-05 -94.52099539
571.473346 -2.460725e-05 -154.7674004
-223.60304 -2.460725e-05 -173.9217454
-625.156003 -28.68101361 -9.738598055e-05
89.549578 -2.460725e-05 -137.7419404
-422.578633 -2.460725e-05 -151.7857054
-43.042028 -2.460725e-05 -125.6383344
-209.848628 -2.460725e-05 -79.89762639
-91.767081 -2.460725e-05 -28.45598339
697.712295 -2.460725e-05 -86.41106439
332.249017 -2.460725e-05 -65.82779239
-265.446181 -38.22173961 -9.738598055e-05
267.000215 -33.27086961 -52.12843539
-391.814233 -2.460725e-05 -116.4428424
406.12316 -15.09004761 -9.738598055e-05
-523.673839 -2.460725e-05 -196.2570404
570.070669 2.215798393 -9.738598055e-05
-84.437568 -2.460725e-05 -173.2029464
-245.112803 -22.78223861 -9.738598055e-05
630.668789 -2.460725e-05 -195.4859464
198.14321 -24.53781561 -9.738598055e-05
360.784411 -2.460725e-05 -241.2946834
273.000215 -13.90673161 -194.0541144
202.152736 -2.460725e-05 -140.6970904
-496.230988 -46.78550861 -9.738598055e-05
218.420665 -2.460725e-05 -197.2996404
-348.708343 -2.460725e-05 -14.51964039
625.477774 -2.460725e-05 -74.56562539
-319.15268 -2.460725e-05 -27.01546239
-695.518219 -68.00002461 1.236873614
-266.412779 -2.460725e-05 -142.9688484
591.097953 -2.460725e-05 -64.06434839
-584.359167 -2.460725e-05 -116.7839124
672.840194 -2.460725e-05 -11.82360739
275.430189 -2.460725e-05 -11.21411839
451.754957 -2.460725e-05 -57.28616039
465.836246 -2.460725e-05 -166.8263564
-526.094964 -2.460725e-05 -117.1338494
-441.851803 -45.21535561 -9.738598055e-05
357.339702 -2.460725e-05 -170.2618424
-65.025325 -49.05312561 -9.738598055e-05
598.63236 -2.460725e-05 -28.18110039
112.140753 -2.460725e-05 -182.2403994
155.343061 -2.460725e-05 -241.4220124
157.769719 -2.460725e-05 -168.7242944
-422.811015 -2.460725e-05 -121.9473694
542.340285 -46.55968661 -9.738598055e-05
185.091456 -2.460725e-05 -153.1570064
12.698888 2.411542393 -175.7425834
98.888228 -2.460725e-05 -11.19236439
26.551674 -2.460725e-05 -169.4631294
-236.603898 -2.460725e-05 -138.9515654
431.37022 -2.460725e-05 -162.1083494
-643.666488 -54.40241261 -9.738598055e-05
-269.672605 -2.460725e-05 -50.39970639
-219.720529 -2.460725e-05 -121.7569234
-453.59262 -2.460725e-05 -154.1943914
176.956516 -2.460725e-05 -15.62441639
-515.49771 -2.460725e-05 -45.71209939
-618.481581 -2.460725e-05 -153.1438524
-106.217361 -2.460725e-05 -244.0383274
-172.354116 -28.30499461 -9.738598055e-05
-128.064719 -2.460725e-05 -97.48515839
729.211093 -2.460725e-05 -79.37923439
681.417512 -41.40880361 -9.738598055e-05
235.148404 -2.460725e-05 -172.3060664
482.760935 -2.460725e-05 -55.41624239
-371.138019 -2.460725e-05 -38.58129039
358.179009 0.01710839275 -9.738598055e-05
-164.196391 -44.77589061 -9.738598055e-05
305.31679 -2.460725e-05 -181.1179244
-134.370769 -2.460725e-05 -151.4741404
-286.204305 -2.460725e-05 -7.707024386
470.379237 -2.460725e-05 -67.00248639
180.927915 -2.460725e-05 -186.8918034
444.755229 -2.460725e-05 -43.86209139
-381.898204 -2.460725e-05 -230.1870544
-450.079703 -2.460725e-05 -90.72329339
122.483601 -2.460725e-05 -120.9142754
37.685544 -2.460725e-05 -108.1373864
-549.61453 -2.460725e-05 -5.343965386
-45.495991 -2.460725e-05 -66.07647239
-672.054893 -2.460725e-05 -94.43707639
-94.086873 -2.460725e-05 -50.25133539
-496.066213 -2.460725e-05 -192.5723954
573.844292 -2.460725e-05 -14.14741439
69.645688 -2.460725e-05 -142.0881594
-578.347262 -2.460725e-05 -194.5173614
-727.186913 -2.460725e-05 -85.84010039
-89.671948 -2.460725e-05 -202.4533154
133.213058 -2.460725e-05 -190.2048274
296.948292 -2.460725e-05 -147.9442234
-192.15458 -2.460725e-05 -195.1916554
-318.534915 -68.00002461 0.519426614
-652.362713 -2.460725e-05 -210.4940324
512.586006 -2.460725e-05 -58.94148739
291.93198 -2.460725e-05 -231.7076454
-461.09475 -42.02130061 -9.738598055e-05
-36.666188 -2.460725e-05 -193.4235094
-699.519909 -2.460725e-05 -83.88239639
-592.847676 -68.00002461 0.633890614
-729.060661 -2.460725e-05 -228.7854294
-453.13752 -2.460725e-05 -175.9152624
-437.056397 -2.460725e-05 -204.6414734
509.206159 -53.57818961 -9.738598055e-05
647.938844 -2.460725e-05 -212.4420994
-105.952666 -2.460725e-05 -169.1347804
-341.052532 -2.460725e-05 -45.23019339
648.028372 -2.460725e-05 -4.003684386
-288.537034 -23.22872861 -9.738598055e-05
655.683511 -2.460725e-05 -169.7369654
407.467318 -51.03422661 -9.738598055e-05
-549.345766 -2.460725e-05 -136.4315514
241.758923 -2.460725e-05 -111.1792994
-175.988025 -2.460725e-05 -170.6067494
-740.002939 -2.460725e-05 -50.18347339
-259.309845 -2.460725e-05 -37.49369939
81.64326 -2.460725e-05 -241.0212574
5.666692 -2.460725e-05 -13.31470339
-453.911251 -14.03424661 -9.738598055e-05
273.000215 -12.79699461 -168.6655024
-267.871676 -2.460725e-05 -108.4035454
-79.406383 -2.460725e-05 -117.4812624
-131.512821 -2.460725e-05 -167.0562064
-567.587467 -22.91972861 -9.738598055e-05
52.145511 -2.460725e-05 -191.5377314
339.417092 -2.460725e-05 -236.9780994
-116.177309 -13.26066461 -9.738598055e-05
296.341234 -2.460725e-05 -12.35328739
543.92407 -2.460725e-05 -8.247964386
-715.610029 -2.460725e-05 -142.0214724
737.924355 -2.460725e-05 -126.0545954
436.803874 -2.460725e-05 -110.3718464
-622.258596 -12.69262361 -9.738598055e-05
-637.281151 -2.460725e-05 -104.0596094
91.297109 -2.460725e-05 -225.0303094
712.1559 -52.81133461 -9.738598055e-05
704.864874 -2.460725e-05 -248.9521364
225.811643 -2.460725e-05 -33.69952939
708.276889 -11.87082661 -9.738598055e-05
-247.737305 -51.25356161 -9.738598055e-05
291.666102 -2.460725e-05 -102.6506724
131.870492 -2.460725e-05 -159.7700704
712.194147 -2.460725e-05 -167.2696684
188.040227 -2.460725e-05 -203.0195104
413.1072 -2.460725e-05 -248.8860074
-292.930187 -2.460725e-05 -127.9954254
447.140271 -26.22749461 -9.738598055e-05
475.816321 -2.460725e-05 -182.2780374
-164.938392 -2.460725e-05 -114.6606684
113.0211 -2.460725e-05 -56.74126039
-220.800407 -2.460725e-05 -65.90509639
240.15022 -2.460725e-05 -224.1002724
-598.829601 -2.460725e-05 -32.63048039
292.518079 -45.78054161 -9.738598055e-05
192.457475 -2.460725e-05 -99.88286639
-176.144483 -2.460725e-05 -31.40304739
541.513452 -2.460725e-05 -51.60694439
374.764348 -2.460725e-05 -137.6116654
602.374723 -2.460725e-05 -154.2023854
-105.772584 -2.460725e-05 -125.5836414
273.000215 -42.50729361 -70.30520939
56.743109 -2.460725e-05 -43.91455539
102.389017 -48.09814061 -9.738598055e-05
-694.95675 -2.460725e-05 -130.8616014
-327.369502 -2.460725e-05 -246.7832194
-9.298858 -2.460725e-05 -32.48657239
79.677516 -2.460725e-05 -114.5253234
445.46771 -11.39586961 -9.738598055e-05
81.258927 -2.460725e-05 -188.9403584
129.298652 -2.460725e-05 -175.4488434
-186.72171 -13.31781161 -9.738598055e-05
509.776541 -2.460725e-05 -113.4398024
-38.262135 -7.961513607 -9.738598055e-05
-512.805606 -2.460725e-05 -165.2341434
273.000215 -8.112274607 -84.84912739
-140.097817 -2.460725e-05 -52.31869139
322.272071 -12.31337361 -9.738598055e-05
425.46434 -2.460725e-05 -136.2757074
-236.297866 -39.73498161 -9.738598055e-05
-594.144974 -2.460725e-05 -137.0737664
-603.348683 -2.460725e-05 -74.68213439
455.787404 1.248265393 -9.738598055e-05
515.212361 -2.150289607 -9.738598055e-05
-230.019885 -2.460725e-05 -26.76514839
-403.718179 -2.460725e-05 -178.6104374
20.201311 -11.46311261 -9.738598055e-05
-218.585327 -8.621917607 -9.738598055e-05
496.180087 -2.460725e-05 -153.5692864
517.760751 -2.460725e-05 -236.1671534
307.272504 -2.460725e-05 -198.5794494
349.463692 -25.48078661 -9.738598055e-05
-397.085905 -20.73442961 -9.738598055e-05
322.76967 -2.460725e-05 -187.1679384
-262.307911 -2.460725e-05 -204.0803144
-190.903061 -2.460725e-05 -67.20700039
-695.641548 -2.460725e-05 -162.5647634
-726.233961 -2.460725e-05 -71.77790139
-487.979959 -2.460725e-05 -249.5451854
342.556675 -38.07489961 -9.738598055e-05
-365.970444 -2.460725e-05 -113.8040434
259.605149 -2.460725e-05 -83.83043539
-322.468226 -2.460725e-05 -171.1663514
-261.214381 -2.460725e-05 -185.6536994
530.659257 -2.460725e-05 -217.7004194
47.188751 -2.460725e-05 -8.938003386
-93.629157 2.376763393 -9.738598055e-05
592.834101 -2.460725e-05 -8.564857386
252.735365 -22.58343961 -9.738598055e-05
703.834698 -2.460725e-05 -52.18433539
387.557601 -2.460725e-05 -34.84294039
501.55283 -2.460725e-05 -42.65073739
53.449092 -2.460725e-05 -164.6667204
245.912315 -2.460725e-05 -42.38123339
-516.025518 -2.460725e-05 -249.0296054
-82.094193 -25.41672061 -9.738598055e-05
-406.730326 -2.460725e-05 -251.8475144
-59.624644 -2.460725e-05 -214.9354174
558.130744 -2.460725e-05 -30.95600839
444.284048 -2.460725e-05 -178.0842424
175.344887 -2.460725e-05 -141.7698044
662.381457 -66.61081761 -9.738598055e-05
-150.701682 -2.460725e-05 -194.8462704
721.000215 -23.18600761 1.587273614
294.720041 -2.460725e-05 -56.44206339
5.672843 -2.460725e-05 -193.7616734
-490.615822 -33.24498361 -9.738598055e-05
