# .PCD v0.7 - Point Cloud Data file format
VERSION 0.7
FIELDS x y z
SIZE 4 4 4
TYPE F F F
COUNT 1 1 1
WIDTH 1173
HEIGHT 1
VIEWPOINT 0 0 0 1 0 0 0
POINTS 1173
DATA ascii
1189.670116 -2.460660198e-05 248.0479186
-521.932791 -7.542444607 -9.738554854e-05
-649.412593 -67.59156761 -9.738554854e-05
371.820756 -2.460660198e-05 114.1362506
238.130401 -64.57879161 -9.738554854e-05
-876.21833 -2.460660198e-05 91.21959161
-93.155044 -2.460660198e-05 160.0781496
1050.400637 -67.93086161 -9.738554854e-05
-1188.875319 -65.25627061 -9.738554854e-05
-598.57422 -2.460660198e-05 217.8866636
1433.179113 -2.460660198e-05 36.14574361
-1437.321274 -2.460660198e-05 221.0273946
-677.169713 -2.460660198e-05 66.63217361
1097.126536 -2.460660198e-05 249.6461736
-1133.833791 -32.00937561 -9.738554854e-05
220.830478 -2.460660198e-05 133.2196396
492.440681 -10.21092261 -9.738554854e-05
-57.525081 -2.460660198e-05 103.9950766
1346.692677 -2.460660198e-05 131.4014936
-312.248867 -2.460660198e-05 175.2858456
1289.418551 -2.460660198e-05 38.77885561
1208.152109 -2.460660198e-05 157.8005786
162.403004 -2.460660198e-05 243.9794936
847.44256 -0.3289656066 -9.738554854e-05
-1493.931869 -2.460660198e-05 85.22005961
682.02503 -61.84332361 -9.738554854e-05
1053.615416 -2.460660198e-05 116.7528876
147.605355 -2.460660198e-05 184.5897976
338.204947 -2.460660198e-05 250.5933426
585.121467 -2.460660198e-05 239.2320946
180.392469 -2.460660198e-05 217.9725076
-1078.62907 -26.27981061 -9.738554854e-05
-1326.630356 -2.460660198e-05 72.48711261
-26.464983 -2.460660198e-05 218.9975746
-1231.405566 -2.460660198e-05 165.1650276
-755.302842 -2.460660198e-05 134.8342556
-963.500507 -34.30422961 -9.738554854e-05
35.335412 -2.460660198e-05 149.8003466
-759.289635 -2.460660198e-05 185.0602756
-241.671673 -2.460660198e-05 250.5717106
-38.677595 -2.460660198e-05 68.79274761
426.988938 0.5949293934 67.77636161
214.00151 -2.460660198e-05 201.0880516
-373.350303 -2.460660198e-05 126.1558616
639.168968 -2.460660198e-05 18.54791161
-1188.21765 -2.460660198e-05 119.0114106
332.865557 -2.460660198e-05 129.6431236
-1075.059547 -2.460660198e-05 138.3566886
1380.218482 -2.460660198e-05 27.88015161
-715.150044 -2.460660198e-05 161.9747836
1422.667394 -2.460660198e-05 241.0391296
-1250.295104 -2.460660198e-05 14.17122561
-1383.243109 -2.460660198e-05 225.3586436
1357.518289 0.4820183934 -9.738554854e-05
1150.290338 -2.460660198e-05 73.26507061
-931.023966 -2.460660198e-05 118.8659416
1273.843245 -2.460660198e-05 210.3670056
496.016994 -2.460660198e-05 142.8477276
1198.62725 -2.460660198e-05 69.26255861
1441.997264 -2.460660198e-05 219.1710556
1081.117698 -2.460660198e-05 14.61182161
1125.090475 -32.69630961 -9.738554854e-05
742.861139 -31.47854761 -9.738554854e-05
-198.131154 -25.70331461 -9.738554854e-05
1183.194657 -2.460660198e-05 149.1773886
1293.840712 -2.460660198e-05 125.4188446
1157.714744 -67.63490961 -9.738554854e-05
-980.331564 -2.460660198e-05 102.4554806
-260.238173 -1.098466607 -9.738554854e-05
-7.001668997 -2.460660198e-05 122.9262666
929.844508 -67.86364161 -9.738554854e-05
499.355534 -2.460660198e-05 31.53740061
784.374265 -51.61934461 -9.738554854e-05
445.654234 -2.460660198e-05 151.5684486
1268.000215 -49.77775861 18.73715861
-270.105188 -2.460660198e-05 65.76965761
-720.368518 -2.460660198e-05 53.63089961
-910.806369 -63.44492161 -9.738554854e-05
-1344.663379 -68.00002461 -2.217264386
597.45213 -27.71762061 -9.738554854e-05
-839.396839 -2.639691607 -9.738554854e-05
-22.548558 -2.460660198e-05 173.7304156
-943.117766 -2.460660198e-05 36.40759361
524.001021 -2.460660198e-05 119.5833726
-326.071462 -2.460660198e-05 117.3418076
-1238.385353 -2.460660198e-05 118.4877486
-878.667122 -22.75104961 -9.738554854e-05
1210.866271 -64.49281261 -9.738554854e-05
168.639992 -63.84084761 -9.738554854e-05
-1401.943691 -2.460660198e-05 113.8795236
-1063.024201 -2.460660198e-05 58.99619161
-1279.42176 -24.69561461 -9.738554854e-05
1117.891722 -2.460660198e-05 191.9477246
-781.17011 -2.460660198e-05 231.7001616
-1433.26656 -2.460660198e-05 128.3257426
805.706743 -2.460660198e-05 244.0517986
312.578485 -2.460660198e-05 113.9827486
273.071021 -2.460660198e-05 140.2210336
410.066569 -2.460660198e-05 142.7818786
-696.582559 -32.46404561 -9.738554854e-05
820.896949 -2.460660198e-05 194.4958816
-90.095744 -2.460660198e-05 132.7687766
1286.571546 -2.460660198e-05 234.1518456
1376.968337 -2.460660198e-05 86.67875461
-542.776697 -2.460660198e-05 175.9149526
1343.67145 -2.460660198e-05 56.00118761
63.717286 -2.460660198e-05 125.2107726
-145.407597 -2.460660198e-05 61.79985661
251.691306 -2.460660198e-05 167.8024926
328.176776 -2.460660198e-05 73.84643461
376.363506 -42.01887561 -9.738554854e-05
956.121322 -2.460660198e-05 26.17886161
-943.775643 -2.460660198e-05 61.71431561
-836.085423 -2.460660198e-05 69.66731461
691.104529 -5.133198607 -9.738554854e-05
-578.482671 -2.460660198e-05 239.1356736
1474.107812 -2.460660198e-05 132.3529736
1191.120476 -2.460660198e-05 32.65021761
-1314.230278 -2.460660198e-05 191.2662906
1451.383029 -67.63029861 -9.738554854e-05
1262.000215 -23.33030761 104.5506326
-464.254508 -1.824888607 -9.738554854e-05
-1297.390733 -2.460660198e-05 243.4815846
1187.262477 -25.79494561 -9.738554854e-05
-829.916962 -2.460660198e-05 250.5740616
-1207.729787 -2.460660198e-05 18.57041761
1082.050034 -26.75835561 -9.738554854e-05
-1104.503626 -2.460660198e-05 145.4891126
-344.075718 -2.460660198e-05 199.5057276
-1378.860521 -42.07359561 -9.738554854e-05
-1081.835405 -2.460660198e-05 38.08100461
-1438.193379 -2.460660198e-05 77.25704561
315.582278 -2.460660198e-05 221.6447616
1315.612886 -2.460660198e-05 24.53990861
530.780197 -2.460660198e-05 68.71874661
1009.275931 -2.460660198e-05 22.53601061
571.704071 -60.05318361 -9.738554854e-05
-532.18843 -2.460660198e-05 102.3780866
-1457.261084 -2.460660198e-05 105.0934606
-145.414819 -2.460660198e-05 178.7136436
-21.241231 -21.87639761 -9.738554854e-05
471.902616 -2.460660198e-05 189.1128016
-1030.900783 -2.460660198e-05 216.9627326
1008.878803 -40.74037561 -9.738554854e-05
-408.370198 -2.460660198e-05 15.33768061
280.124884 -2.460660198e-05 245.0381196
-1098.460716 -2.460660198e-05 226.8381606
-826.315512 -2.460660198e-05 200.7697586
634.131659 -2.460660198e-05 157.4536516
223.358909 -2.460660198e-05 252.0314276
-1037.233209 -62.55582561 -9.738554854e-05
1175.981324 2.302204393 115.8157526
-694.353606 -2.460660198e-05 148.6389336
354.492122 -2.460660198e-05 171.3086566
729.192464 -2.460660198e-05 77.69874461
253.485604 -2.460660198e-05 223.3116516
1342.850126 -2.460660198e-05 107.0615496
1274.931871 -21.41017061 -9.738554854e-05
496.677897 -2.460660198e-05 176.6822126
-642.576764 -2.460660198e-05 203.2886646
-1186.43183 -2.460660198e-05 183.6744556
-563.741029 -12.70524061 -9.738554854e-05
257.630688 -2.460660198e-05 62.16364061
-334.81642 -2.460660198e-05 18.25688661
1422.575821 -2.460660198e-05 189.6909266
-1277.68544 -2.460660198e-05 151.3209376
1474.461388 -2.460660198e-05 251.9845626
614.610756 -2.460660198e-05 24.53164861
-939.246111 1.182835393 -9.738554854e-05
1447.905986 -2.460660198e-05 114.1158746
-1298.914904 1.654198393 -9.738554854e-05
105.842438 -2.460660198e-05 117.2955906
1469.563948 -2.460660198e-05 203.2430686
-101.809469 -2.460660198e-05 13.64462161
1000.672843 -2.460660198e-05 94.23832661
-1065.862964 -2.460660198e-05 178.3583616
690.09022 -2.460660198e-05 199.2479716
1400.431946 -45.44771561 -9.738554854e-05
-523.989881 -2.460660198e-05 22.98809061
1268.000215 -44.55103161 67.92828361
904.104446 -2.460660198e-05 62.78565061
-1405.310567 -2.460660198e-05 166.7652476
688.776655 -2.460660198e-05 130.8518396
902.683979 -2.460660198e-05 215.3229466
-401.76592 -2.460660198e-05 140.5359956
568.323808 -2.460660198e-05 114.0091906
782.481893 -2.460660198e-05 81.95300761
702.069813 -2.460660198e-05 160.0045746
1103.545857 -2.460660198e-05 150.1712866
-1193.939891 -2.460660198e-05 157.5423076
519.574884 2.479391393 244.2054676
1290.146736 -68.00002461 -1.645614386
802.764728 -2.460660198e-05 26.49515561
-1336.627228 -2.460660198e-05 23.65415861
133.104724 -2.460660198e-05 224.9800286
-723.962701 -68.00002461 -0.4769953855
-240.085345 -2.460660198e-05 45.50352761
6.829552003 -2.460660198e-05 149.9113746
-901.164491 -2.460660198e-05 216.4420296
-1243.533553 -2.460660198e-05 195.4994736
-1313.820475 -2.460660198e-05 117.1412666
865.264413 -2.460660198e-05 49.97482761
466.576452 -2.460660198e-05 235.4690866
106.73695 -2.460660198e-05 52.42257961
-454.287439 -2.460660198e-05 155.7434616
1154.236622 -2.460660198e-05 158.6942866
1262.000215 -49.65588661 117.0171096
1275.487343 -2.460660198e-05 186.5125426
-93.538755 -2.460660198e-05 65.40115761
768.564456 -2.460660198e-05 160.6710076
-1344.238768 -2.460660198e-05 120.0016996
1012.287878 -2.460660198e-05 55.14788561
-812.128712 -2.460660198e-05 24.42548461
583.213074 -2.460660198e-05 188.6325456
555.479032 -2.460660198e-05 155.8256756
1441.267784 -25.00445161 -9.738554854e-05
-1212.588138 -2.460660198e-05 52.99421361
39.841548 -2.460660198e-05 11.55669461
-121.431825 -2.460660198e-05 52.80123661
-180.299857 -2.460660198e-05 169.4677476
-660.77493 1.346708393 -9.738554854e-05
-358.359694 -2.460660198e-05 154.7952546
393.951562 -2.460660198e-05 188.2217246
1478.53465 -68.00002461 -2.275752386
399.109721 -48.93185461 -9.738554854e-05
55.515886 -2.460660198e-05 174.8903556
-376.87156 -2.460660198e-05 179.2661356
-196.362184 -2.460660198e-05 191.5416236
108.807184 -2.460660198e-05 161.7954646
1064.095262 -2.460660198e-05 224.7880996
-437.749368 -54.72253461 -9.738554854e-05
-1106.501405 -2.460660198e-05 174.4027066
1225.495847 -2.460660198e-05 141.6399486
64.8283 -2.460660198e-05 77.04318061
221.202979 -2.460660198e-05 24.64093061
-328.899144 -2.460660198e-05 155.3985856
1126.21994 -2.460660198e-05 29.42632261
-665.893562 -2.460660198e-05 175.0154746
-1185.107921 -2.460660198e-05 235.1106116
143.536649 -2.460660198e-05 31.41122261
-1076.408264 -49.82097761 -9.738554854e-05
-1171.847666 -2.460660198e-05 16.56323961
984.455597 -2.460660198e-05 248.3275586
1315.477196 -2.460660198e-05 226.3471146
1256.826959 -2.460660198e-05 19.64660061
-1226.521679 -2.460660198e-05 85.03007161
805.939562 -2.460660198e-05 126.2718556
-750.9414 -2.460660198e-05 87.35709561
79.27324 -2.460660198e-05 218.7826526
99.193098 -12.66781761 -9.738554854e-05
-1133.991846 -2.460660198e-05 23.49585761
-631.270511 -2.460660198e-05 247.4041086
-1404.503878 2.280789393 -9.738554854e-05
-276.026676 -2.460660198e-05 35.14065361
-1356.370518 -2.460660198e-05 167.4051926
721.506178 -2.460660198e-05 34.49357261
591.281821 -2.460660198e-05 109.3895626
932.438335 -2.460660198e-05 10.36595961
-170.967198 -2.460660198e-05 248.4714306
-667.257766 -2.460660198e-05 122.2613416
47.078281 -51.13111261 -9.738554854e-05
-1396.011538 -2.460660198e-05 45.84994361
-23.45058 -51.15376661 -9.738554854e-05
-220.65726 -2.460660198e-05 74.89604161
-899.435873 -2.460660198e-05 193.2247816
-82.026143 -2.460660198e-05 26.41709461
-1471.373696 -2.460660198e-05 229.2112366
-64.591865 -2.460660198e-05 240.7363786
-61.740819 -14.22268661 -9.738554854e-05
1399.555858 -2.460660198e-05 120.6463746
771.097235 -2.460660198e-05 120.6805426
809.179619 -16.42867261 -9.738554854e-05
1475.996235 -2.460660198e-05 53.62379861
-558.447394 -2.460660198e-05 195.7665786
-984.832741 -2.460660198e-05 223.5580546
228.296395 -2.460660198e-05 73.88423961
1150.884444 -2.460660198e-05 109.5290356
596.677722 -2.460660198e-05 151.9565446
-419.941386 -2.460660198e-05 109.5520376
725.368518 -2.460660198e-05 200.0890126
-137.256584 -2.460660198e-05 141.3698846
-981.199726 -2.460660198e-05 194.2862336
-1289.225348 -68.00002461 -1.543596386
-115.090906 -2.460660198e-05 103.5906436
-1112.533263 -11.11667061 -9.738554854e-05
1268.000215 -22.33767061 52.46720261
-547.303134 -2.460660198e-05 219.3810026
-305.533281 -2.460660198e-05 29.88640861
540.974505 -2.460660198e-05 203.4599716
-547.026407 -2.460660198e-05 80.19063261
91.202834 -68.00002461 -0.8521413855
159.105857 -25.68620061 -9.738554854e-05
-491.445401 -2.460660198e-05 85.60645961
-373.555631 -2.460660198e-05 226.9385146
-1150.422138 -2.460660198e-05 129.8337186
456.60205 2.172148393 -9.738554854e-05
1168.011808 -2.460660198e-05 25.94078561
-1416.774334 -2.460660198e-05 85.65738561
-280.527085 -2.460660198e-05 131.8182376
870.25528 -2.460660198e-05 188.4006016
630.492648 -2.460660198e-05 242.0762086
-645.970601 -2.460660198e-05 153.4902926
952.888563 -38.88713661 -9.738554854e-05
-730.393744 -2.460660198e-05 227.4004026
769.822876 -2.460660198e-05 58.65828061
123.689142 -14.79334561 -9.738554854e-05
-915.390034 -14.63461661 -9.738554854e-05
-0.1420829967 -2.460660198e-05 34.85680661
580.497614 -2.460660198e-05 62.02642861
-152.651815 -26.34672061 -9.738554854e-05
-1475.414799 -2.460660198e-05 58.38790061
-699.928157 -2.460660198e-05 66.84552961
-601.663997 -2.460660198e-05 88.09002361
452.050802 -44.88054161 -9.738554854e-05
369.420716 -19.90621361 -9.738554854e-05
-776.619681 -2.460660198e-05 165.5185286
-1433.280344 -2.460660198e-05 33.38023961
852.240097 -2.460660198e-05 123.2160256
168.734496 -2.460660198e-05 176.4484256
424.757771 -2.460660198e-05 188.5873556
1501.068482 -2.460660198e-05 228.6541356
-1292.720755 -2.460660198e-05 199.1949056
-430.175963 -2.460660198e-05 248.8613336
-470.618783 -2.460660198e-05 233.4827986
-307.762071 -48.06459461 -9.738554854e-05
-321.28747 -2.460660198e-05 67.15880761
274.079285 -2.460660198e-05 10.95780661
1037.161247 -2.460660198e-05 10.91157761
-175.928556 -2.460660198e-05 61.16698961
-688.07623 -2.460660198e-05 252.3881726
1500.115045 -2.460660198e-05 166.1540276
893.553006 -2.460660198e-05 193.3651166
-442.404016 -19.44248061 -9.738554854e-05
1053.085835 -29.42067561 -9.738554854e-05
-140.405251 -2.460660198e-05 83.77600061
1345.04236 -2.460660198e-05 189.7789616
-1146.924212 -2.460660198e-05 61.99533261
-1184.025078 -2.460660198e-05 90.38593761
-854.909794 -2.460660198e-05 176.9819066
1437.896609 -2.460660198e-05 140.1035546
325.592433 -17.65746261 -9.738554854e-05
1498.742885 -2.460660198e-05 119.2872226
1012.935106 -2.460660198e-05 130.8490916
-631.40057 -2.460660198e-05 21.50911861
1084.165817 -65.67079361 -9.738554854e-05
657.352708 -2.460660198e-05 48.78647461
273.948215 -2.460660198e-05 81.29160961
616.62737 -2.460660198e-05 192.7365006
-514.402187 -2.460660198e-05 213.5582166
-1441.106 -2.460660198e-05 190.3461606
-232.537141 -2.460660198e-05 154.9800866
-420.287249 -2.460660198e-05 200.8004656
907.400209 -2.460660198e-05 21.79512461
-1250.203305 -2.460660198e-05 226.4456446
-1308.028758 -2.460660198e-05 84.75980161
1092.150443 -2.460660198e-05 112.0456116
-980.770084 -2.460660198e-05 67.60291161
-1236.277012 -54.25342661 -9.738554854e-05
-546.816889 -2.460660198e-05 36.22829961
-154.515964 -2.460660198e-05 230.5456296
1133.923526 -2.460660198e-05 214.2950406
-293.878468 -2.460660198e-05 208.0024886
641.05477 -74.10099461 -9.738554854e-05
1268.000215 -49.77165861 139.6565736
-1312.783301 -2.460660198e-05 47.28803261
1357.342395 -54.12535461 -9.738554854e-05
-176.331942 -13.02647961 -9.738554854e-05
-462.832464 -2.460660198e-05 47.62553961
-262.107183 -2.460660198e-05 86.69703061
-121.174946 -2.460660198e-05 27.17679961
383.320434 -0.8394096066 -9.738554854e-05
887.624717 -2.460660198e-05 100.5228286
269.873119 -67.10994861 -9.738554854e-05
408.222898 -6.289978607 -9.738554854e-05
-741.363286 -2.460660198e-05 61.67941861
-439.06964 -2.460660198e-05 37.86883461
-382.784336 -2.460660198e-05 93.87147561
-480.804045 -17.08346061 -9.738554854e-05
-1082.931644 -2.460660198e-05 210.9401566
1327.035302 -2.460660198e-05 71.06425961
1245.246621 -2.460660198e-05 60.80052361
1397.28623 -2.460660198e-05 197.6475786
-991.717235 -2.460660198e-05 20.86859861
1477.747041 -2.460660198e-05 17.40682461
932.239615 -2.460660198e-05 118.6966716
-1323.450951 -2.460660198e-05 158.3610386
-412.862297 -15.24232561 -9.738554854e-05
92.29329 -2.460660198e-05 196.2172056
27.911898 -2.460660198e-05 102.1319086
-406.098385 -2.460660198e-05 162.1802186
-856.255731 -2.460660198e-05 221.4660486
1119.41321 -2.460660198e-05 77.16921661
-1237.374967 -2.460660198e-05 142.2342576
1071.828406 -2.460660198e-05 60.66087461
-1442.192485 -2.460660198e-05 55.43903361
-515.124681 -2.460660198e-05 135.5734346
-1018.140382 -2.460660198e-05 53.41353561
360.145545 -2.460660198e-05 90.02337361
-583.476802 -2.460660198e-05 105.2822526
212.110405 -2.460660198e-05 156.0061716
-1141.143581 -2.460660198e-05 97.89232861
-923.743963 -2.460660198e-05 218.6382576
-992.315876 -49.76745861 -9.738554854e-05
-557.506927 -2.460660198e-05 130.0732856
203.769233 -38.65326461 -9.738554854e-05
1117.483601 -2.460660198e-05 167.0857246
973.752239 -2.460660198e-05 102.6974846
1435.521755 -47.92229261 -9.738554854e-05
1364.335973 -32.95119961 -9.738554854e-05
405.170208 -2.460660198e-05 66.17509961
733.494749 -2.460660198e-05 131.2074526
-1088.335621 -2.460660198e-05 186.5832566
-171.509818 -2.460660198e-05 111.2216116
1040.329562 -2.460660198e-05 96.22970861
-1049.03548 -2.460660198e-05 93.92722561
1225.757683 -47.59488061 -9.738554854e-05
-1272.398448 -46.58636261 -9.738554854e-05
1235.06467 -23.99774761 -9.738554854e-05
-420.83063 -2.460660198e-05 63.24827161
-325.728921 -2.460660198e-05 225.3124346
-97.758185 -2.460660198e-05 228.4399686
-1263.935641 -2.460660198e-05 62.14608961
-478.850858 -2.460660198e-05 17.04508261
-1369.013521 -2.460660198e-05 0.4068346145
420.794698 -2.460660198e-05 24.45700761
-1054.18007 -2.460660198e-05 144.4074376
1268.000215 -17.51538061 147.1212856
1277.374622 -2.460660198e-05 78.31251761
-713.836844 -2.460660198e-05 111.0441426
-270.849085 -46.45171461 -9.738554854e-05
-1462.054205 -2.460660198e-05 19.34108061
-765.674986 -2.460660198e-05 17.95947861
-1006.494068 -12.89475861 -9.738554854e-05
-265.508096 -2.460660198e-05 228.1974866
-1290.408454 -2.460660198e-05 129.5788716
-1334.028997 -2.460660198e-05 205.5876116
-1002.345572 -2.460660198e-05 186.7274656
-235.230532 -2.460660198e-05 197.9847056
985.587259 -67.05711161 -9.738554854e-05
-952.573971 -2.460660198e-05 154.7090936
-116.020675 -2.460660198e-05 186.6346446
1028.8849 -65.66430461 -9.738554854e-05
609.949233 -2.460660198e-05 225.0132156
651.236316 -2.460660198e-05 228.4901986
1197.53205 -2.460660198e-05 193.0062286
-4.830489997 -2.460660198e-05 217.2280276
536.062212 -2.460660198e-05 19.56728061
1140.032405 -13.93506461 -9.738554854e-05
-594.826638 -2.460660198e-05 159.5664426
962.703636 -2.460660198e-05 228.4729316
-280.395957 -2.460660198e-05 108.6340226
660.599963 -2.460660198e-05 167.8169166
426.435368 -2.460660198e-05 234.2122746
-648.097514 -22.86499961 -9.738554854e-05
470.636718 -2.460660198e-05 140.3295626
1240.912315 -2.460660198e-05 245.6187666
-793.473447 -2.460660198e-05 92.91809161
1003.745469 -2.460660198e-05 173.4352416
-1374.152579 -2.460660198e-05 95.97304661
-89.633845 -2.460660198e-05 86.57957661
-210.594015 -2.460660198e-05 228.8426826
1160.01614 -2.460660198e-05 179.4274486
500.618605 -2.460660198e-05 227.5521266
-1209.392454 -2.460660198e-05 219.9758376
157.192365 -2.460660198e-05 103.8952446
-1151.946425 -2.460660198e-05 158.4382376
-179.538235 -2.460660198e-05 138.4760616
-1393.246234 -2.460660198e-05 205.6732616
348.350962 -2.460660198e-05 44.30622961
737.400616 -2.460660198e-05 14.15590461
197.290956 -2.460660198e-05 87.73917461
-703.269644 -2.460660198e-05 15.71560361
300.870028 -2.460660198e-05 170.7611576
-46.512188 -2.460660198e-05 226.4966526
-869.18881 -41.94032261 -9.738554854e-05
-459.819638 -2.460660198e-05 182.2518096
569.522632 -13.57425561 -9.738554854e-05
-517.820572 -2.460660198e-05 187.0207166
-1125.607878 -2.460660198e-05 213.7137116
103.591591 -2.460660198e-05 30.44105861
1019.237793 -2.460660198e-05 227.4750046
-367.554889 -2.460660198e-05 58.37079061
324.761698 -53.53046561 -9.738554854e-05
-371.829499 -2.460660198e-05 18.04981861
-1042.783921 -2.460660198e-05 50.00198161
1444.172516 -2.460660198e-05 168.3603636
-1204.314129 -14.12286861 -9.738554854e-05
-206.695166 -2.460660198e-05 134.1146796
1089.208409 -2.460660198e-05 227.6186186
190.714749 -62.20102361 -9.738554854e-05
930.635242 -2.460660198e-05 91.51265461
940.186023 -2.460660198e-05 226.6172346
1365.739647 -2.460660198e-05 140.7770776
-1346.296833 -2.460660198e-05 250.8689026
-1403.991447 -25.85728261 -9.738554854e-05
1299.7249 -3.887338607 -9.738554854e-05
-706.852733 -2.460660198e-05 189.4007866
-1166.073033 -2.460660198e-05 224.3768486
-264.328543 -2.460660198e-05 180.9651356
1150.343061 -2.460660198e-05 46.57798761
564.847515 -2.460660198e-05 39.51028261
1030.723017 -23.46649961 -9.738554854e-05
663.300468 -31.26023561 -9.738554854e-05
-646.819153 -2.460660198e-05 229.8782946
-1045.010934 -2.460660198e-05 192.2169486
-608.754558 -2.460660198e-05 51.53684261
1267.073541 -50.00002461 251.1166056
-834.894128 -46.14734261 -9.738554854e-05
-335.72946 -51.92591261 -9.738554854e-05
-1356.502016 -50.66562461 -9.738554854e-05
124.301542 -2.460660198e-05 205.8252286
-166.782821 -2.460660198e-05 19.89612961
-874.204706 -2.460660198e-05 185.4033616
-799.871516 -16.26924561 -9.738554854e-05
812.247557 -2.460660198e-05 104.5303196
299.601466 -2.460660198e-05 45.77006561
-965.719251 -13.41554761 -9.738554854e-05
-459.819665 -2.460660198e-05 78.53254661
-1283.271201 -2.460660198e-05 224.6260546
926.852669 -2.460660198e-05 252.2572486
-1470.404597 -2.460660198e-05 155.7605126
-767.858986 -17.07298161 -9.738554854e-05
1133.430348 -2.460660198e-05 124.9437666
1464.619184 -20.91817761 -9.738554854e-05
-898.290661 -2.460660198e-05 40.37428861
201.253149 -2.460660198e-05 219.7075456
-1480.000273 -22.94672561 -0.001008385549
-158.034255 -2.460660198e-05 127.2020166
533.467734 -2.460660198e-05 168.0197106
7.945169003 -51.44911361 -9.738554854e-05
442.613508 -2.460660198e-05 19.98014861
841.240735 -2.460660198e-05 156.9485566
322.292296 -2.460660198e-05 176.0192686
1140.303846 -2.460660198e-05 235.9794396
-333.546336 -12.99343061 -9.738554854e-05
1217.290931 -2.460660198e-05 116.0374756
700.680526 -2.460660198e-05 110.2459736
975.131454 -2.460660198e-05 200.5126426
1481.68349 -2.460660198e-05 153.8203856
171.346004 -2.460660198e-05 68.79279861
735.923912 -2.460660198e-05 56.61605061
199.098797 -2.460660198e-05 110.7587366
-1498.325972 -2.460660198e-05 250.0124966
-374.438346 -20.51701361 -9.738554854e-05
54.25803 -2.460660198e-05 243.6383646
-196.274072 -46.39871661 -9.738554854e-05
673.436495 -2.460660198e-05 233.8858136
-1319.653995 1.661204393 -9.738554854e-05
-1151.816957 -2.460660198e-05 11.23331761
-1110.113797 -2.460660198e-05 69.46155861
131.871266 -2.460660198e-05 91.26655961
-920.660684 -45.25322061 -9.738554854e-05
25.383657 -39.47986261 -9.738554854e-05
-1164.674797 -68.00002461 -2.389893386
-68.424835 -2.460660198e-05 126.4357206
-1426.627406 -2.460660198e-05 148.6092176
1294.795201 -2.460660198e-05 172.9346286
-19.93529 -2.460660198e-05 77.47327461
-944.654606 -49.19778361 -9.738554854e-05
-242.058069 -47.61297961 -9.738554854e-05
1489.720445 -2.460660198e-05 74.71454961
702.893995 -63.57274261 -9.738554854e-05
-130.767311 -28.21416261 -9.738554854e-05
-103.583624 -15.86821961 -9.738554854e-05
621.955737 -19.50362861 -9.738554854e-05
-140.006561 -2.460660198e-05 15.66685261
-313.50244 -2.460660198e-05 133.7859536
-1126.646706 -2.460660198e-05 56.59787061
1454.371144 -2.460660198e-05 56.54182261
868.402662 -0.5714176066 -9.738554854e-05
85.505162 -46.44775561 -9.738554854e-05
82.953001 -2.460660198e-05 154.7491036
891.867533 -3.396030607 -9.738554854e-05
-608.752122 -43.00002461 -0.7591853855
1231.58995 -2.460660198e-05 18.60715761
19.841086 -2.460660198e-05 238.8356026
1264.047155 2.465377393 164.8283736
-850.412797 -2.460660198e-05 244.6189736
1033.01446 -2.460660198e-05 61.57799961
-638.826149 -2.460660198e-05 68.81264861
769.710091 -2.460660198e-05 97.86779361
544.793094 -2.460660198e-05 83.79448261
-1483.837689 -53.04547361 -9.738554854e-05
666.142506 -2.460660198e-05 191.2373366
-1112.855057 -53.33435861 -9.738554854e-05
-1173.259025 -2.460660198e-05 199.5533606
177.999735 -2.460660198e-05 146.7432296
453.757274 -2.460660198e-05 97.19194561
-946.104468 -2.460660198e-05 96.82734761
285.729644 -2.460660198e-05 190.3462606
1222.562583 -2.460660198e-05 205.6716026
845.028408 -2.460660198e-05 47.44438161
-618.235575 -2.460660198e-05 172.9956786
-1148.508509 -2.460660198e-05 236.0513706
-34.140655 -2.460660198e-05 45.31950161
-1037.453466 -17.02011861 -9.738554854e-05
310.146774 -2.460660198e-05 26.55593861
1074.089122 -2.460660198e-05 187.3624206
-1270.875098 -2.460660198e-05 106.0672096
-488.798354 -2.460660198e-05 121.0249956
777.622385 -6.949785607 -9.738554854e-05
744.011941 -2.460660198e-05 238.6085046
1076.742183 -2.460660198e-05 154.2516056
-704.585155 -58.65922661 -9.738554854e-05
-1446.244534 -46.70552461 -9.738554854e-05
166.946644 -2.460660198e-05 197.4435136
879.200385 -2.460660198e-05 141.8895566
-1339.655867 -18.46521161 -9.738554854e-05
-223.115594 -2.460660198e-05 178.2370836
499.310639 -46.02332961 -9.738554854e-05
-396.374186 -2.460660198e-05 55.57175361
-454.408924 -2.460660198e-05 115.4809956
544.571623 -2.460660198e-05 223.3687626
-1042.968866 -2.460660198e-05 18.98362361
-404.834187 -52.92424361 -9.738554854e-05
391.004918 -2.460660198e-05 149.4765846
-1260.931473 -12.86430061 -9.738554854e-05
334.673418 0.7566873934 -9.738554854e-05
-1275.839684 -2.460660198e-05 183.8148906
985.174579 -2.460660198e-05 135.8539466
791.66655 -2.460660198e-05 166.7090476
-311.372852 -17.34271461 -9.738554854e-05
-729.252945 -27.08722361 -9.738554854e-05
931.561491 -2.460660198e-05 208.4600526
-345.874476 -2.460660198e-05 86.31883861
978.355376 -2.460660198e-05 19.26203061
1179.87314 -2.460660198e-05 228.2743206
596.629031 -2.460660198e-05 86.97948561
-616.656874 -3.398295607 -9.738554854e-05
-44.491608 -2.460660198e-05 88.01778561
-862.553801 -2.460660198e-05 20.05598861
815.566705 -2.460660198e-05 64.40708861
633.205113 -2.460660198e-05 96.73376761
-1018.520585 -2.460660198e-05 83.59936461
1384.643178 -2.460660198e-05 47.60255061
352.990587 -2.460660198e-05 205.5316236
771.461094 -67.38967761 -9.738554854e-05
807.217419 -2.460660198e-05 149.1903976
1265.008048 -2.460660198e-05 0.2740056145
1366.064357 -2.460660198e-05 229.7720826
-1282.692125 -2.460660198e-05 23.24443561
112.256316 2.406539393 -9.738554854e-05
1257.499227 -2.460660198e-05 107.4418966
-1293.817742 -2.460660198e-05 41.19578861
1298.449447 -2.460660198e-05 105.6480746
-1179.48843 -2.460660198e-05 53.24297061
-115.174674 -2.460660198e-05 217.0032526
1236.758923 -2.460660198e-05 176.8207006
-234.277781 -2.460660198e-05 25.61145461
-812.93648 -51.82584361 -9.738554854e-05
352.575633 -2.460660198e-05 132.8198476
1248.824761 -2.460660198e-05 139.1530206
92.107809 -2.460660198e-05 85.78717361
235.137522 -2.460660198e-05 211.5170886
1415.238908 -2.460660198e-05 76.98214261
1264.869757 -2.460660198e-05 38.68768161
646.087417 -2.460660198e-05 205.4342206
-247.767454 -2.460660198e-05 125.1267306
-860.393023 -2.460660198e-05 42.71759761
-743.317893 -2.460660198e-05 25.86150361
1032.150596 -2.460660198e-05 193.9434356
-879.227158 -2.460660198e-05 139.0770586
326.691669 -2.460660198e-05 99.80359761
191.331193 -15.13853261 -9.738554854e-05
-916.904384 -2.460660198e-05 70.03328661
903.361009 -2.460660198e-05 148.5437536
786.507909 -2.460660198e-05 41.18064061
652.535035 2.465623393 -9.738554854e-05
-1377.727518 -2.460660198e-05 73.69625561
-605.548686 -2.460660198e-05 130.1286466
1061.70766 -2.460660198e-05 18.40294661
264.378452 -27.28428161 -9.738554854e-05
912.754592 -17.52315061 -9.738554854e-05
-238.464097 -20.26993661 -9.738554854e-05
671.992749 -11.22436961 -9.738554854e-05
1379.684033 -2.460660198e-05 169.5596126
1048.060915 -2.460660198e-05 251.6009556
-1404.359497 -2.460660198e-05 67.79680161
-784.092896 -2.460660198e-05 48.59316461
-273.994843 -15.19545861 -9.738554854e-05
967.327464 -2.460660198e-05 168.7493496
-107.274742 -2.460660198e-05 142.3573696
1299.290266 -2.460660198e-05 55.79598061
275.208061 -2.460660198e-05 41.14535761
4.946222003 -2.460660198e-05 15.86159361
390.503085 -2.460660198e-05 37.80811461
-180.753297 -2.460660198e-05 204.4246676
-1173.445801 -2.460660198e-05 161.7314976
-878.343004 -2.460660198e-05 57.73656461
999.437933 -20.73132061 -9.738554854e-05
616.026682 -2.460660198e-05 52.33490261
-1110.570499 -2.460660198e-05 16.04302061
-507.628283 -2.460660198e-05 61.62596661
1141.327067 -48.31300761 -9.738554854e-05
729.136704 -16.15326161 -9.738554854e-05
1157.896698 -5.894972607 -9.738554854e-05
549.510508 1.940629393 -9.738554854e-05
183.399955 -2.460660198e-05 49.38066261
881.375889 -68.00002461 -1.297517386
-624.415402 -2.460660198e-05 96.53405961
641.579218 -2.460660198e-05 139.3483316
975.611891 -16.85814461 -9.738554854e-05
1268.000215 -48.66415761 211.9154476
-1077.500273 0.2902093934 118.9581866
665.011133 -2.460660198e-05 94.36453961
-781.798779 -2.460660198e-05 121.9734316
-1004.005398 -2.460660198e-05 101.9806146
-670.229845 -2.460660198e-05 44.95693761
160.80071 -2.460660198e-05 17.57167661
1446.84771 -2.460660198e-05 19.18684061
-1065.120417 -2.460660198e-05 15.37979261
387.967407 -2.460660198e-05 238.4206996
-305.640368 -2.460660198e-05 96.26129261
-816.63298 -2.460660198e-05 69.84090761
-215.452331 -53.93930361 -9.738554854e-05
1305.113037 -2.460660198e-05 153.7985446
-1328.020863 -2.460660198e-05 135.5384276
207.430227 -2.460660198e-05 54.63722861
-57.727217 -2.460660198e-05 16.36591461
-69.18485 -57.53524161 -9.738554854e-05
-135.398968 -2.460660198e-05 195.4861876
-1194.411398 -2.460660198e-05 137.3921036
795.337008 -2.460660198e-05 199.4021596
765.201481 -2.460660198e-05 37.81471861
700.174839 -2.460660198e-05 182.3627906
-533.031485 -2.460660198e-05 65.37619161
426.969578 -18.83709961 -9.738554854e-05
81.148972 -2.460660198e-05 43.67307561
-1117.783784 -2.460660198e-05 251.9798716
-213.10557 -2.460660198e-05 115.9055436
-300.882688 -2.460660198e-05 68.96646761
-1356.936533 -2.460660198e-05 191.1913416
-342.499339 -2.460660198e-05 105.8231206
-370.986212 -59.82981161 -9.738554854e-05
-830.681402 -2.460660198e-05 17.29267561
55.672921 -21.64140561 -9.738554854e-05
-1251.418277 -2.460660198e-05 45.01155861
-565.550482 -2.460660198e-05 43.70519261
864.810604 -2.460660198e-05 230.2991336
268.670688 -2.460660198e-05 211.4573856
136.166535 -2.460660198e-05 165.6558186
876.615524 -39.48047161 -9.738554854e-05
301.179567 -19.13289661 -9.738554854e-05
-510.356317 -2.460660198e-05 246.3800596
-505.732483 -17.89375561 -9.738554854e-05
-1062.097269 -2.460660198e-05 79.83198561
704.779555 -44.21105661 -9.738554854e-05
1262.000215 -17.97299761 200.4745776
828.132996 -44.59954561 -9.738554854e-05
-890.868721 -2.460660198e-05 249.1325586
-1021.467826 -48.75979761 -9.738554854e-05
-475.152559 -2.460660198e-05 252.1181376
-190.904614 -2.460660198e-05 18.26557261
16.724662 -2.460660198e-05 199.9521266
-499.735392 -2.460660198e-05 172.5530776
512.059141 -2.460660198e-05 165.2512556
827.549231 -2.460660198e-05 228.5411766
664.825204 -2.460660198e-05 122.0115556
80.071536 -11.55740061 -9.738554854e-05
239.49747 -2.460660198e-05 18.98632061
1366.515619 -2.460660198e-05 41.43867761
-1204.829468 -2.460660198e-05 88.97543261
505.783853 -2.460660198e-05 13.51623761
-1424.258917 -2.460660198e-05 235.0038956
-154.476333 -2.460660198e-05 203.5154196
-27.743345 -2.460660198e-05 238.1176056
-624.971502 -2.460660198e-05 122.0358986
-198.575872 -2.460660198e-05 41.28548361
1089.447431 -2.460660198e-05 44.43865061
1002.101988 -2.460660198e-05 218.7106656
-925.218997 -2.460660198e-05 169.4398636
760.786539 -2.460660198e-05 200.7203986
-1452.330273 -2.460660198e-05 234.8376366
618.642833 -2.460660198e-05 82.07566461
-1212.402341 -2.460660198e-05 163.7405016
32.273483 -2.460660198e-05 49.99417761
404.154507 -2.460660198e-05 101.3837576
-594.162034 -2.460660198e-05 20.14294761
1116.52469 -2.460660198e-05 107.1020146
-765.770405 -39.69849861 -9.738554854e-05
1231.732041 -2.460660198e-05 100.4836396
1328.125202 -2.460660198e-05 158.7000416
-1422.507799 -45.71718461 -9.738554854e-05
1145.569725 0.2857473934 193.7517196
-176.967656 -2.460660198e-05 92.84520261
355.904977 -47.46881861 -9.738554854e-05
-217.34558 -15.36155461 -9.738554854e-05
-1024.842183 -2.460660198e-05 156.1534386
-653.392162 -2.460660198e-05 23.80921661
461.635138 -2.460660198e-05 59.44423361
830.061608 -2.460660198e-05 173.3393316
-667.99986 -63.49497861 -9.738554854e-05
609.277683 -2.460660198e-05 118.8948106
1257.521781 -2.460660198e-05 80.73429761
1219.60231 -8.993316607 -9.738554854e-05
443.637624 -2.460660198e-05 201.2976446
-1015.633356 -2.460660198e-05 18.29378161
-696.177813 -2.460660198e-05 226.6553076
970.99687 -2.460660198e-05 123.3411456
474.443324 -4.434818607 -9.738554854e-05
-421.968905 -2.460660198e-05 181.6692276
883.862822 -2.460660198e-05 62.19915661
1224.117525 -2.460660198e-05 68.81076961
-79.376755 -2.460660198e-05 196.1526966
761.256764 -2.460660198e-05 247.3224026
852.818115 -2.460660198e-05 91.33594961
-758.004553 -2.460660198e-05 234.2882636
1268.000215 -12.79699461 119.3344976
1268.000215 -35.83333661 176.6303356
977.282316 -2.460660198e-05 53.45043261
1476.163945 -49.41038561 -9.738554854e-05
6.508397003 -2.460660198e-05 107.2459896
-588.00853 -2.460660198e-05 194.5969556
917.695627 -49.50470961 -9.738554854e-05
1100.980914 -2.460660198e-05 200.1918976
207.809396 -2.460660198e-05 238.2580666
1249.551507 -2.460660198e-05 216.7808296
1102.752112 -26.39430861 -9.738554854e-05
-1476.732816 -2.460660198e-05 93.64119661
1194.79417 -6.915533607 -9.738554854e-05
654.686453 -2.460660198e-05 29.10379761
131.47105 2.271353393 -9.738554854e-05
685.272892 -2.460660198e-05 66.77465961
-2.480545997 -2.460660198e-05 176.9384846
-1146.612526 -2.460660198e-05 191.5633796
1180.073633 -2.460660198e-05 66.72945261
-777.66483 -2.460660198e-05 82.89413161
-1385.969106 -2.460660198e-05 247.3091526
-389.314923 -2.460660198e-05 241.8449336
626.088547 -58.49410161 -9.738554854e-05
1111.525879 -2.460660198e-05 51.84975161
1194.290836 -2.460660198e-05 113.2056006
-1077.701091 -7.609329607 -9.738554854e-05
449.827691 -2.460660198e-05 129.0887806
714.300751 -2.460660198e-05 239.4170616
1338.979376 -1.174278607 -9.738554854e-05
-893.904328 -2.460660198e-05 19.16524761
-1210.382784 -2.460660198e-05 201.4038276
448.320034 -2.460660198e-05 231.9481526
553.438415 -56.64089761 -9.738554854e-05
-353.90679 -2.460660198e-05 250.8247486
1110.54166 -2.460660198e-05 236.8073206
-1016.945555 -2.460660198e-05 119.5560256
1120.445353 -51.46377961 -9.738554854e-05
-412.130003 -2.460660198e-05 228.9600536
684.34753 -81.38179961 -9.738554854e-05
-1131.888196 -2.460660198e-05 163.4368736
1445.636512 -2.460660198e-05 78.02789961
1097.096617 -2.460660198e-05 4.276187614
-1121.07256 -2.460660198e-05 96.50851161
-1367.552642 -2.460660198e-05 135.9200706
123.396498 -2.460660198e-05 70.98953861
-1047.505736 -2.460660198e-05 225.8900156
971.493652 -53.12225461 -9.738554854e-05
-727.486319 -2.460660198e-05 9.879472614
-654.690864 -2.460660198e-05 137.1811096
748.519025 -2.460660198e-05 159.0296206
-808.050886 -2.460660198e-05 197.8837196
1415.549314 -2.460660198e-05 143.5664486
-27.666955 -2.460660198e-05 10.00002361
-1389.822008 -66.03694361 -9.738554854e-05
-571.559009 -2.460660198e-05 148.7956996
1.754234003 -11.73722561 -9.738554854e-05
-95.633619 -2.460660198e-05 178.3823256
905.951486 -2.460660198e-05 178.9553716
-1454.423753 -2.460660198e-05 176.4069066
-1003.98225 -2.460660198e-05 65.63888861
-25.378315 -2.460660198e-05 121.3649526
-560.445445 -2.460660198e-05 232.3163016
-479.633865 -2.460660198e-05 40.03483861
1042.015561 -2.460660198e-05 165.5565856
-1005.774163 -2.460660198e-05 144.2653106
-142.648331 -68.00002461 -1.698943386
-443.043735 -2.460660198e-05 208.5092476
-438.763597 -2.460660198e-05 16.44307461
-958.162038 -2.460660198e-05 231.7245456
292.729976 -2.460660198e-05 118.7485916
-761.103276 -2.460660198e-05 115.6796006
759.941262 -2.460660198e-05 228.8700866
909.794099 -2.460660198e-05 111.1422386
-303.589769 -2.460660198e-05 192.4086956
-418.732586 -2.460660198e-05 147.5525716
754.865753 -2.460660198e-05 19.75203861
-292.149871 -12.69275061 -9.738554854e-05
942.828916 -2.460660198e-05 191.1045386
-600.056249 -2.460660198e-05 69.84794161
-368.639893 -2.460660198e-05 81.40645761
-1449.465745 -25.78580261 -9.738554854e-05
-228.65505 -2.460660198e-05 233.8258146
1160.289389 -49.52200661 -9.738554854e-05
-582.389695 -14.32918961 -9.738554854e-05
-329.595027 -2.460660198e-05 188.4087076
128.295676 -51.59277461 -9.738554854e-05
888.065409 -2.460660198e-05 230.3546966
45.687971 -2.460660198e-05 122.4622786
-1185.009886 -18.22630461 -9.738554854e-05
508.160128 -2.460660198e-05 128.5942306
1314.386145 -2.460660198e-05 120.0985826
310.580772 -2.460660198e-05 69.18503561
1194.459181 -45.53884861 -9.738554854e-05
-745.701528 -47.80578561 -9.738554854e-05
79.158483 -2.460660198e-05 134.8255306
-159.482475 -50.44146861 -9.738554854e-05
499.605424 -2.460660198e-05 73.63999761
986.533825 -2.460660198e-05 163.3097516
-660.266475 -2.460660198e-05 217.0295906
57.043401 -2.460660198e-05 60.61629061
603.564705 -2.460660198e-05 10.10879061
1074.372839 1.567381393 116.0365236
1418.654419 -2.460660198e-05 47.04107261
242.817442 -40.92071261 -9.738554854e-05
928.782639 -2.460660198e-05 179.2538446
-988.477168 -2.460660198e-05 162.1045506
829.254409 -13.60075561 -9.738554854e-05
-972.931165 -2.460660198e-05 31.70742061
-495.67921 -2.460660198e-05 215.8734906
-803.364927 -2.460660198e-05 45.61488061
527.727079 -21.27186361 -9.738554854e-05
719.520041 -2.460660198e-05 155.1209576
919.628896 -2.460660198e-05 138.5290976
1175.000214 -2.460660198e-05 193.8119526
-628.067454 -2.460660198e-05 192.5039046
-1386.591392 -2.460660198e-05 9.330534614
-839.653616 -2.460660198e-05 159.0479486
1292.786952 -24.12914761 -9.738554854e-05
992.942621 -2.460660198e-05 197.5421076
867.052187 -2.460660198e-05 168.9086216
1459.966062 -2.460660198e-05 229.3764316
475.59606 -2.460660198e-05 99.23047961
295.748871 -2.460660198e-05 10.13980361
-771.63709 -2.460660198e-05 34.98619861
-707.015751 -2.460660198e-05 132.3684426
-950.870087 -2.460660198e-05 248.2142296
1049.785824 -2.460660198e-05 42.97917761
-797.027087 -2.460660198e-05 8.041193614
1254.605429 -2.460660198e-05 179.9721186
526.736219 -2.460660198e-05 101.7548096
-86.176995 -22.35229461 -9.738554854e-05
-834.867995 -20.23328361 -9.738554854e-05
-459.003331 -47.27523061 -9.738554854e-05
-562.114702 -2.460660198e-05 168.9939256
-1095.604213 -17.13786461 -9.738554854e-05
226.510425 1.339274393 -9.738554854e-05
426.727639 -2.460660198e-05 163.2929736
-1374.563967 -2.460660198e-05 197.1338476
1421.856334 -10.42207361 -9.738554854e-05
-140.191217 -2.460660198e-05 159.0566966
-846.047476 -2.460660198e-05 54.76453061
476.196405 -2.460660198e-05 216.5714016
-561.058077 -49.82564561 -9.738554854e-05
-977.12819 -2.460660198e-05 121.1280246
-686.641515 -2.460660198e-05 192.8102606
-51.359718 -2.460660198e-05 177.7645676
-1170.369928 -2.460660198e-05 34.39959661
-988.566335 -2.460660198e-05 251.1630426
693.346607 -2.460660198e-05 225.1718196
68.948965 -2.460660198e-05 25.61262461
685.799471 -2.460660198e-05 148.4797656
148.101105 -2.460660198e-05 48.85824861
-736.796343 -2.460660198e-05 209.8826906
-598.087792 -2.460660198e-05 177.1415526
1387.769858 -2.460660198e-05 107.2220956
-1347.530918 -2.460660198e-05 102.4455746
-1146.967249 -68.00002461 -0.06004838555
238.307085 -2.460660198e-05 236.5237506
-237.986974 -2.460660198e-05 110.1893896
-683.197251 -44.81745461 -9.738554854e-05
-1218.246665 -2.460660198e-05 123.6867656
895.456529 -2.460660198e-05 78.38108261
-1377.820651 -2.460660198e-05 37.92092961
1262.000215 -18.10597961 12.58565961
567.759059 -2.460660198e-05 232.9886686
-661.313181 -2.460660198e-05 80.72541361
1058.060408 -2.460660198e-05 142.0317826
-954.623472 -63.96496661 -9.738554854e-05
1368.680876 -2.460660198e-05 14.30463161
1027.015928 -2.460660198e-05 247.6668216
243.975377 -2.460660198e-05 183.8511786
286.411103 -2.460660198e-05 96.22051561
-776.097596 -66.53481061 -9.738554854e-05
372.958475 -2.460660198e-05 76.00563461
-1354.252769 -2.460660198e-05 56.25961661
1487.042042 -2.460660198e-05 211.0610936
1327.403869 -14.66343261 -9.738554854e-05
153.260512 -52.98616861 -9.738554854e-05
216.826648 -51.37522361 -9.738554854e-05
-1427.122336 -2.460660198e-05 206.4876566
-162.579881 -2.460660198e-05 172.7169476
844.199634 -2.460660198e-05 235.5973056
-881.115288 -2.460660198e-05 231.4721506
515.460119 -2.460660198e-05 38.96238661
911.911331 -2.460660198e-05 38.92740861
-478.721799 -57.59028061 -9.738554854e-05
1426.997594 -2.460660198e-05 13.48631661
-505.720586 -47.44037461 -9.738554854e-05
-285.672126 -2.460660198e-05 229.0466336
268.274817 -2.460660198e-05 187.3809876
1204.277145 -2.460660198e-05 230.7130976
-882.300307 -2.460660198e-05 5.797811614
1398.373121 -63.58044561 -9.738554854e-05
-93.120524 -52.07760261 -9.738554854e-05
-1451.240618 -2.460660198e-05 149.3760486
410.456146 -2.460660198e-05 225.5276076
429.057334 -2.460660198e-05 40.33271861
752.583837 -16.71994161 -9.738554854e-05
-1203.911737 -52.42769861 -9.738554854e-05
-940.811814 -2.460660198e-05 202.2168546
-0.6055449967 -2.460660198e-05 65.56773861
1381.8609 -35.06942061 -9.738554854e-05
-387.217685 -2.460660198e-05 193.5684066
-893.856969 -2.460660198e-05 91.83076461
328.132216 -2.460660198e-05 204.6907286
-1250.923324 -2.460660198e-05 74.03196861
1481.687919 -13.86735361 -9.738554854e-05
-912.823246 -2.460660198e-05 151.9471406
-675.750702 -25.78739761 -9.738554854e-05
342.656761 -2.460660198e-05 88.11433361
-356.083396 -2.460660198e-05 122.8073646
-101.030919 -2.460660198e-05 115.6512226
-921.237988 1.943996393 -9.738554854e-05
469.486204 -49.83520461 -9.738554854e-05
-1477.20596 -2.460660198e-05 125.4539166
1129.354839 -2.460660198e-05 0.1396486145
1262.000215 -33.27086961 235.8715646
555.209084 -36.14608961 -9.738554854e-05
-1057.788924 -2.460660198e-05 251.6528806
830.480086 -2.460660198e-05 87.93378461
-771.556808 -2.460660198e-05 216.5651506
1479.509469 -2.460660198e-05 90.49644361
-1207.743072 -2.460660198e-05 36.10265861
-38.431371 -18.43340361 -9.738554854e-05
235.085696 -2.460660198e-05 162.1897196
644.902864 -41.04636261 -9.738554854e-05
1091.336859 -2.460660198e-05 136.8699636
-75.882461 -2.460660198e-05 163.2401066
-962.461806 -2.460660198e-05 137.4490566
1251.676142 -57.22557861 -9.738554854e-05
1488.686087 -2.460660198e-05 41.56689261
1361.734126 -2.460660198e-05 170.0246676
1361.679856 -2.460660198e-05 95.77848361
1299.640505 -2.460660198e-05 17.40792761
-887.31571 -2.460660198e-05 113.9589316
-594.500369 -2.460660198e-05 41.37258161
1451.905262 -8.677055607 -9.738554854e-05
1388.801142 -2.460660198e-05 69.99049961
-194.20608 -2.460660198e-05 215.9176156
467.435203 -2.460660198e-05 41.34924661
-140.110611 -12.62359861 -9.738554854e-05
-1280.052579 -2.460660198e-05 245.1647436
591.732528 -87.70201661 -9.738554854e-05
-546.38976 -14.08451161 -9.738554854e-05
958.660579 -20.79004561 -9.738554854e-05
-563.610525 -2.460660198e-05 74.92060961
-615.376422 -2.460660198e-05 235.2738416
-440.24858 -2.460660198e-05 78.77642761
291.567897 -68.00002461 -2.021967386
426.721061 -2.460660198e-05 111.3357356
1378.902045 1.843386393 -9.738554854e-05
-355.549565 -51.77908261 -9.738554854e-05
377.715792 -2.460660198e-05 16.41326161
963.558512 -2.460660198e-05 67.43378861
-1015.66695 -2.460660198e-05 225.2777996
716.818491 -2.460660198e-05 119.9372556
-236.369665 -2.460660198e-05 86.42411161
321.408935 -2.460660198e-05 144.9573616
1262.000215 -34.18985261 145.1050536
-162.400071 -2.460660198e-05 37.88288661
-58.698155 -2.460660198e-05 197.8327366
1082.797874 -9.452930607 -9.738554854e-05
794.476652 -2.460660198e-05 230.8662826
-1152.019376 -2.460660198e-05 82.91872761
-1422.602627 -2.460660198e-05 167.5217316
329.75128 -36.95673261 -9.738554854e-05
-86.529216 -2.460660198e-05 212.0878886
38.236111 -2.460660198e-05 175.8099816
-1281.386042 -2.460660198e-05 60.51670861
798.792846 -2.460660198e-05 182.4587106
-962.964129 -2.460660198e-05 103.3561956
755.835004 -81.28403761 -9.738554854e-05
1007.698888 2.411542393 112.2574166
1267.292528 -50.00002461 1.446892614
269.122609 -2.460660198e-05 231.7498416
43.89353 -68.00002461 -1.697788386
870.3212 -2.460660198e-05 33.49241761
-818.956365 -2.460660198e-05 114.7766916
-1411.398113 -2.460660198e-05 38.09343161
287.191038 -2.460660198e-05 152.4897426
492.429745 -62.85992561 -9.738554854e-05
1178.005219 -2.460660198e-05 210.7633276
1112.203419 -2.460660198e-05 13.95373261
1268.000215 -36.45186661 83.10948261
-1358.133676 -2.460660198e-05 35.71397561
-243.988756 -2.460660198e-05 141.9114186
1390.970526 -2.460660198e-05 232.5852806
-624.990637 -63.66771161 -9.738554854e-05
-736.406564 -2.460660198e-05 172.4852696
-689.398321 -2.460660198e-05 26.70619861
-223.943134 -2.460660198e-05 51.33575161
-1134.914997 -2.460660198e-05 250.9486796
-521.833296 -61.88315761 -9.738554854e-05
1418.462444 -49.70122761 -9.738554854e-05
120.278292 -2.460660198e-05 39.41219361
935.121427 -18.08002561 -9.738554854e-05
-915.658261 -2.460660198e-05 129.5058026
1411.702712 -2.460660198e-05 108.5957596
-71.294955 -2.460660198e-05 93.84279361
842.775179 -2.460660198e-05 198.9470926
233.678837 -2.460660198e-05 90.10607961
-832.880221 -2.460660198e-05 100.8115036
-1190.661212 -2.460660198e-05 18.99759761
249.026631 -2.460660198e-05 47.41669861
-819.368543 -2.460660198e-05 234.9494686
-853.260382 -2.460660198e-05 120.4568706
-532.075374 -2.460660198e-05 156.5749326
861.754437 -2.460660198e-05 209.7800066
413.163879 -2.460660198e-05 202.1413456
1331.301933 -2.460660198e-05 90.46805061
178.06628 -2.460660198e-05 236.3951066
805.352803 -2.460660198e-05 47.36650461
-1407.779073 -65.63247561 -9.738554854e-05
-425.116612 -2.460660198e-05 26.62048061
-1310.279199 -39.93616961 -9.738554854e-05
528.07501 -56.89535361 -9.738554854e-05
822.92927 -2.460660198e-05 155.7182436
115.271449 -2.460660198e-05 235.4559366
-1364.200331 -2.460660198e-05 230.9264476
1333.097215 -2.460660198e-05 177.7100166
-444.528698 -2.460660198e-05 141.4043306
862.004545 -2.460660198e-05 109.3282626
356.25189 -2.460660198e-05 238.1619406
-537.485104 -43.00011661 -9.738554854e-05
-1316.767804 -2.460660198e-05 173.9504346
-949.020772 -16.38511661 -9.738554854e-05
208.086748 -2.460660198e-05 184.4954306
-680.132654 -2.460660198e-05 110.6819976
-471.712512 -2.460660198e-05 153.1218126
365.822476 -2.460660198e-05 48.15639261
-978.955825 -2.460660198e-05 85.57112561
1222.46531 -2.460660198e-05 32.87722961
-1291.773572 -2.460660198e-05 89.49816861
737.599001 -58.44581661 -9.738554854e-05
712.654727 -2.460660198e-05 73.22278061
-1142.003078 -17.19634561 -9.738554854e-05
1017.516892 -2.460660198e-05 95.78014661
142.55953 -2.460660198e-05 14.52775461
-816.046924 -2.460660198e-05 182.9957106
-1095.13508 -2.460660198e-05 48.49072461
295.485451 -2.460660198e-05 234.5803186
67.852988 -2.460660198e-05 95.78244061
261.705427 -2.460660198e-05 119.4984296
-799.124874 -2.460660198e-05 143.5686316
-728.863082 -2.460660198e-05 96.65577561
-396.284673 -2.460660198e-05 83.74657361
971.63123 -2.460660198e-05 83.92349261
-892.90684 -50.10891061 -9.738554854e-05
968.331592 -2.460660198e-05 37.80750561
1268.000215 -35.75927961 30.99524961
-1228.071238 -2.460660198e-05 188.8240876
-255.711692 -2.460660198e-05 195.4334406
7.690486003 -2.460660198e-05 131.1466076
-1240.889558 -17.84217161 -9.738554854e-05
1262.000215 -48.66776761 185.7126976
-1320.016054 -2.460660198e-05 227.8503886
1335.37523 -2.460660198e-05 16.37444661
685.497192 -2.460660198e-05 30.11286061
357.058684 -2.460660198e-05 154.7032156
-860.052442 -2.460660198e-05 158.9335866
1172.815447 -17.22250061 -9.738554854e-05
634.35848 -6.522487607 -9.738554854e-05
355.61336 -2.460660198e-05 17.56374861
-660.06209 -2.460660198e-05 64.02481561
1178.087852 -42.01328761 -9.738554854e-05
946.821685 -2.460660198e-05 156.3339636
