# .PCD v0.7 - Point Cloud Data file format
VERSION 0.7
FIELDS x y z
SIZE 4 4 4
TYPE F F F
COUNT 1 1 1
WIDTH 1306
HEIGHT 1
VIEWPOINT 0 0 0 1 0 0 0
POINTS 1306
DATA ascii
-148.82607 -2.459942539e-05 -14.17423739
-202.66951 -2.459942539e-05 43.72320961
-216.27925 13.0595054 -46.00009739
-49.46978 62.8127334 -40.00009739
-116.50496 -2.459942539e-05 -17.08318839
-146.13793 -0.9850805994 47.99990261
-0.000269997865 100.8683334 -51.15268439
-0.000269997865 111.3836594 -14.80805739
-29.74972 69.9999754 43.86584161
-250.19095 -2.459942539e-05 8.120960614
-95.13003 50.4312424 -40.00009739
-32.55477 160.9614314 39.99990261
-0.000269997865 142.4117894 -3.055840386
-177.27874 27.6580934 -40.00009739
-129.6336 48.4750024 -46.00009739
-99.77884 -2.459942539e-05 -24.79511139
-112.35027 -2.459942539e-05 2.514015614
-161.06804 12.8436444 -40.00009739
-145.95466 67.6766264 -40.00009739
-174.83532 -2.459942539e-05 -29.23158739
-62.38749 15.4800584 -40.00009739
-150.32554 67.0350524 47.99990261
-237.08783 12.0204354 47.79114661
-18.12761 103.3459124 39.99990261
-32.13934 48.7513674 -46.00009739
-6.788619998 171.3369664 44.99990261
-33.86928 10.4281984 -46.00009739
-62.89613 -2.459942539e-05 -25.66526339
-0.000269997865 102.6164054 26.75288061
-222.82219 45.0688444 -40.00009739
-25.39761 50.8933134 47.99990261
-0.2877399979 49.8654824 -46.00009739
-173.83157 6.305752401 47.99990261
-0.000269997865 17.7425974 16.93437461
-87.49961 51.0577354 47.99990261
0.3197500021 161.3675074 -50.02037639
-0.000269997865 80.6402294 -11.26120139
-232.94622 -1.756292599 -46.00009739
-203.39119 -2.459942539e-05 17.53472761
-14.89477 222.7865884 44.99990261
-0.000269997865 138.5723024 28.98223361
-10.77136 238.8156181 39.99990261
-133.90878 14.7378934 -40.00009739
-7.530569998 78.3791124 39.99990261
-4.852839998 123.0606624 39.99990261
-153.08784 -2.459942539e-05 26.38004361
-13.58868 159.7375324 39.99990261
-234.57817 -2.459942539e-05 34.42626161
0.1191800021 129.7301034 -46.00009739
-16.07171 -2.459942539e-05 -32.09561139
-205.14514 32.3344684 -46.00009739
-156.52724 52.8428634 47.99990261
-13.01153 15.7775824 -40.00009739
-149.07986 30.2375554 47.99990261
-137.26389 -2.459942539e-05 15.12068561
-112.69179 64.3328874 -40.00009739
-230.77879 67.9999754 -43.39400939
-0.000269997865 181.8046314 25.06004961
-64.7726 45.2942604 -40.00009739
-205.5951 -2.459942539e-05 -11.21423439
-82.40975 64.8408844 -46.00009739
-185.49739 -0.3470555994 -40.00009739
-0.000269997865 158.2269014 -18.39023139
-15.07791 134.3700304 44.99990261
-0.000269997865 15.0617364 -21.48219439
-217.95502 54.7075664 47.99990261
-149.95684 41.1024794 -40.00009739
-0.000269997865 185.5769094 9.723642614
-16.83836 -2.459942539e-05 -3.609113386
-0.000269997865 171.2538504 -36.06633139
1.362150002 200.4367544 43.64524661
2.173620002 134.7639274 -32.52755339
-191.78206 52.3557324 47.99990261
-79.92118 -2.459942539e-05 -32.95559139
-0.6940899979 54.9444134 47.99990261
-175.25501 37.8694164 47.99990261
-0.000269997865 79.8459444 -25.29133439
-109.70766 2.593037401 -46.00009739
-144.92013 26.7237494 -40.00009739
-122.33235 32.9490074 47.99990261
-0.000269997865 238.3409244 -36.83343639
-192.72584 -2.459942539e-05 35.01419761
-0.000269997865 176.0785494 -1.536984386
-33.76145 -2.459942539e-05 17.70492561
-45.99195 42.2765994 47.99990261
-191.69058 51.2358874 -46.00009739
-29.97244 250.018348 44.99990261
-164.47496 -2.459942539e-05 -19.23641839
-119.60975 63.1721494 47.99990261
-40.43429 138.5941754 44.99990261
-0.000269997865 199.2344334 -36.64563139
-33.68007 179.8326464 39.99990261
-8.148409998 144.0395044 39.99990261
-0.000269997865 219.1488049 -28.24171339
-211.80163 27.7328414 47.99990261
-24.53863 210.8185484 44.99990261
-45.00027 202.0140144 44.17396361
-29.12241 -0.5542865994 47.99990261
-0.000269997865 251.9581926 21.69006561
-159.5523 -2.459942539e-05 -1.093799386
-44.26853 114.3863584 39.99990261
-54.55805 -2.459942539e-05 -38.54310439
-32.20873 221.7357921 44.99990261
-165.67607 -2.459942539e-05 -39.01342239
-42.71408 70.6528054 39.99990261
-89.90978 -2.459942539e-05 -6.045527386
-0.000269997865 113.7533964 -39.23403239
-41.44838 -2.459942539e-05 -2.972820386
-126.08918 22.5282714 -46.00009739
-0.000269997865 167.1935164 25.71163761
-217.74399 -1.096011599 47.99990261
-0.000269997865 183.8166744 -21.86906839
-36.66434 -1.724807599 -46.00009739
-100.01936 5.928068401 47.99990261
-182.34614 16.9761074 -46.00009739
-0.000269997865 82.8967464 -50.42145939
-0.000269997865 153.8492384 31.80228661
-48.21563 -2.459942539e-05 -15.18179539
-96.81931 42.9444604 47.99990261
-0.000269997865 199.1826344 11.56775061
-170.71159 41.9242084 -46.00009739
-242.20348 -2.459942539e-05 -38.06132139
-0.000269997865 130.3083424 -18.29698239
-153.00493 -2.459942539e-05 14.07144061
-9.724469998 41.6144614 -46.00009739
-207.46742 61.5375034 47.99990261
-104.67745 52.3714024 47.99990261
-4.377079998 -0.6112895994 -40.00009739
-68.95168 57.0719374 -40.00009739
-110.54085 -2.459942539e-05 26.93387261
-154.51065 58.5506134 -40.00009739
-28.37326 113.3611884 39.99990261
-234.80454 37.4355944 47.99824461
-139.75995 4.175449401 -40.00009739
-0.000269997865 231.6169649 16.16660461
-46.68898 25.5859584 47.99990261
-39.93372 38.5235474 -46.00009739
0.7239900021 -2.459942539e-05 36.56102461
-124.47541 10.5010824 -46.00009739
-0.000269997865 12.7820884 3.548852614
-179.88502 -2.459942539e-05 -13.54000139
-0.000269997865 221.7871263 -0.9446523861
-60.53615 -2.459942539e-05 7.160995614
-206.29458 19.4874284 -46.00009739
-0.000269997865 24.5506924 -46.54177339
-27.30548 97.8147774 44.99990261
-50.28543 -2.459942539e-05 23.01389361
-239.65652 43.5317814 -46.00009739
-205.8704 55.1816304 -46.00009739
-132.77048 10.1458774 47.99990261
-169.56636 -2.459942539e-05 7.624746614
-181.33176 -2.459942539e-05 1.875299614
-52.25846 -1.211119599 47.99990261
-3.268069998 60.8034164 -40.00009739
-0.000269997865 66.5556294 5.352594614
-36.78724 58.3178174 47.99990261
-251.97988 48.1117544 -46.00009739
-204.02073 -2.459942539e-05 32.16400361
-22.23865 41.4871784 -46.00009739
-124.34307 56.8687714 -40.00009739
-31.26748 150.0361884 44.99990261
-36.03314 237.26466 44.99990261
-64.69405 45.5892034 47.99990261
-0.000269997865 128.5465334 21.58188461
-28.63425 14.6699024 47.99990261
2.243720002 216.3537534 42.93045261
-30.28892 198.2560784 44.99990261
-123.99269 38.4087674 -46.00009739
-7.443979998 11.4139074 47.99990261
-236.3511 22.5043384 -40.00009739
-18.62213 -2.459942539e-05 41.10117261
-18.25651 74.4442634 39.99990261
-0.000269997865 206.9196194 22.24177561
-10.37145 184.3015824 39.99990261
-103.21663 45.1236144 -46.00009739
-241.4435 56.7330694 47.35558061
-111.91206 25.6407574 -46.00009739
-0.000269997865 112.1388004 6.352328614
-40.99945 96.1157304 39.99990261
-100.6929 -2.459942539e-05 2.231558614
-71.90641 25.5655454 -46.00009739
-0.000269997865 190.4593394 33.47404261
-136.24241 60.6081084 -40.00009739
-208.23961 38.3983194 47.99990261
-182.0264 63.0481784 47.99990261
-175.346 67.9999754 -41.53460339
-40.20916 56.9484324 -46.00009739
-186.26303 -2.459942539e-05 23.55643961
-0.2494599979 177.2928954 38.17903061
-251.45357 -2.459942539e-05 35.72290461
-0.000269997865 149.0268224 5.876701614
-218.98865 -2.459942539e-05 -2.327276386
-0.000269997865 11.9437364 26.39088061
-230.45175 63.4791454 47.99990261
-55.41765 26.4426444 -46.00009739
-34.75353 122.3004804 44.99990261
-0.000269997865 92.4846594 -0.1028683861
-99.88048 20.8646774 47.99990261
-227.9667 -2.459942539e-05 -26.72286039
-90.9306 -2.459942539e-05 -31.19633339
-199.97989 -2.459942539e-05 -25.04403739
-169.17415 16.9696874 -46.00009739
-223.26081 44.3760084 47.99990261
-0.000269997865 189.4098484 -44.61502739
-146.65616 -2.459942539e-05 37.19562061
-127.1779 20.5267574 47.99990261
-0.000269997865 251.1282208 33.49796361
-80.03048 39.8167884 -46.00009739
-0.000269997865 224.9455797 29.88179161
-5.333139998 -2.459942539e-05 -14.62089839
-68.18334 6.500206401 -46.00009739
-0.000269997865 39.2598564 -20.01094439
-0.000269997865 29.1721244 -7.990120386
-133.83957 42.0252634 47.99990261
-19.92878 32.2301474 -40.00009739
-14.93685 48.5365434 47.99990261
-213.94714 -2.459942539e-05 15.72105861
-137.99303 -2.459942539e-05 -5.268200386
-185.56629 16.3656174 47.99990261
-152.55256 31.1697004 -46.00009739
-0.000269997865 87.3752234 12.90896961
-245.38819 37.2639544 46.96111161
-103.62085 22.5206444 -40.00009739
-0.000269997865 79.0980194 30.97481861
-45.26145 19.0005954 -46.00009739
-196.16829 32.3029014 -40.00009739
-0.000269997865 210.4004334 -17.80263639
-82.98059 21.4457024 47.99990261
-110.12373 -2.459942539e-05 37.49438561
-87.1326 11.6155064 -46.00009739
-221.98652 -2.459942539e-05 24.77260761
-18.03027 91.6034224 39.99990261
-86.96815 21.7424544 -40.00009739
-139.7822 39.0891124 -46.00009739
-225.43303 36.6614714 -46.00009739
0.1823700021 209.3972774 -49.15315039
-102.77016 55.4843014 -46.00009739
-87.87064 42.9833604 -40.00009739
-242.59828 10.7493274 -40.00009739
-78.12442 8.031354401 47.99990261
-0.000269997865 208.6305434 -32.32118539
1.842050002 87.2621934 43.33195361
-0.000269997865 67.6687354 -8.146299386
-233.51643 21.6921984 47.99990261
-159.66274 37.6199504 -40.00009739
-235.4282 -2.459942539e-05 11.09167561
-25.35957 -2.459942539e-05 -21.22638339
-21.10103 243.8449351 39.99990261
-213.06966 40.5042234 -46.00009739
-113.69368 24.0676394 47.99990261
-39.63525 67.9999754 49.77823561
-141.89694 -2.459942539e-05 -22.91494739
-201.49921 -1.612285599 -46.00009739
-180.95366 -1.000795599 47.99990261
-71.03997 67.9999754 48.95147861
-25.93846 19.1807684 -40.00009739
-0.000269997865 242.9457954 16.95718961
-32.80385 90.1121264 39.99990261
-200.53061 -2.459942539e-05 2.384840614
-230.5911 49.7097664 -46.00009739
-0.000269997865 228.234042 -36.52131239
-227.89587 25.2108104 -46.00009739
-167.33083 31.2565304 47.99990261
-126.92264 56.2185074 47.99990261
-21.14323 57.3056604 -46.00009739
-73.12968 -2.459942539e-05 -20.70644239
-0.000269997865 52.4054594 -11.13532239
-169.88017 -2.459942539e-05 37.50381161
-239.59017 -2.459942539e-05 44.65478661
-23.31305 220.8321017 39.99990261
-226.45247 3.057688401 -40.00009739
-233.40341 -2.459942539e-05 -17.27314839
-13.024 -2.379750599 -46.00009739
-158.71499 5.728136401 47.99990261
-7.821999998 101.1120224 39.99990261
-138.40447 22.2758864 -46.00009739
-0.000269997865 108.3258954 34.85055461
-119.94402 -2.459942539e-05 44.80020661
-89.71683 58.1544114 -46.00009739
-117.59259 -2.459942539e-05 -5.875630386
-9.433559998 8.775314401 -46.00009739
-56.83182 56.2107384 -40.00009739
-173.93258 -2.459942539e-05 23.04181161
-22.84039 184.3603394 39.99990261
-122.42086 29.3938694 -40.00009739
-0.000269997865 140.2085194 19.30150061
-180.11659 49.7458344 -46.00009739
-0.000269997865 171.5951374 -12.73017339
-76.66348 -2.459942539e-05 14.03710661
-106.27317 -2.459942539e-05 -32.77332939
-210.30586 4.909547401 -40.00009739
0.2040700021 72.5511094 -46.00009739
-67.28136 -2.459942539e-05 32.57811261
-0.000269997865 238.2163174 -4.169815386
-95.98322 -2.459942539e-05 26.11454761
-226.78404 13.0690694 -40.00009739
-185.13253 43.5166954 47.99990261
-26.67044 166.8289984 44.99990261
-139.15084 47.3625664 -40.00009739
-62.59096 8.282243401 47.99990261
-0.000269997865 226.813228 -46.57035839
-27.6661 -2.459942539e-05 -8.587049386
-130.38298 -2.459942539e-05 33.98163261
-23.45135 34.2013704 47.99990261
2.067200002 38.5790244 47.99990261
-221.541 -2.459942539e-05 -12.43893539
-182.09767 58.0440054 -40.00009739
-39.37153 -2.459942539e-05 8.829598614
-0.000269997865 205.8627994 2.016950614
-40.32275 -2.459942539e-05 -23.77663139
-0.000269997865 158.1543104 8.667983614
-120.66945 -1.343178599 -46.00009739
-0.000269997865 203.0800634 -11.68572239
-22.17627 125.9664894 39.99990261
-51.19246 39.5583464 -46.00009739
-45.09403 12.7989314 47.99990261
-0.000269997865 58.6408174 -18.77291439
-56.77701 47.6058294 -46.00009739
-10.3568 151.7724704 44.99990261
-7.057509998 27.3361104 47.99990261
-0.000269997865 144.9371594 -27.83081739
-7.570009998 49.6013074 -40.00009739
-24.68568 156.7855994 44.99990261
-1.536389998 69.9999754 39.77075961
-194.41812 -1.501497599 47.99990261
-243.02857 53.3413564 -46.00009739
-40.12299 47.2947984 -40.00009739
-83.45875 -2.459942539e-05 38.81565961
-0.000269997865 22.0110064 5.245025614
-157.11264 5.809705401 -46.00009739
-240.70569 63.8484574 -40.00009739
-34.51072 78.0098574 44.99990261
-29.65199 4.616724401 -40.00009739
-128.97725 -2.459942539e-05 -36.71985739
-77.84263 29.2620534 47.99990261
-136.41141 -2.459942539e-05 42.08105661
-0.000269997865 60.2007734 24.26666661
-158.67666 62.2689374 47.99990261
-94.84444 26.7067354 -40.00009739
-119.88447 62.4155514 -46.00009739
-211.7668 27.9690104 -40.00009739
1.469950002 99.9213314 43.59029561
-129.63958 -2.459942539e-05 24.73020761
-164.80038 56.3561134 -46.00009739
-196.70775 63.8568964 -46.00009739
-197.32574 9.054260401 47.99990261
-99.62193 4.667766401 -46.00009739
-233.7149 -2.459942539e-05 -34.52114239
-154.76166 22.2444234 -46.00009739
-11.54647 199.0009784 39.99990261
-104.34678 67.9999754 -42.24548639
-103.63417 36.9728904 -40.00009739
-0.000269997865 188.0996064 -10.66472539
-174.48961 67.9999754 49.49152061
-93.35869 -2.459942539e-05 -14.49597139
-0.000269997865 99.8110234 -37.54677639
-34.09932 19.7219934 -46.00009739
-7.175739998 64.4119774 47.99990261
-73.14667 -0.3870495994 47.99990261
-198.29484 53.0408784 -40.00009739
-62.93522 19.6991384 47.99990261
-130.76645 -2.459942539e-05 8.755452614
-0.000269997865 38.9498864 14.85138461
-75.74916 56.7850144 -46.00009739
2.244200002 160.4197724 -41.14608839
-199.41734 20.7625714 -40.00009739
-71.86661 36.4024614 -40.00009739
-218.61505 21.7733364 47.99990261
-244.14889 34.3170754 -40.00009739
-45.00027 104.3127884 41.41585961
-202.7781 29.2325954 47.99990261
-219.24824 -2.459942539e-05 -29.10053139
-71.38379 -2.459942539e-05 6.020098614
-195.42012 11.4404764 -46.00009739
-0.000269997865 137.6891264 -50.26704839
-153.57993 46.7946254 -46.00009739
-18.25888 202.6275424 44.99990261
-28.92314 42.2100064 -40.00009739
-194.49605 -2.459942539e-05 18.96976161
-42.00874 185.2142614 44.99990261
-12.79264 83.7047864 44.99990261
-185.92375 25.1752104 -40.00009739
-0.000269997865 40.1113514 5.281176614
-251.19632 13.3249144 -40.00009739
-4.193559998 -2.459942539e-05 18.16096461
-58.72149 2.674024401 -46.00009739
-115.02411 -2.459942539e-05 14.71891861
-35.57281 167.7228384 44.99990261
-23.61399 67.9999754 50.03338761
-66.60242 -2.459942539e-05 -4.535371386
-6.911309998 66.9977294 -46.00009739
-91.86978 -2.459942539e-05 43.63655161
-27.24729 -2.459942539e-05 38.90491561
-220.192 5.072476401 -46.00009739
0.9367900021 8.495368401 -46.00009739
-199.78165 41.1389214 47.99990261
-0.000269997865 113.6225474 17.04493961
-238.7303 -2.459942539e-05 -10.16491439
-31.68891 142.7078644 39.99990261
-185.19807 36.4647394 -46.00009739
-174.21951 33.7747964 -46.00009739
-202.22859 67.9999754 51.06800861
-188.74955 -2.459942539e-05 -13.67180639
-0.000269997865 152.3009154 -11.80453339
-243.79201 -2.459942539e-05 31.28144661
1.267650002 144.0151584 43.69341561
-250.17909 4.411772401 -40.00009739
-0.000269997865 9.578786401 13.60523361
-183.41034 65.4605314 -46.00009739
-6.477289998 246.6345688 39.99990261
-31.25751 28.9603064 47.99990261
-61.85142 56.2796354 47.99990261
-0.000269997865 35.8715904 -2.376015386
-46.40904 -2.459942539e-05 38.26750361
-0.000269997865 104.0480434 -10.07370539
-124.3748 44.7067384 -40.00009739
-0.000269997865 96.4314514 32.87617261
-115.89642 38.7879864 47.99990261
-22.08874 138.4262004 39.99990261
-110.9308 41.1350374 -46.00009739
-38.52128 67.9999754 -42.19693639
-121.79446 4.804255401 -40.00009739
-53.15252 47.1300484 47.99990261
-142.71061 36.0600224 47.99990261
-17.7179 -2.459942539e-05 22.69217061
-169.76952 44.5057764 47.99990261
-246.79821 -2.459942539e-05 -28.99122439
-143.30567 23.8614374 47.99990261
-21.86354 43.0570414 47.99990261
-0.000269997865 25.0406304 -15.52769239
-13.01336 54.4678284 -46.00009739
-115.85246 45.6877484 -40.00009739
-227.60935 56.0122134 -40.00009739
-156.1171 -2.459942539e-05 -21.13093839
-0.000269997865 243.1189973 -43.93595339
-219.24257 -2.459942539e-05 6.219163614
-62.94094 56.2398004 -46.00009739
-74.76693 67.9999754 -43.92407239
-14.9396 168.8587464 44.99990261
-105.15318 7.047789401 -40.00009739
-251.19613 -2.459942539e-05 21.76572461
-52.87817 -2.459942539e-05 -6.501485386
-0.000269997865 122.3510944 -9.723176386
-89.38193 29.1755514 -46.00009739
-11.34819 35.8507454 -40.00009739
-80.52658 10.4347704 -40.00009739
-37.21474 30.5082004 -46.00009739
-39.59732 12.0988034 -40.00009739
-21.64541 65.7405054 -46.00009739
-12.30494 111.6500744 44.99990261
-73.90706 -2.459942539e-05 -10.07585439
-138.64843 -2.459942539e-05 -14.19601339
-20.72549 21.9687694 -46.00009739
-107.1469 -2.459942539e-05 -15.78058139
-0.000269997865 128.2794404 2.024418614
-90.58227 25.0214904 47.99990261
-230.97912 43.0749244 -40.00009739
-19.24766 25.7648864 47.99990261
-1.381529998 40.8633844 -46.00009739
-0.000269997865 48.8252674 -3.569043386
-251.02395 29.5474244 -40.00009739
-130.15652 56.9951634 -46.00009739
-135.45743 19.4428734 47.99990261
-0.000269997865 92.4624644 -21.17437739
-7.331169998 191.1756594 44.99990261
-242.27657 -2.459942539e-05 -2.040900386
-219.49663 66.6279844 -46.00009739
-97.80236 29.2490924 47.99990261
-51.08244 56.6675244 -46.00009739
-5.083099998 213.0336866 44.99990261
-136.91327 -2.459942539e-05 3.171349614
-86.94132 -2.459942539e-05 19.61300061
-19.32199 -0.7442825994 -40.00009739
-28.89865 53.4549274 -40.00009739
-141.79695 17.2532304 -40.00009739
-55.32791 10.4042404 -40.00009739
-38.93924 252.1745463 39.99990261
-27.05258 190.6399664 44.99990261
-157.43142 18.6494994 47.99990261
-197.64319 40.4360654 -40.00009739
-0.000269997865 203.5299434 29.75557661
-0.000269997865 239.3923544 -25.40341439
-30.49266 -2.459942539e-05 9.080271614
-221.17494 12.2372154 47.99990261
-21.15403 10.2452794 47.99990261
-42.14334 239.5442748 39.99990261
-0.000269997865 109.3925134 -24.08135139
-148.60125 -2.459942539e-05 -27.66621039
-241.76904 20.1507314 -46.00009739
-0.000269997865 150.4451984 -21.10266239
-0.000269997865 178.0672744 6.399079614
-0.000269997865 139.0255274 -10.49933139
-96.14453 66.4153504 47.99990261
-12.4842 174.8123604 39.99990261
-101.45046 14.2430534 -46.00009739
-0.000269997865 94.8951584 -31.04007939
-78.99168 23.3130694 -40.00009739
2.431370002 -2.459942539e-05 -35.60837739
-177.38288 -0.3832815994 -40.00009739
-138.40943 67.9999754 -42.91164339
-5.487129998 204.5109324 44.99990261
-217.13383 21.9253744 -40.00009739
-0.000269997865 116.8177464 -20.89430339
2.357490002 125.3744444 42.81672761
-235.02362 61.6544774 -46.00009739
-0.000269997865 122.6236264 -42.20490539
-127.74345 31.2853704 -46.00009739
-0.000269997865 191.3617694 -19.07635839
-203.12019 40.6179744 -46.00009739
-144.17279 59.2854484 -40.00009739
-168.40947 64.2637004 -40.00009739
-0.000269997865 131.9172684 33.46196961
-28.11267 239.2083034 44.99990261
-40.84346 1.524208401 -40.00009739
-166.89461 10.2873034 47.99990261
-215.97908 62.4751294 -40.00009739
-89.2315 -2.459942539e-05 -21.96167539
-12.16701 217.1896126 39.99990261
-175.35384 -2.459942539e-05 15.19177361
-21.57482 9.885426401 -40.00009739
-0.000269997865 249.5312988 -19.53401939
-8.903899998 -2.459942539e-05 -22.19972239
-229.84519 -2.459942539e-05 25.99154061
-210.28085 -2.459942539e-05 -33.75146939
-0.000269997865 28.0462534 15.96333861
-134.35454 25.5254054 -40.00009739
-153.41529 -2.459942539e-05 44.20367061
-0.000269997865 149.8260184 24.97748961
-217.1068 50.5416544 -40.00009739
-6.733809998 20.4466484 -46.00009739
-44.47187 54.0965784 -40.00009739
-0.000269997865 72.2941404 -27.58515939
-33.27144 50.3806774 47.99990261
-96.83193 53.2101654 47.99990261
-72.25406 9.588653401 -40.00009739
-26.65319 14.1305254 -46.00009739
-89.29078 63.2169574 -40.00009739
-0.000269997865 243.3225871 34.38925761
-0.000269997865 59.5789324 14.79641461
-90.43372 -2.459942539e-05 1.778516614
-0.000269997865 7.244786401 -21.96185639
-246.50248 43.3358114 -40.00009739
-174.18202 16.6420574 -40.00009739
-169.16946 49.8734084 -46.00009739
-0.1932999979 205.5647424 37.96979361
-171.96312 -1.262742599 47.99990261
-56.71094 -2.459942539e-05 -20.92310939
-161.92601 -2.459942539e-05 9.136538614
-56.85587 -2.459942539e-05 27.19548661
-242.61139 5.797474401 -46.00009739
-179.93342 8.468003401 -40.00009739
-0.000269997865 239.1994079 9.313158614
-185.08566 -2.459942539e-05 41.48879861
-170.10864 52.2727374 47.99990261
-239.16341 29.8612384 47.58358861
-172.12909 -2.459942539e-05 -17.97921339
-29.30819 59.6313074 -46.00009739
-0.000269997865 155.9929844 -4.697681386
-42.04224 220.6434324 39.99990261
-153.93045 -2.459942539e-05 -8.350706386
-230.52096 5.762472401 -46.00009739
-78.2955 65.4904794 47.99990261
-44.90061 208.5253174 39.99990261
-111.49622 55.5264624 -40.00009739
-123.84804 65.2264984 -40.00009739
-4.264369998 -2.459942539e-05 -31.45693739
-38.41206 113.8391684 44.99990261
-118.48694 -2.459942539e-05 7.197144614
-243.45524 25.4954814 -40.00009739
-13.67284 5.950724401 47.99990261
-146.1787 -2.459942539e-05 -39.18954639
-236.17453 45.0106054 47.88247761
-38.91536 148.6567164 44.99990261
-77.10034 3.545557401 -40.00009739
-10.98113 3.329937401 -40.00009739
-20.92706 235.9322295 44.99990261
-180.56604 35.5850344 -40.00009739
-1.322769998 32.2612464 -46.00009739
-21.39484 197.8097254 39.99990261
-66.092 -2.459942539e-05 -17.80299939
-154.4667 26.9244424 -40.00009739
-0.000269997865 113.0784744 -31.67169139
-0.000269997865 145.5196634 12.60364461
-0.000269997865 73.5079434 1.397537614
-103.66728 -2.459942539e-05 41.43966861
-45.00027 133.9407774 41.15972161
-136.55377 10.9797104 -46.00009739
-0.000269997865 247.0867703 -0.3272523861
-29.8783 216.579105 39.99990261
-0.000269997865 167.7338614 4.634042614
-0.000269997865 179.0961764 -13.45592039
-15.90269 35.6771634 -46.00009739
-129.96939 6.691902401 -40.00009739
-55.6926 31.5429834 -40.00009739
-0.000269997865 119.0540174 32.38388361
-149.57036 18.8964654 -40.00009739
-166.11393 61.2631364 47.99990261
-120.98172 47.6740134 -46.00009739
-40.33164 122.9236814 39.99990261
-49.99509 7.123655401 47.99990261
-29.36473 208.0084164 39.99990261
-69.96359 16.9745674 -46.00009739
-65.98125 41.0110464 -46.00009739
-204.53752 59.4134924 -40.00009739
-44.23095 39.5578184 -40.00009739
-90.96198 39.8267604 -46.00009739
-34.02999 98.7368914 39.99990261
-209.73342 9.278124401 -46.00009739
-147.48036 4.727868401 -46.00009739
-199.96963 -2.459942539e-05 9.804524614
-2.447069998 -2.459942539e-05 43.40223561
-59.41651 18.7216634 -46.00009739
-224.72729 22.1979954 -40.00009739
-180.79258 32.9375224 47.99990261
-193.78364 26.8779764 47.99990261
-25.39166 -2.459942539e-05 -28.62870739
-15.11233 244.0147815 44.99990261
-49.62506 -2.459942539e-05 2.407667614
-0.000269997865 169.5786794 -43.26235839
-49.95178 32.2789534 47.99990261
-182.03789 -2.459942539e-05 -30.77649039
-136.11728 29.4181254 -46.00009739
-0.000269997865 159.3841164 24.25002661
-12.70017 127.4120344 44.99990261
-46.21377 65.2561764 47.99990261
-119.00652 20.5834814 -46.00009739
-232.9752 29.0242984 -40.00009739
-239.73852 47.7575644 -40.00009739
-163.86859 9.733485401 -46.00009739
-245.78782 -2.459942539e-05 -21.74603939
-114.06596 4.531824401 -40.00009739
-218.75205 9.699537401 -40.00009739
-24.66456 77.9471524 39.99990261
-3.221549998 8.382252401 -40.00009739
-18.01307 -2.459942539e-05 29.97916761
-84.56421 2.705737401 -40.00009739
-177.05185 -2.459942539e-05 41.94379961
-51.4444 25.4255244 -40.00009739
-191.54624 55.7201924 -40.00009739
-0.000269997865 77.1244654 11.78464461
-192.74385 -0.4493325994 -40.00009739
-1.368959998 -2.459942539e-05 3.361528614
-0.000269997865 204.4249734 -41.69768239
-141.41781 33.0558284 -40.00009739
-31.61369 82.3315694 39.99990261
-170.96275 23.9593424 -46.00009739
-37.63778 60.0043324 -40.00009739
-22.37574 50.2109864 -46.00009739
-111.33771 9.603389401 -46.00009739
-19.44236 217.2102446 44.99990261
-0.000269997865 164.9042514 -15.37504939
-105.43596 -0.4204745994 -40.00009739
-58.88398 25.6350194 47.99990261
-0.000269997865 208.6426724 -25.13914539
0.1133800021 -2.459942539e-05 -19.28606839
-32.60355 -1.911911599 -40.00009739
-176.39656 48.5776774 -40.00009739
-7.269319998 -2.459942539e-05 33.96264661
-0.000269997865 128.9837064 -26.24726839
-216.64673 47.0860554 47.99990261
-185.97281 58.0613924 -46.00009739
-0.000269997865 81.5308184 -18.35737239
-0.000269997865 86.2313354 30.94511761
-128.06111 19.2224754 -40.00009739
-68.27698 59.3659084 47.99990261
-0.000269997865 182.0381824 -45.77593839
-56.41712 64.3509744 -40.00009739
-0.000269997865 120.7249464 17.46367861
-3.921769998 160.2855364 39.99990261
-0.8876799979 44.6432074 -40.00009739
-20.32669 152.1428694 39.99990261
-0.000269997865 57.4822814 -48.01229639
-4.232249998 115.9997524 39.99990261
-78.20425 -2.459942539e-05 -26.08092539
-0.000269997865 217.4516864 -47.95045639
-108.06262 4.788662401 47.99990261
-25.54217 175.9248224 44.99990261
-75.54425 30.2318004 -40.00009739
-0.000269997865 98.5711154 -5.614227386
-15.13981 55.5942644 47.99990261
-74.09208 -2.459942539e-05 26.71102961
-21.43706 160.5547634 39.99990261
-0.000269997865 158.2224654 -26.15564439
-167.72728 20.3633744 -40.00009739
-187.10886 43.7282424 -46.00009739
-29.20174 125.8319724 39.99990261
-0.000269997865 56.7632534 -25.90293139
-78.64751 15.9279764 47.99990261
-166.02797 0.4196244006 -46.00009739
-202.89173 -2.459942539e-05 -17.67759039
-206.27348 13.2688074 47.99990261
-167.88811 11.2554564 -40.00009739
-0.000269997865 196.6045274 -14.34387039
-29.74338 1.023246401 -46.00009739
-8.177419998 57.4936974 47.99990261
-0.000269997865 198.2884984 -29.72097639
-83.81515 20.1004854 -46.00009739
-0.000269997865 107.8045364 -50.48440539
-156.58781 66.9945834 -40.00009739
-0.000269997865 233.499029 -17.10688739
-205.78771 23.5622494 -40.00009739
-47.71691 2.605054401 -40.00009739
-180.67819 26.7784764 -46.00009739
-36.14872 201.9849294 44.99990261
-0.000269997865 107.2919684 -41.77985239
-119.31002 51.7106484 -40.00009739
-0.000269997865 178.4795914 -37.76766639
-28.69837 171.1969934 39.99990261
-0.000269997865 220.0245934 21.24077261
-6.321849998 240.6413178 44.99990261
-230.16017 18.6554214 -46.00009739
0.8392300021 39.9657984 -26.85800739
-13.23999 30.4733334 47.99990261
-26.39603 21.2299434 47.99990261
-133.91755 42.7719974 -46.00009739
-103.3677 40.7060714 47.99990261
-204.73643 -0.4730715994 -40.00009739
-216.43178 41.1490534 -40.00009739
-159.2777 3.166429401 -40.00009739
-0.000269997865 194.6626114 6.348493614
-73.58809 62.1879624 -40.00009739
-130.03257 39.8451644 -40.00009739
-79.35663 50.8991924 47.99990261
-6.104179998 -2.459942539e-05 11.52794461
-5.993269998 70.6339464 44.99990261
-17.09912 210.5806954 44.99990261
-145.75577 -2.459942539e-05 27.98272061
-19.65188 12.6735264 -46.00009739
-23.28478 225.5702627 44.99990261
-0.000269997865 84.3915964 -32.49042339
-1.694639998 220.9631378 39.66651761
-97.55938 7.297503401 -40.00009739
-37.49936 217.3597931 44.99990261
-0.000269997865 165.3802294 -25.99294939
-138.55583 56.8292884 47.99990261
-9.686089998 58.3920244 -40.00009739
-213.84239 4.537286401 47.99990261
-0.000269997865 124.9565914 27.40840261
-24.82135 110.3261464 44.99990261
-0.000269997865 88.5782394 -46.61357039
-60.31372 -2.459942539e-05 0.3287446139
-110.74235 66.1615844 47.99990261
-97.50256 -2.459942539e-05 18.72646661
-89.81865 9.834583401 -40.00009739
-38.35131 34.3369044 47.99990261
-176.43094 58.9085594 47.99990261
-153.72147 11.6732264 -46.00009739
-236.55245 3.188765401 -40.00009739
-241.0201 -2.459942539e-05 -16.53452639
-15.66408 -2.459942539e-05 4.216648614
-18.24162 79.6937924 44.99990261
-0.000269997865 230.539747 -5.244682386
-4.977569998 129.8221544 39.99990261
-45.00027 195.4842844 42.41700161
-251.7368 64.8279434 -40.00009739
-12.04232 88.1787594 39.99990261
-35.42312 -2.459942539e-05 24.24564361
-41.63992 78.6686504 44.99990261
-68.38225 4.839710401 47.99990261
-126.15738 -2.459942539e-05 -22.60192039
-182.77567 -2.459942539e-05 -4.704452386
-184.3567 56.7449154 47.99990261
-214.73433 52.4192024 -46.00009739
-203.00813 66.5786804 -46.00009739
-109.47736 49.1203184 -40.00009739
-249.90756 -2.459942539e-05 28.50908861
-25.75015 57.5877284 47.99990261
-40.37286 143.0567624 39.99990261
-0.000269997865 225.9974063 4.261692614
-188.89757 -2.459942539e-05 -30.43716739
-242.40012 7.988886401 47.25991861
-29.47395 13.2674484 -40.00009739
-218.83856 27.3923464 -46.00009739
-182.52491 -2.459942539e-05 -22.90105539
-38.20072 230.9489588 44.99990261
2.256360002 131.1468544 -38.12349739
-0.000269997865 6.600692401 6.036681614
-212.25546 11.2765164 -40.00009739
-122.56304 -2.459942539e-05 -34.56551839
-109.16315 -2.459942539e-05 11.56359061
-44.40545 168.0305444 44.99990261
-148.84103 -2.459942539e-05 7.792926614
-59.11693 41.3811514 -46.00009739
-140.82532 -2.459942539e-05 23.00215061
-0.000269997865 168.1436194 -5.191057386
-163.51452 53.0360964 47.99990261
-151.67507 58.4231234 -46.00009739
-23.64216 72.3364614 44.99990261
-58.05647 9.632028401 -46.00009739
-115.4258 -2.459942539e-05 22.45064461
-18.83373 -2.459942539e-05 47.72616161
-10.8153 -2.459942539e-05 17.88685261
-29.13559 106.7925934 39.99990261
-147.58467 53.2783994 -40.00009739
-154.62831 49.3497374 -40.00009739
-231.31978 -2.459942539e-05 40.16831161
-248.4423 13.3389904 -46.00009739
-88.93151 55.5248914 -40.00009739
-80.76126 46.3717344 -46.00009739
-26.30658 129.0046804 44.99990261
-100.13157 56.1542814 -40.00009739
-168.60107 -2.459942539e-05 1.113140614
-223.46518 -2.459942539e-05 -21.92556339
-9.343189998 167.9186704 39.99990261
-0.000269997865 183.9264434 34.19821061
-17.60344 130.9383484 39.99990261
-234.73685 25.8751184 -46.00009739
-193.50931 32.2114834 -46.00009739
-97.05479 25.2854594 -46.00009739
-138.65309 50.7130244 -46.00009739
-22.51877 54.9330784 -40.00009739
-0.000269997865 86.1396184 1.512436614
-128.33702 30.3531034 47.99990261
-115.50974 3.579628401 47.99990261
-52.27912 1.600226401 -46.00009739
-12.92725 67.9999754 50.62430561
-137.98209 65.2762204 47.99990261
-31.85825 237.0654862 39.99990261
-202.47958 7.200759401 -46.00009739
-6.458579998 2.986038401 -46.00009739
-2.742889998 170.7796174 39.94874361
-210.16047 -2.459942539e-05 -6.595829386
-15.83836 155.2544044 44.99990261
-37.89161 40.9561614 -40.00009739
-100.90957 -1.990345599 -46.00009739
-51.31551 52.8226154 -40.00009739
-0.000269997865 192.2116594 -38.78167939
-212.03793 66.1177074 47.99990261
-158.7132 -2.459942539e-05 19.15906161
-84.09166 54.9718754 -46.00009739
-209.84081 -2.459942539e-05 -22.18237339
-182.22431 9.155329401 -46.00009739
-11.84617 106.1563634 39.99990261
-103.19524 -0.6900815994 47.99990261
-249.60007 -2.459942539e-05 -35.33381739
-27.50787 244.5113354 39.99990261
-208.91608 27.1154594 -46.00009739
-27.88849 144.1132944 44.99990261
-0.000269997865 100.4910664 -17.72337939
-56.10609 3.938805401 47.99990261
-220.24353 -2.459942539e-05 42.21573261
-39.66347 204.8570704 39.99990261
-124.98275 52.8621844 -46.00009739
-34.97584 135.2655784 44.99990261
-0.000269997865 44.7740004 -50.86001639
-7.825359998 140.0838864 44.99990261
-0.000269997865 102.0423944 13.38708361
-13.30848 64.7971434 -46.00009739
-0.000269997865 8.910073401 19.94929161
-194.18872 16.6047654 47.99990261
-168.82283 38.2060414 47.99990261
-75.57171 16.7053614 -40.00009739
-0.000269997865 28.7374674 3.561511614
-29.88466 155.1947254 39.99990261
-0.000269997865 85.8970034 -7.700407386
-14.18451 92.3162104 44.99990261
-8.680689998 249.8503631 44.99990261
-36.76601 74.8554864 39.99990261
-198.39256 64.9351404 -40.00009739
-72.00178 -2.459942539e-05 -27.31416239
-206.31291 -2.459942539e-05 -0.1356003861
-59.87373 -2.174911599 47.99990261
-12.46892 -2.459942539e-05 39.73469361
-44.11515 50.3758994 47.99990261
-194.90195 47.7426264 -40.00009739
-0.000269997865 63.2755124 -12.64629839
-233.14539 61.5352944 -40.00009739
-14.01507 248.191661 39.99990261
-0.000269997865 66.8390554 21.31108061
-72.54206 51.3854484 -46.00009739
-78.1836 39.6667784 -40.00009739
-0.000269997865 212.3195605 12.84379361
-14.25179 189.2374224 39.99990261
-0.000269997865 136.3726964 4.506228614
-5.319229998 98.2666694 44.99990261
-4.615559998 154.2825994 44.99990261
-21.64294 104.6784734 44.99990261
-28.31638 25.2335744 -40.00009739
-106.37144 42.5974184 -40.00009739
-249.6372 61.8808074 -46.00009739
-58.5649 44.6302984 -40.00009739
-243.0742 35.5959664 -46.00009739
-203.63863 32.9890064 -40.00009739
-235.99998 -2.459942539e-05 25.13411061
-146.71082 -2.459942539e-05 13.62287861
-188.17238 50.5103014 -40.00009739
-134.97068 61.5343544 -46.00009739
-65.21596 13.9336704 47.99990261
-28.00208 91.6585234 44.99990261
1.133640002 82.6911534 -42.85800739
-79.92625 4.783827401 -46.00009739
-0.000269997865 187.3497184 22.34446061
-111.13652 29.6729634 -40.00009739
-162.63527 -2.459942539e-05 24.13722861
-250.01063 23.4664964 -40.00009739
-226.03707 32.9173954 -40.00009739
-165.5572 39.3975354 -40.00009739
-83.93983 -2.459942539e-05 -7.531523386
-39.41811 179.6424474 44.99990261
-61.54173 60.9779644 -40.00009739
-221.03741 38.2857724 47.99990261
-193.63548 -2.459942539e-05 -17.36868939
-245.4911 41.6664254 -46.00009739
-38.50492 195.3566044 44.99990261
-148.11915 47.1792884 -40.00009739
-7.291479998 48.4649554 -46.00009739
-221.20154 -0.9480135994 -46.00009739
-58.32381 5.094714401 -40.00009739
-0.000269997865 52.0353294 1.605806614
-0.000269997865 206.7317434 16.15639661
-10.5302 15.6878124 -46.00009739
-158.35692 31.6771834 -40.00009739
-64.58813 11.4078324 -46.00009739
-113.53535 57.7463294 -46.00009739
-60.06228 41.6484624 47.99990261
-40.94314 -2.459942539e-05 -11.70390039
1.199040002 150.6087424 -29.65201739
-123.14335 37.9612314 -40.00009739
-11.58118 -2.459942539e-05 -27.65414839
-62.75644 31.9615744 47.99990261
-51.90015 39.0843554 -40.00009739
-104.05732 58.5317154 47.99990261
-144.95058 16.9311294 47.99990261
-60.23413 -1.519449599 -40.00009739
-130.58726 67.7774514 -40.00009739
-0.09687999787 18.5244984 -46.00009739
-183.05435 66.1376744 -40.00009739
-3.746869998 15.4332344 -40.00009739
-19.06273 -2.145352599 -46.00009739
-223.11462 45.6995384 -46.00009739
-26.75138 163.4085224 39.99990261
-85.5401 50.5375244 -40.00009739
-45.00027 92.4084154 42.56190161
-150.29652 40.7218874 -46.00009739
-93.77417 59.1980274 -40.00009739
-0.000269997865 181.8873774 -8.126632386
-0.3939399979 120.3109844 44.54040561
1.330090002 69.9999754 34.48722961
-3.595109998 147.2941914 44.99990261
-209.22978 -2.459942539e-05 29.17132861
-198.76419 47.0580114 47.99990261
-0.000269997865 150.0044274 -5.007494386
-201.2974 54.3530324 47.99990261
-97.58557 52.4747624 -46.00009739
-155.52785 10.5551314 -40.00009739
-220.36076 55.5710304 -40.00009739
-4.993629998 201.2570064 39.99990261
-69.09658 4.504416401 -40.00009739
-212.2775 33.9319894 -40.00009739
-122.04354 5.033193401 -46.00009739
-0.000269997865 118.1081304 5.950734614
-31.55802 230.957697 39.99990261
-171.18858 45.6388114 -40.00009739
-0.000269997865 2.789911401 14.94457461
-36.42709 127.4440264 39.99990261
-0.000269997865 195.6307144 29.34247361
-133.61461 35.0402844 47.99990261
-35.85888 -2.459942539e-05 4.017893614
-13.96493 23.0169324 47.99990261
-99.39002 65.5821114 -40.00009739
-0.000269997865 241.609085 -31.85960139
-18.97471 144.0652844 39.99990261
1.526870002 64.3123494 -40.00009739
-0.000269997865 156.4094404 -46.76260839
-36.82885 247.6632076 44.99990261
-25.28669 181.8524304 44.99990261
-36.79632 -2.459942539e-05 -6.647358386
-156.90708 37.0596344 47.99990261
-34.69366 52.2225614 -40.00009739
-125.08289 -2.459942539e-05 10.41989861
-0.000269997865 110.0057464 11.87429961
-65.95116 -2.459942539e-05 2.110445614
-13.87216 137.2854754 39.99990261
-15.66776 25.0255664 -46.00009739
-55.97369 56.8179884 47.99990261
-29.74138 85.1891144 44.99990261
-0.000269997865 34.0536454 -11.26773439
-0.000269997865 23.4061604 -0.4641723861
-0.000269997865 111.9418584 0.4788626139
-125.19314 -2.459942539e-05 29.77177461
-10.48685 232.9564222 39.99990261
-127.58904 14.6772244 47.99990261
-221.6887 27.2406614 47.99990261
-212.88665 57.6330944 47.99990261
-0.000269997865 132.2863714 17.08684861
-0.000269997865 146.4629294 -11.56585139
-167.13304 32.0760234 -46.00009739
-22.05506 171.2427904 44.99990261
-44.19722 -2.459942539e-05 4.552151614
-27.86291 179.3961864 39.99990261
-12.80607 182.5605584 44.99990261
-153.62493 57.8933034 47.99990261
-228.75904 -2.459942539e-05 34.24198061
-91.68887 -2.459942539e-05 -36.96663339
-18.23651 169.4757884 39.99990261
-22.05719 -2.459942539e-05 -33.39096639
-100.06572 11.7400814 47.99990261
-0.000269997865 163.6864954 10.44759261
-199.19466 24.8594434 -46.00009739
-30.43178 67.9999754 -44.38063339
-208.86501 44.1716014 47.99990261
-0.000269997865 236.1640216 22.74893961
-240.35701 28.6030494 -46.00009739
-192.69066 59.6796004 -46.00009739
-62.70599 -2.459942539e-05 -31.45542039
-24.65649 35.5719894 -40.00009739
-154.83708 16.4927554 -40.00009739
-186.61072 -2.459942539e-05 47.29077561
-85.31443 45.7006674 47.99990261
-118.72563 -2.459942539e-05 -22.42445639
-178.47011 42.6777354 47.99990261
-0.000269997865 44.7131494 15.28525861
-225.14881 67.8264254 -46.00009739
-65.72777 -0.8808035994 47.99990261
-131.32149 -2.459942539e-05 14.50193461
-239.70706 30.6347774 -40.00009739
-211.08634 -2.459942539e-05 -12.98330339
-118.51658 67.9999754 -45.55782139
-113.4766 35.9656164 -46.00009739
-0.000269997865 113.3542554 31.56513261
-119.35232 57.4233254 47.99990261
-80.87958 34.6388884 47.99990261
-26.88803 216.0598779 44.99990261
-71.11801 64.0809764 -46.00009739
-24.00147 103.1466064 39.99990261
-0.000269997865 248.6690466 16.60433961
-0.000269997865 143.1909854 24.19210261
-0.7487199979 0.3368554006 -46.00009739
-44.72994 234.4347198 39.99990261
-179.37965 56.0251514 -46.00009739
1.454920002 13.7521824 -26.85800739
-13.27463 46.1592244 -40.00009739
-0.000269997865 219.2892838 26.90179461
-171.85214 25.8872604 -40.00009739
-29.82922 115.6675344 44.99990261
-0.000269997865 217.0433947 8.965862614
-172.74778 -2.459942539e-05 32.58729261
-219.31799 17.8678424 -46.00009739
-188.02462 16.7019674 -46.00009739
-106.44005 -2.459942539e-05 33.16439861
-170.34166 -2.459942539e-05 -25.75812039
-165.98013 38.7960184 -46.00009739
-0.000269997865 71.4719814 -14.38253439
-0.000269997865 163.4837144 20.33823261
-194.07076 4.416291401 47.99990261
-63.1198 61.9022064 -46.00009739
-47.53044 1.906481401 47.99990261
-0.000269997865 76.3369944 35.91044161
-0.000269997865 189.5866214 27.53588761
-193.65741 -2.459942539e-05 -27.13893139
-129.4056 -2.459942539e-05 -14.72141139
-107.22463 62.9956654 -40.00009739
-10.99918 -2.459942539e-05 7.354469614
-33.89634 141.4210984 44.99990261
-19.38485 176.9558764 44.99990261
-192.26903 -2.459942539e-05 13.33639661
-31.98031 46.9174534 -40.00009739
-162.31298 -2.459942539e-05 -31.44294239
-33.64057 8.552312401 -40.00009739
1.542560002 99.3190544 -46.00009739
-196.7621 58.4214184 -40.00009739
-193.85239 6.070254401 -46.00009739
-0.000269997865 66.9635384 -2.605971386
-50.20996 12.6340854 -40.00009739
-0.000269997865 149.5833364 35.38602061
-110.19162 -2.459942539e-05 17.48821161
-0.000269997865 126.4246284 -5.929363386
-188.45002 67.9999754 -43.59110339
0.9553400021 116.5705564 -46.00009739
-43.0919 73.0335084 44.99990261
-0.000269997865 134.4372394 -27.27661639
-112.12608 41.5759604 -40.00009739
-197.35049 -2.459942539e-05 42.14399461
-200.71497 53.1353534 -46.00009739
-124.28893 67.9999754 -45.54631739
-0.000269997865 92.9544114 5.421096614
-168.19763 23.5695474 47.99990261
-0.000269997865 208.7345264 -12.52033539
-32.65449 -2.459942539e-05 40.09371761
-135.46886 17.5822544 -46.00009739
-206.81199 54.8192564 47.99990261
2.000860002 176.5049804 43.17320961
-172.16071 67.2698224 -46.00009739
-28.67369 100.0942604 39.99990261
-0.08269999787 124.0593704 37.41405661
-144.57886 0.03969140057 -46.00009739
-13.96516 224.8938629 39.99990261
-131.56043 25.0016644 47.99990261
-38.76462 16.8198064 -46.00009739
-0.000269997865 111.1860994 -9.320050386
-84.60274 -2.459942539e-05 -24.89305139
-123.08485 -0.5196845994 -40.00009739
-60.80687 25.4921444 -46.00009739
-107.43197 28.7742674 -46.00009739
-133.03422 -2.459942539e-05 -7.563063386
-0.000269997865 23.6394674 -10.25153939
-1.512659998 102.0469404 39.54483461
-242.68537 20.5031684 47.23139261
-0.000269997865 155.9395524 0.7540886139
-15.17243 -2.459942539e-05 -23.55705239
-40.03951 186.0989144 39.99990261
-8.196829998 93.8951434 39.99990261
-33.59766 223.375513 39.99990261
-190.25141 20.3603474 47.99990261
-0.000269997865 220.4866946 -36.96564939
-81.12911 -2.459942539e-05 -0.7858003861
-78.31224 -2.459942539e-05 37.08287161
-37.82037 -1.002726599 47.99990261
-15.70795 241.9891324 39.99990261
-22.75736 132.6208364 39.99990261
-24.57008 249.6864042 44.99990261
-208.19056 38.1733184 -46.00009739
-83.44299 -2.459942539e-05 6.642218614
-45.76187 66.7475404 -40.00009739
-246.85155 24.4326834 -46.00009739
-129.06546 26.5902964 -40.00009739
-22.41235 -2.459942539e-05 -9.799194386
-19.55031 92.9275334 44.99990261
-76.69178 57.5717424 47.99990261
-130.66649 46.3745574 47.99990261
-0.000269997865 23.1085264 -22.96810439
-94.90871 -0.8004365994 47.99990261
-208.5837 -2.459942539e-05 16.04670661
-198.05504 -2.459942539e-05 -39.36530739
-8.441269998 192.7775084 39.99990261
-213.40408 51.3559564 47.99990261
-69.16402 -2.459942539e-05 37.59805061
-16.70908 203.7559934 39.99990261
-85.81624 38.0384834 -40.00009739
-0.000269997865 19.4677044 22.00133261
-179.36198 53.0293514 -40.00009739
-45.00027 120.5583114 41.07404661
-36.42702 5.172377401 47.99990261
-14.01244 217.4008754 44.99990261
-20.62669 4.636515401 -40.00009739
-29.70644 149.0631674 39.99990261
-3.607819998 216.0027371 39.99990261
-0.000269997865 29.5328524 21.65422061
-0.000269997865 211.6902584 19.87413261
-190.45041 43.3343394 47.99990261
-122.53097 -2.459942539e-05 -7.843721386
-210.88507 -0.3710065994 -40.00009739
-231.14595 21.4471664 -40.00009739
-0.000269997865 214.6667359 -31.08826239
-0.000269997865 50.6825984 18.24988761
-17.29787 215.8903655 39.99990261
-117.15929 31.8351124 47.99990261
-41.77638 241.541652 44.99990261
-36.87051 164.0196444 39.99990261
-3.989429998 -2.459942539e-05 -24.15085639
-30.26724 -2.459942539e-05 23.08540161
-0.000269997865 71.5735524 6.983736614
-43.9489 250.5229381 39.99990261
-53.78953 10.8517404 47.99990261
-54.30078 52.2622274 -46.00009739
-71.7084 -2.459942539e-05 -39.17123539
-2.083449998 230.2483918 39.81766861
-84.49056 67.9999754 -42.33169239
-110.25746 -2.459942539e-05 -37.92772439
-0.000269997865 222.6135364 -6.142999386
-27.96155 -2.459942539e-05 31.75121861
-0.000269997865 175.9685574 -24.95012639
-0.2623199979 181.8598044 44.47331161
-192.34314 -2.459942539e-05 0.02030661392
-241.34398 5.314885401 -40.00009739
-0.000269997865 216.1861013 -6.990549386
-22.06001 165.7551044 39.99990261
-103.99282 50.3916064 -46.00009739
-194.39307 32.2590884 47.99990261
-7.303639998 175.5404904 39.99990261
-186.70539 65.3842454 47.99990261
-11.43045 53.1211274 -40.00009739
-230.98099 -2.459942539e-05 8.365395614
-157.17609 -2.459942539e-05 29.61372961
-100.83684 -2.459942539e-05 33.47998961
-19.94266 -2.459942539e-05 14.33016361
-143.07368 -2.459942539e-05 5.487890614
-0.000269997865 127.3682634 -31.17259239
-2.742379998 250.5783459 39.94864261
-9.769919998 124.6860504 39.99990261
-200.03176 29.9676874 -46.00009739
-61.09081 -2.459942539e-05 -4.788745386
-0.000269997865 63.0873234 11.00568961
-62.30392 2.986249401 47.99990261
-232.87962 56.7069844 47.99990261
2.391480002 136.0321404 -46.00009739
-246.47774 -2.459942539e-05 37.09671861
-222.71893 67.9999754 -41.45188039
-230.81416 31.6521274 -46.00009739
-53.89638 28.9886874 47.99990261
-237.35487 6.893286401 47.76444361
-244.67397 67.9999754 48.31156361
-62.31426 -2.459942539e-05 31.32113661
-104.57207 -2.459942539e-05 -22.98614039
-160.83087 43.3171364 -40.00009739
-0.000269997865 230.158014 8.283855614
-0.000269997865 33.4326244 24.96946861
0.1988000021 147.0102024 -46.00009739
-158.97072 -2.459942539e-05 -7.535358386
-85.99735 -2.459942539e-05 -29.88726539
-5.319769998 103.3680434 44.99990261
-0.000269997865 244.1405661 10.57273761
-78.65054 10.5527854 -46.00009739
-36.64166 139.5901684 39.99990261
-19.74526 67.1162024 -40.00009739
-0.000269997865 54.4637444 -15.79034039
-150.61951 -2.350742599 -40.00009739
-36.80116 246.7358291 39.99990261
1.236900002 105.2237214 43.70909261
-30.48706 101.7769654 44.99990261
-235.28303 67.9999754 -45.73958439
-246.91447 63.2487504 -40.00009739
-0.000269997865 184.7001144 -29.38296039
-3.170899998 -2.459942539e-05 30.97523161
-23.92817 83.7245634 39.99990261
-29.58405 210.3463554 44.99990261
-1.847089998 127.3684744 44.81738461
-27.93974 -2.459942539e-05 -16.87623539
-238.05964 9.280377401 -46.00009739
-242.60388 -2.459942539e-05 16.90947261
-0.000269997865 169.6506794 18.62150261
-0.000269997865 92.2240274 -9.773425386
-7.020699998 205.8826044 39.99990261
-0.000269997865 189.4664354 -23.74891039
-24.18499 110.4564074 39.99990261
-137.46335 -0.3118435994 -40.00009739
-216.02487 8.027382401 -46.00009739
-175.36068 -2.459942539e-05 37.19834761
-182.37162 -2.459942539e-05 -36.06763439
-35.76225 66.1940604 -46.00009739
-32.30245 -2.459942539e-05 -10.54309839
-135.64194 38.1128174 -40.00009739
-48.25101 37.7845724 47.99990261
-38.43427 143.5686014 44.99990261
-5.662659998 186.0418504 39.99990261
-0.000269997865 238.575372 0.8366766139
-156.1734 66.6174464 47.99990261
-212.78335 -0.3818785994 47.99990261
-63.20006 4.923467401 -46.00009739
-14.24376 239.0809144 44.99990261
-27.00552 55.1842384 -46.00009739
-0.000269997865 107.3655754 29.93927161
-30.75115 166.4143554 39.99990261
-72.25004 -2.459942539e-05 33.14347761
-0.000269997865 172.7133624 -31.28365239
-0.000269997865 112.5273934 24.65825861
-76.62096 -2.459942539e-05 3.062673614
-23.83185 220.0057897 44.99990261
-92.91985 54.2471144 -46.00009739
-210.40102 44.7217144 -46.00009739
-147.0841 -2.459942539e-05 42.16063761
-226.66395 8.913016401 -46.00009739
-10.02718 131.6122944 44.99990261
-43.27694 191.5944254 44.99990261
-16.41394 227.5219161 44.99990261
-20.13545 87.0992324 39.99990261
-33.13021 71.4709734 39.99990261
-0.000269997865 13.9044784 11.16346661
-99.055 20.5746974 -40.00009739
-209.02985 61.5025064 -40.00009739
-129.08575 41.6862894 -46.00009739
-38.42148 224.4773406 39.99990261
-224.07683 -2.459942539e-05 7.271032614
-0.000269997865 96.1974144 -49.52920939
-187.74875 30.7191334 47.99990261
-45.00027 146.6392864 40.95817861
-147.87293 -2.459942539e-05 23.52072861
-3.406909998 14.2572844 47.99990261
-95.24717 22.5550554 47.99990261
-26.26028 238.2104021 39.99990261
-11.35995 3.468862401 -46.00009739
0.3509300021 7.053497401 26.85805761
-156.98571 33.3041974 -46.00009739
-88.45135 63.2695884 47.99990261
-17.21482 85.8296534 44.99990261
-11.66358 147.4584814 39.99990261
-67.89824 -2.459942539e-05 43.38296461
-0.000269997865 238.6800513 32.82872861
-0.000269997865 182.4557024 13.49482161
-24.65089 209.3249784 39.99990261
-94.88703 -2.459942539e-05 -24.67301739
-45.06077 32.2037524 47.99990261
-158.03321 -2.459942539e-05 -36.48700439
-2.443979998 37.5977084 -40.00009739
-88.41208 14.5120924 -40.00009739
-204.61908 -2.459942539e-05 11.28290761
-150.02938 -2.459942539e-05 -18.89785539
-0.000269997865 211.8829404 -40.43255539
-201.78616 2.162649401 47.99990261
-0.000269997865 127.5171314 16.09695961
-149.98564 25.4519664 47.99990261
-0.000269997865 228.6672686 -17.72034539
-100.94828 -2.459942539e-05 12.73115961
-9.050439998 -2.459942539e-05 -32.31315739
-145.52805 49.9398164 47.99990261
-13.72509 -2.459942539e-05 -7.338268386
-144.70881 21.1328784 -40.00009739
-0.000269997865 95.1238954 -36.31309139
0.02637000214 31.1590114 -40.00009739
-203.82052 43.8133934 47.99990261
-56.89151 26.8505124 -40.00009739
-24.88417 38.8244764 47.99990261
-0.000269997865 66.2821234 -46.52374739
-45.00027 112.1441424 44.22190161
-14.45547 43.7246414 47.99990261
-183.86096 -2.459942539e-05 36.81161761
