# .PCD v0.7 - Point Cloud Data file format
VERSION 0.7
FIELDS x y z
SIZE 4 4 4
TYPE F F F
COUNT 1 1 1
WIDTH 1232
HEIGHT 1
VIEWPOINT 0 0 0 1 0 0 0
POINTS 1232
DATA ascii
-35.24208827 232.7483999 -150.5972714
-3.067202275 89.41163339 -152.0000974
-40.25016127 89.75393739 -176.1303604
37.29901173 101.0235614 -152.0000974
22.62524973 -2.460712494e-05 -234.3356574
-37.92232327 88.94544939 1.636581613
-40.25016127 36.20256639 -45.77424139
-36.25016127 136.0698344 -93.68634639
-36.25016127 147.7533374 -71.40386439
-4.246649275 67.26630039 -244.0000974
-40.25016127 37.47532639 -232.5236324
-6.119500275 12.84824639 -9.738728249e-05
31.71912073 -2.460712494e-05 -25.62314439
34.85426273 16.61894739 -244.0000974
-36.25016127 213.5051778 -87.31881539
35.40484873 -2.460712494e-05 -159.6287544
27.36366073 223.5131728 -152.0000974
-40.25016127 155.0114494 -35.13836539
-32.60508927 -2.460712494e-05 -233.4953294
-40.25016127 60.21918039 -23.32965239
-40.25016127 16.39395739 -176.2674704
-24.96951027 68.87477439 -9.738728249e-05
20.24983873 -0.3496516071 -107.4365044
-42.08687227 182.9287464 -74.84379639
-29.11276227 48.45804039 -152.0000974
37.74983873 221.6297128 0.1784106127
30.25466073 100.2922464 -9.738728249e-05
-18.66300327 -2.460712494e-05 -148.4047384
19.68948373 -2.460712494e-05 -42.25442339
-32.86378827 200.3602604 -0.07146438728
20.65740473 178.5439164 -9.738728249e-05
-29.81341627 50.36063539 -244.0000974
-22.56061727 85.63175539 -156.0000974
-25.10755027 223.7912533 -9.738728249e-05
-38.88432127 150.1739844 0.4697156127
-16.91199927 -2.460712494e-05 -218.9870414
4.969988725 84.24762739 -9.738728249e-05
42.92291773 -2.460712494e-05 -200.9910754
-40.25016127 36.06507939 -129.1476514
-40.25016127 140.5234394 -146.3325764
-40.25016127 60.05532439 -116.8381814
-36.25016127 172.4936214 -144.7300614
-0.9477202747 12.10678639 -250.0000974
-40.25016127 199.6739794 -62.14334039
37.74983873 182.0348374 0.2595116127
-1.695571275 -2.460712494e-05 -35.14939239
-36.25016127 200.0377354 -134.5116924
-26.27597727 200.8921364 -156.0000974
-40.25016127 105.6583574 -137.2922174
-23.61232727 -2.460712494e-05 -30.22488439
-3.253116275 124.5746244 -9.738728249e-05
31.80194473 139.1807314 -9.738728249e-05
-40.25016127 19.66715639 -110.6945504
-40.25016127 121.4130724 -11.26649639
24.74016073 64.73776739 -250.0000974
-36.25016127 143.2204964 -122.7886154
-36.25016127 165.0566794 -117.6795184
-19.50748427 169.5701394 -156.0000974
-40.25016127 16.33336939 -144.9158724
-40.25016127 138.4083054 -38.50628639
-40.25016127 94.52341939 -108.4857654
-36.25016127 10.92010839 -44.42824539
39.15314773 48.85350539 -250.0000974
-40.25016127 71.96334439 -172.7063854
-40.25016127 34.33849039 -195.2824064
-40.25016127 70.77994739 -207.2623364
-13.64181827 181.8487974 -9.738728249e-05
-22.80747127 11.58482839 0.6632226127
29.95429773 -0.9985486071 -250.0000974
-33.92169727 -2.460712494e-05 -95.98453139
-36.25016127 236.4115063 -115.1373474
-22.75971127 242.4987781 -156.0000974
-2.419725275 36.42943639 -9.738728249e-05
18.81688773 50.93482339 -9.738728249e-05
-40.25016127 56.24923239 -183.4532824
-42.15394827 18.38746539 -250.0000974
-36.25016127 20.52487939 -75.19159139
-40.25016127 233.9807111 -89.96950639
-42.74179027 -2.460712494e-05 -182.9888414
-40.25016127 208.1217914 -102.3806914
-36.25016127 246.3176544 -136.4667784
24.13091573 -2.460712494e-05 -11.28930939
-0.2264502747 64.00648039 -152.0000974
-31.75794727 -2.460712494e-05 -14.75783739
-36.25016127 238.988425 -18.77462339
-40.25016127 150.6919614 -88.47184139
21.84301973 34.53719239 -152.0000974
-2.115643275 11.93724039 -156.0000974
-40.25016127 107.2262454 -36.21628239
-40.25016127 161.6621564 -63.22626039
-31.93116627 -2.460712494e-05 -205.1022484
5.967297725 -2.460712494e-05 -166.9389714
-17.49482327 29.44890139 -244.0000974
-20.42573627 96.73217839 -9.738728249e-05
-40.25016127 191.0208414 -35.20166039
32.04764473 40.35636539 -9.738728249e-05
5.840373725 37.14538139 -244.0000974
-40.25016127 209.3090424 -29.82150439
20.75760573 207.6737584 -152.0000974
-40.25016127 54.63215739 -101.2943044
-40.25016127 176.8782494 -89.05311139
-39.05379027 123.8431374 -152.1536094
-43.10912827 109.8444454 -21.19761139
22.14229773 176.6501434 -152.0000974
-40.25016127 42.54484739 -217.9466164
-40.25016127 164.6885284 -47.12901239
-0.1798132747 231.0887755 -156.0000974
-7.239878275 -2.460712494e-05 -188.3538664
-33.20687227 65.00252739 -151.8125124
-15.81092527 -2.460712494e-05 -110.1844014
24.58712673 90.72750639 -156.0000974
-40.25016127 78.62103339 -28.91784439
-36.25016127 161.4582744 -9.707029387
-40.25016127 74.39294639 -125.6376224
-40.68929927 91.36143139 -13.05490139
-28.01466727 1.723257393 -250.0000974
-40.25016127 18.17231339 2.286955613
-21.29496627 121.5720874 -9.738728249e-05
2.298047725 -2.460712494e-05 -49.68333839
36.92380373 193.3911674 -156.0000974
27.53428473 11.37093139 -9.738728249e-05
-36.25016127 91.77502739 -63.67917539
13.33237573 147.9944144 -152.0000974
26.88661773 70.34244739 -152.0000974
-40.75016127 -0.9372176071 -126.1782244
-36.25016127 191.5566394 -106.1961334
-40.25016127 92.22418239 -143.6121094
-42.92169027 74.36609139 2.480665613
-1.705311275 -2.460712494e-05 -5.241826387
-25.74568527 -2.460712494e-05 -161.0908044
-40.25016127 215.8799055 -50.10540739
30.46061273 167.9172454 -9.738728249e-05
7.111541725 225.7374756 -9.738728249e-05
-24.61126727 -2.460712494e-05 -58.65168639
-14.45046127 188.6599984 -152.0000974
-40.25016127 177.8522684 -15.93315539
-40.25016127 28.72821439 -166.1186334
-40.25016127 236.9197537 -32.40659539
-36.25016127 187.5174074 -141.4361894
5.010744725 21.82660139 -9.738728249e-05
23.64105773 113.7079264 -152.0000974
43.06244973 -2.460712494e-05 -35.75714539
22.86611573 -2.460712494e-05 -73.55007939
-36.25016127 231.7311456 -62.75929939
-15.89620027 53.09440639 -244.0000974
-5.161567275 94.44971939 -9.738728249e-05
-12.95071127 138.5673344 -152.0000974
23.65892273 116.5858624 -9.738728249e-05
-9.523894275 242.3447354 -9.738728249e-05
37.74983873 158.6257224 -154.1198594
-40.25016127 135.2908254 -20.84289939
20.59598873 250.2786687 -156.0000974
-1.854283275 -2.460712494e-05 -78.73657439
37.74983873 71.59860339 1.460619613
5.334766725 198.6461894 -152.0000974
-36.25016127 245.8290465 -42.41006939
7.526966725 115.7404204 -9.738728249e-05
-26.80235827 -2.460712494e-05 -43.77779239
-40.25016127 63.51672439 -55.57759439
-36.25016127 75.76234739 -92.90780839
-27.90092227 239.8505355 -9.738728249e-05
-36.25016127 213.8871949 -126.8386054
28.95092773 -2.460712494e-05 -90.65604039
-40.25016127 71.60219539 -80.43742239
16.34822773 -2.460712494e-05 -147.8887134
-25.69256427 14.49400539 -152.0000974
37.53355573 231.8034018 -156.0000974
27.73094773 -1.697795607 -128.1842474
-40.25016127 44.06367539 -144.6024074
-30.58488227 96.90238139 -152.0000974
24.90913173 238.1025632 -9.738728249e-05
20.05654473 89.36505039 -9.738728249e-05
-3.709912275 53.90549839 -250.0000974
-40.25016127 8.495471393 -21.99446939
-27.38816827 145.6899394 -152.0000974
28.78204373 20.53137239 -156.0000974
1.412956725 160.4360334 -156.0000974
-40.25016127 50.86519439 -233.7498594
-26.03438127 143.6746004 -9.738728249e-05
-40.25016127 161.2560514 -96.87031639
4.884427725 47.68467639 -9.738728249e-05
-7.215745275 0.2581743929 -250.0000974
0.8612447253 -2.460712494e-05 -122.3879104
12.62278973 192.2056924 -9.738728249e-05
-28.28089127 -2.460712494e-05 -130.8277254
-36.25016127 29.85019739 -16.19377539
-26.08562027 34.75896439 -156.0000974
-1.497794275 102.6262424 -152.0000974
-16.00365127 210.6501554 -152.0000974
-17.48045127 119.1082614 -156.0000974
-36.25016127 227.1293481 -75.19362739
-40.25016127 139.2283384 -7.667481387
-36.25016127 17.51095939 -59.89716139
-36.25016127 48.28182939 -123.7489144
26.67294773 133.3257084 -152.0000974
-41.52380727 50.61372639 -250.0000974
42.37317873 5.870149393 -250.0000974
-40.25016127 114.1163174 -86.18609339
-40.25016127 100.0214974 -85.94123939
-3.384969275 215.2933602 -152.0000974
-4.483202275 77.04055039 -156.0000974
-36.25016127 136.5879114 -56.80170239
-40.25016127 27.92098339 -95.16576439
-40.25016127 229.1710055 -7.052289387
-36.25016127 202.8249654 -74.08556539
-40.25016127 22.84909239 -47.61773839
-36.25016127 247.6926833 -84.71792339
-13.62293627 213.281871 -9.738728249e-05
-36.98290527 193.8702904 -154.4189534
-40.25016127 47.98753739 -50.98893639
-36.25016127 116.0094174 -66.23385039
-40.25016127 44.08657739 -163.7974934
22.93195173 13.31369739 -250.0000974
-40.25016127 4.366652393 -154.5486584
27.34952173 50.62962239 -156.0000974
-36.25016127 117.0960784 -141.4369784
8.057593725 -2.460712494e-05 -111.3224554
-36.25016127 119.0146204 -102.7480894
33.56416973 -2.460712494e-05 -113.3608044
-14.02377127 37.70884439 -152.0000974
-41.54500127 -2.460712494e-05 -48.23633539
33.03888073 -2.460712494e-05 -65.93113739
-36.25016127 163.6479254 -22.22101139
-40.25016127 121.4928644 -42.00816339
0.4943347253 -2.460712494e-05 -178.3325254
-40.25016127 50.07766539 -11.59939039
-36.25016127 29.58454939 -117.3499634
21.07188773 -2.460712494e-05 -212.8179144
-20.79113427 40.81085539 -250.0000974
-37.52768527 170.5502294 1.981487613
-21.47515427 -2.460712494e-05 -239.3077144
-36.25016127 46.55024139 -78.62311239
-36.25016127 176.6109164 -41.92760839
-40.25016127 7.142665393 -104.0681234
-40.25016127 93.26254439 -43.68744639
6.706108725 67.99997539 -249.9598254
-2.118041275 192.1671414 -9.738728249e-05
-28.65678127 219.9181666 -152.0000974
-29.50063127 22.20784739 -250.0000974
-40.25016127 251.1176357 -16.23158339
-8.291080275 164.1636674 -9.738728249e-05
28.41491273 -2.460712494e-05 -182.3168524
-40.25016127 18.90577639 -218.6861794
-31.46197727 44.07290039 -9.738728249e-05
-40.31926827 100.4701434 -164.4254324
3.369843725 46.97102239 -152.0000974
8.503646725 140.5498534 -9.738728249e-05
-9.272871275 239.8002001 -152.0000974
-40.25016127 45.36042239 -34.09645739
-40.25016127 69.00580239 -36.59859539
22.45360373 30.80738339 -250.0000974
-22.50036127 59.09487139 -152.0000974
-36.25016127 143.3359364 -135.1285504
2.928361725 -2.460712494e-05 -241.8913864
-42.29135027 0.4999753929 -198.0692584
-40.25016127 69.89299639 -160.4419804
-40.25016127 211.1486564 -17.12174539
-36.25016127 218.6545427 -38.98532639
-40.25016127 218.2097659 -138.6374544
20.85219273 -2.460712494e-05 -161.8516124
37.74983873 209.5499314 1.026452613
-21.34239327 -2.460712494e-05 -2.513407387
-36.25016127 90.96573539 -96.38386239
-36.25016127 47.13142739 -92.74318039
-40.25016127 191.5415424 -51.82681739
-40.25016127 83.53845739 -117.2574904
-40.25016127 190.8765994 -121.4935474
-40.25016127 7.024990393 -240.6243684
-40.25016127 131.5603984 -122.1536374
-34.74208127 167.6494164 -155.5664624
10.19070273 176.5824074 -152.0000974
-36.25016127 239.6284761 -53.58665139
-28.86174927 212.4938482 -9.738728249e-05
-16.40400327 40.82601339 -9.738728249e-05
-7.805162275 71.57090239 -9.738728249e-05
6.404251725 -2.460712494e-05 -15.52123239
-40.25016127 24.37569239 -188.8568394
24.32342673 155.2004464 -152.0000974
-40.25016127 124.6109504 -91.61220939
-40.25016127 112.4968204 -52.96930939
-28.94029227 110.7733704 -156.0000974
-29.57407227 11.71611539 -244.0000974
42.50301773 -2.460712494e-05 -188.9699994
30.37419473 -2.460712494e-05 -170.2501474
40.77549173 -2.460712494e-05 -134.6949814
-36.25016127 160.8150104 -143.8199274
-40.25016127 192.7722714 -80.90117639
-40.25016127 251.381367 -70.17395739
-40.25016127 8.890631393 -135.9544434
-31.81850727 -2.460712494e-05 -220.5056584
-36.25016127 83.27215639 -55.74833139
-40.25016127 168.1345984 -129.0506684
17.97578573 167.2409164 -9.738728249e-05
8.072359725 117.9186564 -156.0000974
-5.952632275 0.4999753929 -154.8380394
0.2390297253 236.0740898 -9.738728249e-05
-32.46100827 23.01399839 -155.9792894
0.7162957253 105.6017874 -9.738728249e-05
-40.25016127 33.95284139 -32.13504739
-4.007269275 151.8934674 -9.738728249e-05
2.319420725 24.27251539 -250.0000974
-43.16544727 0.4999753929 -228.1611254
37.74983873 131.8048764 -155.5649364
-27.77662627 -2.460712494e-05 -193.6951364
-40.25016127 27.42948039 -136.7594994
16.34450973 23.73931639 -9.738728249e-05
15.45599973 6.986999393 -244.0000974
-5.107511275 -2.460712494e-05 -58.43652439
36.70522073 -2.460712494e-05 2.442808613
37.74983873 43.39691439 -155.9966304
-29.66926427 21.74142139 -9.738728249e-05
-40.25016127 83.12094439 -75.00335239
11.49285873 -2.460712494e-05 -72.01896539
11.88061073 -2.460712494e-05 -98.58469239
-23.25358427 -2.460712494e-05 -118.7698104
23.54756373 239.3086885 -156.0000974
27.07798473 52.44820039 -244.0000974
-36.25016127 109.1574104 -108.3154424
-40.25016127 95.45523139 -74.87148239
-15.19216227 13.69171539 -156.0000974
19.79620673 251.7066887 -9.738728249e-05
-42.89231227 -2.460712494e-05 -69.92057239
-36.25016127 121.2798504 -119.9448724
11.38872373 16.94495639 -152.0000974
-7.056656275 26.85312739 -156.0000974
-40.25016127 152.4085204 -117.7765864
-5.356158275 128.1220154 -152.0000974
-5.585412275 -2.460712494e-05 -216.8762654
-36.25016127 96.00994739 -119.6404114
-40.25016127 171.4876434 -68.52263539
-18.64236327 233.6972544 -9.738728249e-05
-36.25016127 246.6012759 -106.8991874
-36.25016127 9.206122393 -123.3536884
-40.25016127 15.03351139 -204.6891654
-27.31976527 33.83581739 -9.738728249e-05
-24.68439627 -2.460712494e-05 -103.6622704
10.48609573 212.9435714 -9.738728249e-05
10.71656373 136.7964074 -152.0000974
-40.25016127 31.48968239 -221.7160654
33.06013573 -2.460712494e-05 -230.9814984
-43.20168127 0.4999753929 -15.10934139
-36.25016127 63.60394239 -73.66841639
-23.11260027 107.3338534 -9.738728249e-05
-39.76858327 53.18316239 -150.6082914
0.3657587253 251.8778688 -156.0000974
27.59483373 65.74950839 -9.738728249e-05
-33.33412527 79.21722739 -0.1636923873
-40.25016127 141.0628494 -79.02828839
-36.25016127 113.2339464 -130.5650844
11.62854973 38.54439739 -152.0000974
-36.25016127 134.8695204 -67.53133139
-40.25016127 30.62654139 -75.15395139
10.28393973 63.86300239 -156.0000974
-40.25016127 101.8851644 -65.09326539
-40.25016127 145.0165474 -27.25085039
3.490295725 -2.460712494e-05 -228.9310974
-37.19321127 224.6596263 2.262592613
-2.389482275 149.4703314 -152.0000974
-40.25016127 49.74842939 -174.8531964
-7.539821275 18.08752539 -244.0000974
-3.200016275 210.7175454 -9.738728249e-05
-40.25016127 46.17681939 -187.1457664
6.240464725 73.05251039 -9.738728249e-05
4.753219725 82.48934539 -156.0000974
-40.25016127 142.8908864 -112.4526254
-31.72320927 100.7087294 -9.738728249e-05
-40.25016127 205.5963214 -7.321653387
14.50051473 230.8815857 -156.0000974
-29.42960127 59.17342839 -250.0000974
-28.87219927 74.73862339 -152.0000974
27.81940973 189.0138554 -9.738728249e-05
34.99879373 36.86763939 -244.0000974
24.98472173 -2.460712494e-05 -0.6804463873
14.94271473 48.22240139 -250.0000974
-42.65691527 43.47400239 -241.0000974
-36.25016127 43.90139439 -64.25529439
27.53450773 157.4038244 -9.738728249e-05
35.81927773 -2.460712494e-05 -14.16895439
-31.27083227 118.1097454 -9.738728249e-05
-39.71885527 223.1880495 -150.7629064
-40.25016127 243.3730882 -63.30792339
30.90934773 84.65741939 -9.738728249e-05
-36.25016127 83.26524839 -147.4649864
-36.25016127 85.05064739 -106.1800894
-36.25016127 85.85818439 -21.70691239
-6.795564275 -2.460712494e-05 -94.08730539
-41.14000627 61.92534539 -233.6720564
-36.25016127 155.1427444 -78.93907539
1.973229725 47.41940739 -244.0000974
-5.575072275 -2.460712494e-05 -136.0934564
19.07229073 147.8248024 -9.738728249e-05
12.90842773 -2.460712494e-05 -206.2843944
25.56041973 -2.460712494e-05 -58.53190239
34.23308173 251.9749057 -9.738728249e-05
-36.25016127 81.87616739 -133.7133944
-11.07532927 7.857426393 -244.0000974
8.436789725 -2.460712494e-05 -133.3035644
-40.25016127 39.02605439 -97.86245239
-5.258444275 23.38674839 -9.738728249e-05
-30.95253827 -2.460712494e-05 -68.53171639
0.1929617253 187.2206964 -156.0000974
-13.52230327 -2.460712494e-05 -32.64916239
27.81541673 196.5257124 -152.0000974
-19.38446627 179.1258004 -152.0000974
-40.25016127 66.71043039 -95.94317239
3.215817725 -2.460712494e-05 -89.11413039
-40.25016127 63.58172339 -9.114793387
-40.25016127 63.11051539 -143.9364464
20.76622473 -2.460712494e-05 -223.1467634
-40.25016127 1.262354393 -86.40053739
37.74983873 183.6859734 -152.6304344
-40.25016127 135.8680544 -103.1795034
37.65641273 232.1493645 -9.738728249e-05
26.63994273 -2.460712494e-05 -153.3324784
42.40654373 20.19603639 -250.0000974
-40.25016127 195.2457484 -5.037617387
-24.83764027 155.6293084 -152.0000974
-40.25016127 213.1796182 -111.2886254
19.53385873 -0.2838516071 -134.1467884
-20.56290427 57.78155339 -9.738728249e-05
-23.64905327 -2.460712494e-05 -76.71436139
15.11346673 80.43022739 -9.738728249e-05
0.2302137253 -2.460712494e-05 -208.4983694
-38.43813827 226.4570399 -115.5000974
-36.25016127 224.1362215 -16.10332839
-6.124017275 -2.460712494e-05 -17.99954839
-40.37077027 83.34625539 -187.3057194
26.56383873 122.5982034 -156.0000974
-29.68098927 210.6167734 -156.0000974
-14.52919427 94.39626439 -156.0000974
-36.25016127 44.50500439 -135.0808034
-40.25016127 38.26014039 -55.71198239
-18.20936427 150.1147474 -9.738728249e-05
-36.25016127 150.7556144 -145.0485114
-40.25016127 7.531924393 -76.82824839
-40.25016127 28.76426239 -106.2477564
21.94816673 142.0068754 -156.0000974
-40.25016127 230.0991157 -140.9686144
29.95287173 214.2673897 -156.0000974
-36.79600427 25.80512239 -244.0000974
-36.25016127 222.2594055 -59.24887739
-2.094407275 -2.460712494e-05 -68.05445339
-13.29728927 60.00124139 -156.0000974
-40.25016127 25.60171839 -4.500315387
10.26857573 188.0045894 -156.0000974
-40.25016127 25.11145339 -199.2900094
-31.60101727 162.6701834 -9.738728249e-05
-36.25016127 236.6857066 -133.5747564
13.40952973 90.97690439 -152.0000974
-2.889740275 40.20113039 -156.0000974
-36.25016127 35.21431539 -142.0246354
-40.25016127 20.92180339 -22.70576039
-26.97328127 188.6521174 -9.738728249e-05
7.109930725 12.54371239 -244.0000974
35.29692473 62.96000439 -244.0000974
9.736855725 -2.460712494e-05 -41.25383339
-36.25016127 223.9755122 -84.67207739
-43.16349327 157.6856494 -72.20609339
-36.25016127 67.46768739 -17.77982139
-36.25016127 60.40835839 -33.26811639
22.76183773 -2.460712494e-05 -32.78762239
-8.761994275 108.8408374 -156.0000974
-36.25016127 147.8052104 -97.88072939
-40.25016127 71.42405539 -49.55216039
-14.30580227 18.47256339 -9.738728249e-05
-40.25016127 16.88706939 -155.3908254
-38.19186727 177.0425294 -153.3263674
-36.25016127 74.18818639 -116.1510244
14.41042673 -2.460712494e-05 -9.495898387
27.88922273 228.6850989 -9.738728249e-05
-28.30924827 -2.460712494e-05 -150.4903454
-40.25016127 98.28424239 -20.05989839
-40.25016127 27.22489139 -85.33373639
-36.25016127 86.20767439 -35.03281039
24.79927773 130.4512714 -9.738728249e-05
-9.952621275 0.4999753929 0.1064996127
-40.25016127 6.939013393 -33.08367139
-36.25016127 178.6141304 -137.0466244
-40.25016127 8.187601393 -211.8451494
23.73008773 166.1485764 -156.0000974
10.04908373 235.0686495 -9.738728249e-05
-36.25016127 65.48203439 -125.6109014
-36.25016127 1.486805393 -40.11867639
-36.25016127 128.8738184 -37.05772639
2.325686725 21.66140939 -156.0000974
-7.038321275 224.1743332 -156.0000974
18.11531973 22.72230439 -156.0000974
-6.940721275 -2.460712494e-05 -114.1602234
-38.42830927 8.707001393 -250.0000974
-36.25016127 131.8863884 -144.4994954
-36.25016127 131.5220534 -12.85921239
-31.72876227 -2.460712494e-05 -5.066273387
35.45170473 111.5842914 -152.0000974
29.32381873 21.83385039 -250.0000974
6.070500725 208.2791504 -152.0000974
-36.25016127 180.9705714 -67.39935539
-40.25016127 43.64392139 -208.3549714
-0.5523172747 55.95809639 -9.738728249e-05
-41.16616527 166.2305764 -37.65488339
-40.25016127 170.7905944 -98.24334539
22.43153373 -0.5988686071 -244.0000974
-40.25016127 25.93308139 -229.5799974
-36.25016127 198.6183374 -30.84546239
-36.25016127 141.5216814 -46.68801439
-14.35471227 82.59952139 -152.0000974
-40.25016127 205.3355324 -93.17540239
-40.25016127 7.575385393 -221.9478274
-41.15968127 25.49997539 -57.89533739
-36.25016127 184.3325154 -115.7543234
-40.25016127 55.18711139 -214.0840324
-40.25016127 130.1920794 -46.00977139
-36.25016127 188.1934264 -26.98327039
-36.25016127 50.91580039 -109.1098954
-11.92451627 -2.110256607 -227.0360434
19.28667273 56.69155939 -250.0000974
-36.25016127 166.3767514 -55.99717339
-32.08201027 244.3698775 -156.0000974
-13.38624327 22.58477539 -250.0000974
-40.25016127 233.8624943 -104.0898724
-40.25016127 200.1896804 -107.5696964
-36.25016127 55.28442539 -58.02988939
29.19009873 -2.460712494e-05 -102.7151124
-40.25016127 207.1286524 -139.3269164
6.407208725 -2.460712494e-05 -58.80583039
-18.23832627 149.7362664 -156.0000974
-22.61065427 178.9578474 -9.738728249e-05
-40.25016127 244.1825917 -128.2295404
-40.25016127 112.0272994 -10.76787139
-40.25016127 199.4495744 -147.5987504
-20.53008927 76.46577339 -156.0000974
-36.25016127 144.0897234 -62.43300539
-36.25016127 157.5596024 -51.71343139
-35.71936627 -2.075605607 -244.0000974
7.551017725 8.397071393 -152.0000974
6.163777725 56.24466239 -152.0000974
26.95884273 184.6631884 -152.0000974
-20.97641827 135.8135054 -9.738728249e-05
-23.34066127 191.5339254 -152.0000974
-36.25016127 186.2449384 -16.69282939
-36.25016127 162.1347824 -88.49685739
-43.04651927 75.94497139 -200.0290284
-35.15182527 131.6323624 -155.4416224
-36.25016127 191.3455224 -63.29303039
0.8738527253 132.8995034 -9.738728249e-05
37.48945273 73.02373539 -156.0000974
-36.25016127 11.55140639 -112.7532024
-40.25016127 126.6001284 -66.25542639
-7.407647275 18.41047239 -152.0000974
-36.25016127 184.4285664 -85.48845839
-40.25016127 73.73495739 -152.0286224
-36.25016127 186.8415964 -44.93803739
-40.25016127 149.2511094 -43.20446439
29.72042173 148.1890294 -9.738728249e-05
-36.25016127 10.19250739 -53.72147839
-9.887354275 -2.460712494e-05 -178.0825494
-32.57119527 67.84926339 -250.0000974
-36.25016127 14.80219739 -82.42895339
22.70527173 57.52178739 -152.0000974
-36.25016127 175.8421814 -80.82947539
26.60765473 81.75206739 -156.0000974
-16.18300027 200.2238104 -152.0000974
-40.25016127 204.9894284 -54.64130039
-9.460073275 62.65068039 -250.0000974
-36.25016127 148.7248084 -8.889700387
-36.25016127 159.7796914 -107.2409954
-36.47107527 146.2868974 -154.7736244
18.65147873 69.88548839 -156.0000974
-36.25016127 109.1164504 -145.9476854
-40.25016127 42.44177839 -153.6233204
23.31183773 106.2601424 -9.738728249e-05
41.05200173 55.86314939 -244.0000974
-40.25016127 242.4243474 -143.6990374
-21.52280227 84.55130139 -9.738728249e-05
-36.25016127 119.8556214 -20.60087539
-40.25016127 169.6704884 -108.8970284
-23.51662727 232.2285423 -156.0000974
-25.16012527 -2.460712494e-05 -228.2215634
-40.25016127 136.3384564 -130.8537694
-40.25016127 37.73702539 -118.1464354
-0.8646222747 143.4099274 -9.738728249e-05
-40.25016127 65.13310639 -104.8499944
-29.61712427 118.8576804 -152.0000974
-42.89273927 17.45224539 -119.2684424
20.60083373 105.2067854 -152.0000974
-40.25016127 54.48371839 -81.29320439
2.828402725 172.3084934 -156.0000974
-40.25016127 102.3604144 -28.63845339
28.16219973 41.66783739 -156.0000974
-36.25016127 216.372762 -103.2700174
-17.12415727 4.537868393 -156.0000974
-36.25016127 48.90741839 -42.43315939
-4.080290275 47.36027339 -9.738728249e-05
-40.14765827 128.5290234 -2.958251387
-40.25016127 36.73711039 -12.12364739
-40.25016127 10.23577739 -161.3485894
-36.25016127 120.4253224 -81.29752339
-40.25016127 226.5664533 -37.95117239
36.13149573 90.12208039 -156.0000974
-40.25016127 103.6328714 -114.0337104
-40.25016127 8.157132393 -11.67220939
7.218760725 -2.460712494e-05 -1.500334387
-40.25016127 44.16152639 1.360269613
-40.25016127 119.3941454 -111.4069554
-36.25016127 132.7184874 -28.34309339
27.77501573 10.93603339 -152.2940774
5.197056725 130.9194654 -156.0000974
12.03940573 39.84930539 -250.0000974
-36.25016127 10.72611139 -97.03837939
-34.45846827 64.20006939 -0.7346543873
-40.25016127 63.25674739 -171.1624254
-24.89322427 -2.460712494e-05 -91.55532439
-36.25016127 75.94552939 -21.52204639
-36.25016127 207.5195214 -62.66785539
-34.60222427 -2.460712494e-05 -179.5970194
-36.25016127 131.1914234 -86.36538639
-36.25016127 252.0050587 -129.4002094
-40.25016127 225.444915 -67.40329539
-40.25016127 65.44666939 -193.1295094
-36.25016127 176.0814974 -118.6873884
-36.25016127 62.25872839 -136.2003594
-36.25016127 217.3364526 -118.8117284
4.945885725 55.46485339 -250.0000974
34.42769173 130.8494564 -9.738728249e-05
-40.25016127 187.0940694 -92.78059739
-34.52587827 -2.460712494e-05 -159.4791774
32.84869473 8.128842393 -244.0000974
-40.25016127 161.9419194 -29.78120739
-40.25016127 9.285990393 -171.2526714
-18.00756527 161.9957654 -152.0000974
-3.719758275 193.8709804 -152.0000974
-16.51793327 67.01195639 -244.0000974
16.18371773 31.02499339 -244.0000974
-40.25016127 88.28635239 -167.5781294
-40.25016127 11.60277339 -3.378424387
-27.52934927 35.53785239 -244.0000974
-40.25016127 173.5913474 -51.75202239
24.64149173 -2.460712494e-05 -120.2674114
22.31712273 32.35530139 -9.738728249e-05
12.92514873 202.8166554 -152.0000974
38.57122173 -2.460712494e-05 -211.1233194
7.644039725 170.8582264 -9.738728249e-05
-29.43825127 88.93099539 -9.738728249e-05
-40.25016127 149.7006484 -126.8618914
-40.25016127 98.58423439 -95.69340539
-36.25016127 0.8656103929 -22.38724839
-36.25016127 180.4980144 -97.02565339
42.86890473 13.48494539 -244.0000974
4.252205725 96.97342239 -9.738728249e-05
-40.25016127 104.0941674 -44.19933039
1.583845725 -2.460712494e-05 -190.1173444
23.05617173 230.4585061 -156.0000974
32.56443673 45.87160639 -244.0000974
-40.25016127 101.7924114 -129.6646844
8.808264725 167.6906934 -152.0000974
-36.25016127 23.57869839 -40.10036439
20.09307173 -2.266105607 -99.00009739
-36.25016127 201.2695894 -85.94021239
-6.937114275 32.26898139 -250.0000974
-40.25016127 112.2238604 -28.83193439
-40.25016127 193.2998764 -131.2634324
22.98707773 24.84493239 -244.0000974
-16.45285827 128.6543434 -9.738728249e-05
-16.12240727 -2.460712494e-05 -210.5575334
-36.25016127 15.22405039 -34.74191239
-21.54688627 54.98561139 -250.0000974
-40.25016127 17.89159439 -102.4468494
-7.067307275 143.0989524 -156.0000974
-40.25016127 21.91231339 -67.89913339
7.042013725 227.7785098 -153.2133624
-36.25016127 77.70529639 -84.71819239
-36.25016127 72.51575539 -4.335571387
37.74983873 217.3538509 -155.3259224
16.44340073 84.15844839 -156.0000974
-36.25016127 204.5123024 -23.70960539
-40.76212627 153.5576094 -61.18507539
-40.25016127 93.94235139 -159.1906944
-36.25016127 237.2547881 -4.497245387
-20.25878627 137.8342314 -156.0000974
-23.03597127 93.31038139 -152.0000974
-35.88845027 -2.460712494e-05 -134.2926074
-36.25016127 71.02949339 -56.87384039
-36.25016127 195.9946024 -114.3192454
-36.25016127 25.59446539 -129.6683454
-1.977520275 240.427723 -156.0000974
-20.21236827 19.49118039 -244.0000974
-28.10785327 170.2209134 -9.738728249e-05
-7.842515275 231.6158878 -152.0000974
-40.25016127 27.07350639 -174.2594394
-40.25016127 180.4784694 -146.0562474
-36.25016127 99.20740839 -140.6330184
35.65554073 -0.5618546071 -244.0000974
30.74808373 213.8516737 -9.738728249e-05
-36.25016127 93.51342639 -133.7464614
8.828193725 183.3999914 -9.738728249e-05
-24.94374827 -2.460712494e-05 -209.5156184
-36.25016127 27.78927839 -27.83712639
-24.78578327 124.2303284 -156.0000974
-40.25016127 61.80124539 -154.6865854
29.05058773 -2.460712494e-05 -82.40436139
35.40038373 24.28005139 -152.8028734
-38.04712227 137.6083604 1.486533613
-25.93834027 29.64347739 -250.0000974
-18.82970827 189.9290794 -9.738728249e-05
6.266630725 150.8397084 -9.738728249e-05
-40.25016127 65.68424639 -213.7367574
-23.09528227 199.3277784 -9.738728249e-05
-40.25016127 234.1328357 -71.24042839
6.261161725 -2.460712494e-05 -33.02911739
-40.25016127 87.08855339 -49.64757739
-14.87977727 -1.483852607 -244.0000974
-36.25016127 105.3891044 -18.94750639
19.23693873 -2.460712494e-05 -20.36333239
-40.25016127 65.95488239 -66.88265739
-2.968054275 53.97431539 -152.0000974
-37.62670027 59.61207039 -250.0000974
-36.25016127 72.12814239 -133.5922994
-36.82778227 203.8749534 -154.5468564
-36.25016127 175.1683184 -9.306479387
43.24547473 -2.460712494e-05 -222.2173174
30.10841273 110.8139574 -9.738728249e-05
-12.43191827 170.3379814 -152.0000974
29.43659673 98.83790039 -152.0000974
-40.25016127 139.8432494 -87.65872739
-40.25016127 212.991301 -80.22665039
-40.25016127 83.31593739 -14.32540239
-30.70164527 -2.460712494e-05 -34.33828739
31.86676673 166.5407304 -156.0000974
0.6095877253 35.41675439 -250.0000974
-36.25016127 243.7439543 -34.28759439
6.233664725 246.5194819 -152.0000974
-36.25016127 44.58913039 -114.3653634
-22.93850627 -2.460712494e-05 -67.28229939
-36.25016127 188.0535284 -71.28613439
-36.25016127 18.07851339 -138.1181764
-15.15194127 48.56251539 -152.0000974
-40.25016127 128.9555644 -98.41370839
14.97127573 118.8199384 -9.738728249e-05
12.45793573 201.8244514 -9.738728249e-05
41.47316373 -2.460712494e-05 -111.8738674
-40.25016127 49.14329839 -21.98023539
-23.17509527 42.26061939 -156.0000974
20.44464273 222.5806339 -156.0000974
-14.74931227 218.7874973 -152.0000974
-40.25016127 201.4972364 -38.25903739
-33.66051127 90.57731739 -155.8609174
-36.25016127 102.6959564 -103.5653694
-27.58142227 167.3096984 -152.0000974
-5.080033275 86.44541439 -9.738728249e-05
35.86468073 28.91109039 -244.0000974
-40.25016127 184.6659624 -6.395318387
30.65122073 -2.460712494e-05 -189.9909564
-36.25016127 234.7654309 -78.60352939
16.62269973 214.5124805 -152.0000974
-31.13471427 52.04996839 -9.738728249e-05
4.855206725 37.29582739 -156.0000974
-14.64383727 126.5456014 -156.0000974
-40.25016127 21.03084439 -164.1295654
-40.11902927 23.07335839 -149.1290704
-38.39394827 213.3050971 1.067044613
-36.25016127 43.82720239 -15.10242439
24.20879173 -2.460712494e-05 -175.2569184
-34.86429027 -2.460712494e-05 -52.53139639
-40.25016127 24.14093339 -12.41331939
-40.25016127 123.9228994 -140.9759044
-40.25016127 30.96201239 -237.0308154
13.93468773 -2.460712494e-05 -140.3522904
-40.25016127 184.7431814 -105.8811694
-36.25016127 208.8837944 -40.47996639
19.36194773 61.82786439 -244.0000974
40.45468873 43.90244939 -244.0000974
22.81955473 48.61354139 -250.0000974
30.21329573 31.40762439 -156.0000974
-40.25016127 115.9110024 -124.0788094
-40.25016127 9.081679393 -186.7320644
-36.25016127 246.0139014 -11.80149739
37.74983873 142.8290254 -153.7530024
20.24983873 -1.434143607 -83.93849539
35.81412273 31.54470139 -9.738728249e-05
-6.975833275 160.0373864 -156.0000974
23.81653473 58.88416139 -9.738728249e-05
-40.25016127 155.0937484 -139.8962204
-15.45968727 69.93174039 -9.738728249e-05
-40.25016127 53.85096639 -92.42158639
-36.25016127 32.90577039 -81.50528139
35.99399573 -2.460712494e-05 -128.1674184
-36.25016127 68.77894439 -25.48229839
-35.96162627 101.9494094 -149.4423474
-9.916188275 -2.460712494e-05 -85.04838339
-36.25016127 162.0481084 -72.69895339
-9.124728275 10.81138539 -152.0000974
-40.25016127 36.57794639 -212.9413814
16.36676173 179.9955234 -156.0000974
27.75716573 247.0451507 -152.0000974
-40.25016127 69.30494439 -182.8105944
-40.25016127 100.2887894 -12.55447039
-40.25016127 57.74808039 -108.4028354
-26.88067527 248.5135117 -152.0000974
-40.75016127 -0.4118636071 -117.3158444
13.22012873 11.36480439 -250.0000974
-36.25016127 233.1035171 -126.6976254
5.798378725 61.69541339 -244.0000974
-40.25016127 59.31138939 -49.04963639
-2.703062275 169.5299764 -9.738728249e-05
-17.47707127 -2.460712494e-05 -100.8235494
6.370179725 94.20197039 -152.0000974
-32.95369427 43.28483439 -244.0000974
-9.918722275 134.5634854 -9.738728249e-05
16.86995373 117.4171574 -152.0000974
-37.88404427 54.77368539 -244.0000974
-40.25016127 245.9588339 -48.99948439
-40.25016127 116.9604434 -96.48790839
19.40218673 48.04318839 -156.0000974
-36.25016127 74.08045139 -100.4183014
-15.71942027 247.1932601 -152.0000974
-42.92083627 -2.460712494e-05 -174.1419174
-36.25016127 233.8364118 -42.09215939
-36.25016127 230.9715967 -23.00797339
37.78961173 -2.460712494e-05 -84.91533239
-6.077426275 198.7232524 -9.738728249e-05
29.24259873 -2.460712494e-05 -51.81657139
1.519722725 109.6630744 -152.0000974
-9.483383275 210.3331324 -156.0000974
-36.25016127 145.0491544 -106.0719274
-3.935779275 246.9727878 -152.0000974
16.06637173 171.6873494 -152.0000974
-36.25016127 247.9326659 -76.64440239
12.75775173 47.44323239 -152.0000974
-36.25016127 202.7721804 -13.15798039
-40.25016127 86.75014939 -137.9840354
-10.09225627 182.4182304 -152.0000974
33.38816373 -2.460712494e-05 -4.409207387
4.031058725 68.88546739 -156.0000974
-36.25016127 110.2001504 -61.32020539
-40.25016127 114.8439914 -148.9615834
-33.08222527 41.37749839 -155.9179854
-40.25016127 67.52622239 -118.2239644
20.38523673 149.4421744 -156.0000974
12.79472573 -2.460712494e-05 -216.2237834
-36.25016127 246.3068103 -20.77811639
-36.25016127 151.3741764 -26.22849639
-37.19710627 243.447498 -121.3313534
-36.25016127 252.1768669 -144.3389444
-36.25016127 169.6417964 -32.92297139
-8.468054275 85.15816239 -156.0000974
-7.379126275 66.45786839 -152.0000974
-36.25016127 35.25328939 -39.43665739
35.65776673 162.4450894 -9.738728249e-05
-25.75518127 69.15046039 -156.0000974
-40.25016127 36.72244739 -162.1612594
-40.25016127 4.334185393 -97.04455739
-40.25016127 79.46694839 -173.4056164
-36.25016127 76.74301939 -74.97500239
-40.25016127 223.2062124 -51.83203939
9.621686725 -2.460712494e-05 -51.37565139
-11.21355027 54.25690739 -250.0000974
17.02052973 135.9690814 -156.0000974
-36.25016127 12.12356139 -27.21017239
-22.93811127 -2.460712494e-05 -201.7426704
-34.02441827 14.78152939 -250.0000974
8.112414725 144.3894074 -156.0000974
-36.25016127 63.12573039 -40.45619639
-17.60875127 206.9326744 -9.738728249e-05
-40.25016127 170.6589694 -136.1074234
-36.25016127 39.19382839 -77.19115639
-6.926273275 -2.460712494e-05 -29.09832339
0.4740007253 -2.460712494e-05 -113.1421024
6.734941725 23.60483039 -244.0000974
-20.56566627 215.0146087 -156.0000974
-36.25016127 31.15093139 -49.55234239
-36.25016127 119.6714424 -134.4287374
-12.64687227 40.80606339 -244.0000974
-40.25016127 57.02018139 -14.33376639
-7.138905275 185.4936194 -9.738728249e-05
-38.67949327 188.5692084 0.7195346127
-36.25016127 251.1509753 -34.96563939
-36.25016127 218.1118095 -75.49627439
-40.25016127 41.06035339 -69.83951439
30.06798673 64.95920439 -156.0000974
-40.25016127 117.1660804 -35.98446839
-40.25016127 86.62720239 -28.80294739
16.14107073 44.02037539 -9.738728249e-05
-13.81793027 112.4967234 -152.0000974
32.89646973 137.5133874 -152.0000974
-36.25016127 169.2222494 -42.46147439
-28.26919327 -2.460712494e-05 -84.96484339
-40.25016127 44.92987639 -86.48536839
13.49105873 56.06705939 -9.738728249e-05
-36.25016127 170.9846624 -21.35965139
-36.25016127 239.7571118 -87.69026439
-40.25016127 251.9688711 -4.531706387
-1.166610275 166.0772314 -152.0000974
-36.25016127 60.94367039 -98.20998639
-40.25016127 175.5929424 -62.27107939
-36.25016127 103.8817074 -6.105818387
35.79867773 -2.460712494e-05 -199.1015374
-40.25016127 41.95468739 -40.63036939
32.62351373 33.32003539 -250.0000974
-40.25016127 95.23603939 -52.64497639
-40.25016127 156.2793944 -45.35479239
-36.25016127 52.05690239 -140.9722374
-42.77436327 143.1384714 -128.9820724
-17.19770927 47.20429239 -250.0000974
19.27927373 40.97120839 -250.0000974
-36.25016127 212.5422213 -94.57575039
-40.25016127 5.734949393 -144.5888504
-36.25016127 89.49250939 -115.8258934
-10.59950727 193.4144094 -156.0000974
21.18054973 16.49168439 -152.0000974
-40.25016127 179.5883934 -36.14051039
-36.25016127 157.6647834 -114.2289694
-40.25016127 82.65323439 -67.71914739
16.14808773 -2.460712494e-05 -156.2853774
-36.25016127 214.4303947 -60.36207239
7.610817725 12.81379639 -9.738728249e-05
21.02479373 16.97259939 -244.0000974
-30.18086027 194.7714214 -152.0000974
-36.25016127 120.3274174 -72.08596539
-40.25016127 220.4713073 -130.9238064
-40.25016127 179.0964734 -23.86744339
-40.25016127 51.93801939 -74.50963939
-35.81199027 239.9224507 -149.7789254
-36.25016127 212.5623478 -24.74198739
-40.23330327 177.9018104 -3.828748387
-40.25016127 61.51345639 -79.60345639
-24.35732727 57.87170239 -244.0000974
-18.17194327 131.4219414 -152.0000974
33.13466273 -2.460712494e-05 -73.96546039
28.21189373 13.66381539 -244.0000974
-20.71754527 214.6116692 -9.738728249e-05
-40.41909327 -2.460712494e-05 -103.0594184
30.58604373 229.8562178 -156.0000974
-36.25016127 186.5203884 -57.79296539
31.28791473 17.02063639 2.440134613
12.28040873 63.43675939 -250.0000974
-40.25016127 29.72007239 -123.3314114
-40.25016127 86.35549639 -61.14476339
30.96401373 115.5365324 -156.0000974
-40.25016127 239.996568 -44.99519639
-40.25016127 44.34372039 -7.287548387
-36.25016127 146.8281814 -80.51989439
10.47944273 -2.460712494e-05 -227.3751344
-36.25016127 216.7070642 -15.03209139
-40.25016127 92.35604039 -4.211301387
-40.25016127 207.1554174 -70.02894739
-40.25016127 38.88971739 -137.3801564
-39.07506527 -2.460712494e-05 -204.9693934
-39.20679727 215.8963183 -151.8942084
35.77868573 24.87349539 -250.0000974
-19.55683327 172.5173914 -9.738728249e-05
-41.20763027 128.7568904 -23.51642939
34.68604073 65.15712339 -9.738728249e-05
-30.54486027 139.3142314 -152.0000974
-20.46582427 -2.460712494e-05 -48.66912539
-36.25016127 149.2848934 -33.81334939
-40.25016127 159.1625294 -125.3680174
11.61429273 128.3778114 -152.0000974
29.33548473 -2.460712494e-05 -224.9323084
-18.58262827 -2.460712494e-05 -127.1732814
-40.25016127 108.9111464 -126.6042364
-11.36483627 -2.460712494e-05 -8.721501387
-2.507024275 209.0325704 -156.0000974
-40.25016127 25.33085939 -181.1310774
-40.25016127 23.78067239 -116.6183314
-36.25016127 48.80668739 -101.8100244
-37.82271327 241.5115 1.732732613
-36.25016127 98.37310139 -40.86742839
34.13679273 53.84306939 -250.0000974
19.73164373 4.654109393 -152.0000974
-40.25016127 196.6359724 -11.96192039
-36.25016127 235.0152737 -98.38876139
-25.82683027 20.62298939 -156.0000974
-36.25016127 107.9787954 -49.32009739
-36.25016127 12.12941139 -17.22431439
-5.046528275 42.59004039 -244.0000974
-40.25016127 251.4398784 -44.59366239
-40.25016127 115.3837604 -46.56947339
-36.25016127 80.14489739 -125.2474634
-32.42557227 126.1379064 -151.9717134
-40.25016127 242.3171828 -97.25284539
-32.20975227 30.00903839 -156.0000974
-36.25016127 197.8678374 -69.14491039
37.74983873 64.02725739 -155.0547004
-36.25016127 225.8746847 -137.0807454
15.28777273 -2.460712494e-05 -171.7944204
-23.93346827 210.3771144 -152.0000974
18.38491773 160.0411424 -9.738728249e-05
16.65149973 237.3510214 -9.738728249e-05
-40.25016127 164.6764914 -104.0122664
3.920659725 222.144242 -156.0000974
-40.25016127 59.36330839 -123.7824274
-32.89418227 102.1784274 -155.9365424
-8.412819275 41.84362139 -152.0000974
-40.25016127 40.37588239 -202.1992374
-40.25016127 193.3925614 -73.96294639
30.36063273 60.62760439 -250.0000974
-31.05163927 237.4855853 -156.0000974
-36.25016127 6.828651393 -65.48456839
0.5975787253 14.65932339 -9.738728249e-05
-36.25016127 199.4158624 -53.49306739
-9.898076275 54.55487739 -152.0000974
43.36403773 -2.460712494e-05 -50.21606439
33.69685673 240.2236671 -152.0000974
33.90095073 42.63161939 -250.0000974
9.166741725 2.214342393 -244.0000974
-10.88087527 150.9080384 -9.738728249e-05
-36.25016127 114.6666384 -15.79196239
9.923639725 -2.460712494e-05 -193.0705624
-20.14359827 33.45957539 -250.0000974
-40.25016127 167.2641174 -86.08560639
7.774983725 -2.460712494e-05 -121.8295354
16.18437773 34.76052939 -156.0000974
-40.25016127 14.46066839 -76.65915139
-36.25016127 212.0045064 -9.941235387
-31.00343527 79.97990539 -156.0000974
22.66380573 193.6387254 -9.738728249e-05
-7.022978275 95.09514439 -152.0000974
18.86238573 211.9710224 -9.738728249e-05
-8.397213275 123.3720754 -156.0000974
22.00110673 2.804860393 -250.0000974
8.059680725 50.55740939 -156.0000974
-36.25016127 210.1191394 -52.31290139
-26.14648627 -2.460712494e-05 -18.78487639
37.68240873 169.0454374 -9.738728249e-05
12.13420973 195.9606964 -152.0000974
-40.25016127 16.41125239 -43.23929139
35.00208473 -2.460712494e-05 -93.95170239
-8.415538275 174.2406084 -156.0000974
-18.86133227 115.1348254 -9.738728249e-05
-36.25016127 37.82573239 -103.6786704
25.31523473 141.4352504 -9.738728249e-05
11.39529973 220.3735876 -9.738728249e-05
-40.25016127 134.8736974 -116.1418514
37.16553573 50.89087639 -152.0000974
-40.25016127 130.6789364 -60.73651539
-40.25016127 8.091264393 -204.9867754
-19.53878927 7.275191393 -250.0000974
-40.25016127 183.5272424 -30.02715139
-3.969714275 -2.460712494e-05 -165.5229324
-36.25016127 38.86761039 -91.78945739
-36.08720927 48.00426039 -3.170948387
-3.737263275 -2.460712494e-05 -172.9481504
-40.25016127 29.77546839 -40.31931939
-40.25016127 160.0209674 -15.06242039
31.30432673 75.10783839 -9.738728249e-05
-40.25016127 44.24954939 -224.5532584
0.9975377253 0.4999753929 1.250301613
20.34336073 64.63503539 -152.0000974
-14.79312927 -2.460712494e-05 -116.9211174
-36.11566427 92.67452639 -149.0007634
-39.64865527 -2.460712494e-05 -238.8465704
-34.32840327 60.57375939 -244.0000974
3.558714725 0.4999753929 -152.5515924
-40.25016127 240.5945911 -12.72199139
-40.25016127 191.6691524 -17.48650639
39.72373173 13.17725039 -250.0000974
-40.25016127 50.13111439 -63.40948339
-40.25016127 76.19249839 -167.4155924
15.07121173 224.0119758 -152.1456844
-28.43995127 -2.460712494e-05 -109.7797334
-16.52910427 89.11190739 -9.738728249e-05
-36.25016127 38.91840139 -6.631486387
-40.25016127 170.3576414 -118.9195934
-36.25016127 19.47995639 -119.9530924
-40.25016127 32.56493539 -20.90838839
-34.62122527 26.35221739 -0.8486453873
-7.554144275 29.73035439 -9.738728249e-05
-30.07274927 25.25928339 -244.0000974
-39.03871827 101.2351134 0.1908166127
-40.25016127 33.46593139 -184.3511294
31.05348273 159.8469594 -156.0000974
-36.25016127 144.5268594 -142.4809814
-40.25016127 20.40486439 -194.2969944
-36.25016127 221.013694 -8.610818387
-9.608896275 207.8767394 -9.738728249e-05
-32.31813227 160.0532944 -151.9921734
10.05103773 83.57324639 -152.0000974
-36.25016127 162.7439754 -129.3991044
-36.25016127 54.68598339 -129.7494784
-33.57475127 36.25127339 -0.2482373873
-36.25016127 21.03440839 -90.04879639
-18.98525627 -2.460712494e-05 -25.36988039
19.96756073 67.99997539 -246.6005424
-21.52082627 237.2178581 -152.0000974
-15.24069827 241.8423887 -156.0000974
3.349311725 13.61138439 -152.0000974
-36.25016127 33.06256639 -96.69436439
-36.25016127 31.50125039 -9.715152387
-36.25016127 130.9970664 -53.13913439
-41.23468027 -2.460712494e-05 -149.5867334
-40.25016127 30.07876139 -144.8742284
-36.25016127 188.6346874 -126.3437114
-8.375657275 135.8186434 -156.0000974
3.914187725 194.9982484 -9.738728249e-05
-40.25016127 51.15943239 -227.0942314
-21.21604327 12.91192039 -244.0000974
-40.25016127 50.12395039 -29.44982239
20.35992873 18.43592739 -9.738728249e-05
-36.45695627 -2.460712494e-05 -194.9194144
-22.00129327 -2.460712494e-05 -188.1322904
-27.68358127 87.00676739 -152.0000974
-9.775961275 77.27881439 -152.0000974
6.305346725 100.8392894 -152.0000974
-22.25426727 246.5136158 -9.738728249e-05
-3.487770275 217.3413973 -9.738728249e-05
-40.25016127 97.44278739 -33.08475139
-43.33303227 20.94791139 -244.0000974
-40.25016127 101.1350394 -79.40638039
-40.25016127 17.33287339 -28.34417939
24.37623473 23.44009739 -152.0000974
-36.25016127 172.3755104 -125.9124154
-40.25016127 65.41648939 -86.65472139
6.985202725 149.8480114 -152.0000974
18.51789573 130.9261184 -152.0000974
-40.25016127 113.7550934 -102.7700264
-40.25016127 139.4928004 -64.98789039
-36.25016127 109.4658714 -24.35463739
29.51096373 29.56538339 -9.738728249e-05
5.596110725 10.22969539 -250.0000974
22.71231373 33.55447339 -244.0000974
-40.25016127 172.8141794 -74.97862739
37.74983873 196.2192424 0.1497226127
-40.25016127 10.05938439 -87.35202039
16.27839073 244.8414444 -152.0000974
36.28957873 -2.460712494e-05 -186.5881944
-24.17541827 -2.460712494e-05 -216.0495964
-36.25016127 249.581727 -91.69117939
-36.25016127 3.579104393 -28.37581239
-36.25016127 182.8539834 -132.0299914
32.54480373 174.4631754 -156.0000974
-40.25016127 102.9540404 -123.2062594
-36.25016127 93.11525539 -20.64248939
-31.92286427 17.42607639 -152.5854634
-36.25016127 121.8633574 -47.57122339
-40.25016127 220.1704478 -108.3154924
-12.36857327 231.7956746 -9.738728249e-05
-40.25016127 44.37609639 -232.8304854
-27.45416127 38.15776039 -250.0000974
-36.23575327 123.3699454 -3.895604387
-40.25016127 12.57996939 -228.6888584
-40.25016127 24.41383739 -238.6308604
-37.69632627 139.9456014 -153.8305464
37.57535373 166.6970754 -152.0000974
-36.25016127 66.33637939 -81.59001139
-10.90142027 60.54954939 -244.0000974
12.16957873 49.68470039 -9.738728249e-05
36.66701573 -2.460712494e-05 -41.96194639
-40.25016127 66.72802539 -220.1686364
-39.81209627 31.57334239 -244.0000974
-40.25016127 194.9965274 -142.8560564
-40.25016127 125.1610994 -123.3145704
12.30478973 3.959951393 -152.0000974
-40.25016127 8.088279393 -116.5336074
37.74983873 199.8301704 -155.6568224
-36.25016127 43.46715439 -29.34156939
-36.25016127 183.8420014 -39.18061939
9.693116725 31.00066139 -244.0000974
-13.42640827 42.83206739 -156.0000974
-40.25016127 154.8128364 -97.62790939
-40.25016127 13.76928739 -182.1963074
-36.25016127 154.0292004 -4.025639387
-36.25016127 231.8264856 -32.53640639
32.29526573 184.6070174 -156.0000974
-36.25016127 55.01317339 -116.1288124
3.273986725 -2.460712494e-05 -137.2085164
-40.25016127 237.009988 -64.48599839
11.21074473 162.3699314 -9.738728249e-05
-40.25016127 223.4394456 -142.4301914
-31.12607027 -2.460712494e-05 -103.1873184
-40.25016127 193.2557544 -26.72778039
2.188297725 -2.460712494e-05 -235.4855234
-5.232412275 18.52772139 -250.0000974
-26.12323427 62.60989639 -156.0000974
11.78890073 29.04476139 -9.738728249e-05
-40.25016127 145.4579574 -38.00033739
-40.25016127 49.73450239 -192.5121214
6.233008725 -2.460712494e-05 -206.1776134
-40.25016127 79.97829339 -37.61125339
-37.36680327 48.17133639 -154.0997984
1.193147725 79.04238539 -9.738728249e-05
-40.25016127 85.74294639 -40.91366339
-40.25016127 123.8800124 -17.58198739
-40.25016127 230.0058974 -98.78792739
-40.25016127 104.6035214 -91.49907139
-21.35896027 204.0258054 -152.0000974
13.63127473 173.1794094 -9.738728249e-05
-40.25016127 43.31700939 -122.9977904
-40.25016127 22.44779139 -209.7643464
-40.25016127 64.66423139 1.987662613
-40.18973727 0.4999753929 -109.4515394
-40.25016127 234.7818919 -26.35752639
-12.00742527 26.12524339 -244.0000974
-36.25016127 8.823749393 -37.73041839
35.45930473 -2.460712494e-05 -166.0417824
-40.25016127 199.3728194 -120.0360344
-40.25016127 63.28626439 -164.5088054
-25.25194227 67.99997539 -244.1085564
-36.25016127 204.7018764 -98.74058939
-36.25016127 157.8063594 -24.83004339
8.946804725 67.25984839 -244.0000974
-36.25016127 29.58491439 -57.61941239
-36.25016127 89.66235539 -55.59599639
-36.25016127 20.62045839 -17.73319839
-40.25016127 83.27443739 -110.8331254
-40.25016127 160.4808704 -83.41028239
-40.25016127 180.7686004 -81.54670539
-40.25016127 77.85668639 -193.9945114
-39.43779527 159.8759564 -151.4950994
-36.25016127 134.1331414 -7.032619387
1.874308725 88.86608139 -156.0000974
-36.25016127 155.9723754 -64.99449239
-36.25016127 183.1558624 -50.14416239
1.215057725 194.3539674 -156.0000974
33.40510973 41.00948339 -152.0000974
-36.25016127 153.5219944 -18.88993539
-36.25016127 96.13980339 -68.30717639
-35.79554627 114.2401914 -2.240319387
-40.25016127 56.76009539 -143.6159624
-30.23655027 52.86804639 -250.0000974
-13.03775027 -2.460712494e-05 -154.2364654
-20.37815227 37.65130639 -152.0000974
0.4874667253 235.9809765 -152.0000974
-40.25016127 167.0983634 -92.43479339
-40.25016127 218.2635343 -98.71768339
-40.25016127 80.75256339 -152.2464524
-40.25016127 6.241652393 -70.37336939
-40.25016127 20.92045639 -84.66222739
-40.25016127 136.3001644 -137.1915684
-28.58695427 181.0575754 -9.738728249e-05
-36.25016127 82.47657539 -88.88374539
-36.25016127 96.08887739 -127.9610854
-35.98931827 167.3715914 -149.3654384
-40.25016127 168.6833734 -60.32634539
