# .PCD v0.7 - Point Cloud Data file format
VERSION 0.7
FIELDS x y z
SIZE 4 4 4
TYPE F F F
COUNT 1 1 1
WIDTH 1278
HEIGHT 1
VIEWPOINT 0 0 0 1 0 0 0
POINTS 1278
DATA ascii
-11.53984127 52.1491014 201.9999026
-31.80653227 58.3948884 201.9999026
27.53642373 42.6660994 151.9999026
4.816676728 238.2279668 151.9999026
21.76849073 111.1907384 -9.739266898e-05
-36.25064927 144.4533914 126.8869726
-18.00997027 32.4566474 151.9999026
-36.25064927 251.2300151 12.74629561
-40.25064927 72.9329264 67.47907061
-36.25064927 7.971558398 109.3591966
-36.25064927 45.2983164 27.95048861
31.37611773 201.9420874 -9.739266898e-05
18.53140573 36.2362724 195.9999026
-36.25064927 73.3164014 98.23847961
-33.52742827 77.5204624 151.7687326
32.21716373 86.3301994 155.9999026
18.01563873 126.0350574 151.9999026
9.510373728 35.7621124 151.9999026
-22.14248427 -2.460200199e-05 61.07470261
34.65811973 171.8088684 -9.739266898e-05
4.704147728 160.2750624 -9.739266898e-05
-28.31442827 -2.460200199e-05 34.19195961
26.89176973 62.3022474 155.9999026
-26.63234127 37.7466754 -9.739266898e-05
-36.25064927 194.9182814 50.99728861
-40.25064927 238.0799725 147.1587076
-40.25064927 209.2570884 5.898568607
-18.83630627 245.2201732 151.9999026
-36.25064927 81.6990794 86.82370561
-40.25064927 50.6838314 189.0879426
20.72631573 -2.460200199e-05 7.278430607
4.183217728 -2.460200199e-05 187.5988806
-9.900594272 11.0151184 151.9999026
33.69322673 47.2996934 201.9999026
-36.25064927 27.8834404 10.48911761
-40.25064927 46.2279564 61.05361261
-10.29597927 148.6383284 151.9999026
7.293797728 -2.460200199e-05 27.00161861
-12.61788927 135.8296074 -9.739266898e-05
3.061919728 238.8743157 -9.739266898e-05
-23.03310627 195.4882514 -9.739266898e-05
34.68712673 143.8400544 -9.739266898e-05
-40.25064927 208.9309794 38.23591861
-40.25064927 3.995321398 87.49366961
-40.25064927 10.8962294 166.1761806
24.04431573 224.8433221 155.9999026
-9.034980272 26.6044324 195.9999026
-39.82982827 20.6936934 150.4387986
-3.350894272 99.9906514 -9.739266898e-05
-11.68005027 57.4602154 -9.739266898e-05
-36.25064927 176.2559264 32.43442961
-36.25064927 55.8326404 90.39915161
-36.25064927 221.8296844 125.7735886
28.65108573 -2.460200199e-05 177.9992556
-31.65455827 142.9508874 155.9999026
-36.25064927 69.9125664 45.41307061
-40.25064927 127.6687844 139.6838486
23.58293373 -2.460200199e-05 136.3026716
-36.25064927 211.2573144 117.4022466
-0.8251752718 168.6319614 151.9999026
-40.25064927 141.4836344 114.9602346
-40.54773927 112.3357114 -0.2493013927
-40.25064927 14.8806294 134.1351336
-40.25064927 98.4068514 107.2183586
-40.25064927 128.8860784 109.8120966
-21.00401727 105.0018024 151.9999026
-38.48576027 238.1728013 -0.9739853927
-27.88157327 -2.460200199e-05 152.8590846
21.86581973 244.6799346 -9.739266898e-05
-40.25064927 218.966943 62.49048461
-36.25064927 80.1536854 109.0475956
29.89884073 -2.460200199e-05 36.82361261
-36.25064927 172.3860294 11.26174461
21.46043873 155.2022854 155.9999026
-40.25064927 211.1932974 142.1579366
-40.25064927 118.2915284 125.6487036
-38.78744927 49.0493854 152.5844376
-40.25064927 95.6448064 60.62450161
11.38683373 248.1523177 155.9999026
1.917843728 132.4438914 -9.739266898e-05
-40.25064927 118.9308144 10.39405861
-17.82237027 252.4007108 -9.739266898e-05
-40.25064927 101.2484824 142.3190216
-1.798931272 22.7713284 -9.739266898e-05
29.47114573 -2.460200199e-05 109.0033506
-40.25064927 16.1081764 99.20399661
-27.85800827 25.3875494 201.9999026
25.69761073 194.3348214 151.9999026
6.406210728 38.4820124 -9.739266898e-05
-27.61887927 -2.460200199e-05 5.937625607
-40.25064927 97.7041004 20.42928761
-40.25064927 164.9369914 109.5284656
-16.95924527 45.2860284 -9.739266898e-05
16.73820773 221.0955127 -9.739266898e-05
25.73830373 251.1111799 155.9999026
-2.552040272 77.2207904 -9.739266898e-05
-37.87600627 173.8762674 153.6876766
19.63291873 85.0545074 -9.739266898e-05
-3.949368272 64.1824124 195.9999026
7.406327728 -2.460200199e-05 69.02629661
7.967475728 39.5062464 201.9999026
-36.25064927 156.4324744 37.52158861
-9.188600272 226.5857172 -9.739266898e-05
40.03424373 23.5427384 201.9999026
-21.05409427 127.9220884 151.9999026
-36.25064927 197.9515004 14.34355961
-36.25064927 235.5239533 124.4222216
-40.07891027 -2.460200199e-05 10.86259761
-36.25064927 37.1157554 143.4731966
15.63502573 136.8041494 -9.739266898e-05
32.20213073 -2.460200199e-05 124.0579686
10.26472073 5.354545398 155.9999026
26.68400373 -2.460200199e-05 84.71514661
-31.03425627 193.1453894 151.9999026
20.33103973 18.7641234 -9.739266898e-05
12.71350573 216.3064467 151.9999026
-39.66518327 113.2363514 150.9860256
-15.86213927 -2.460200199e-05 171.4296236
-36.25064927 168.7408324 120.0367536
-40.25064927 41.0068914 38.63804761
-7.296936272 136.4746934 155.9999026
-36.25064927 129.6198554 96.51400561
-22.35313527 -2.460200199e-05 187.0898846
-40.25064927 40.9578324 175.5517006
-26.36448127 165.5110964 151.9999026
22.61389273 16.5282794 195.9999026
-40.25064927 237.8581104 66.10465661
1.181024728 96.0771814 151.9999026
-18.87657527 187.9000544 151.9999026
-40.25064927 243.7750121 91.00273161
0.2957237282 187.2726634 -9.739266898e-05
-40.25064927 140.8269314 55.38261461
-40.25064927 68.7672784 148.2351626
-36.25064927 197.3928914 75.90647061
-36.25064927 16.1763184 120.8696566
10.08798073 -0.627264602 201.9999026
-36.25064927 8.447212398 77.61244561
-40.25064927 30.7841404 79.76938561
-11.66555627 -2.460200199e-05 109.6010606
-36.25064927 158.4259904 88.06422761
-40.25064927 138.1494884 24.29026961
-36.25064927 114.9201264 72.18500561
30.55807073 -2.460200199e-05 192.2769946
15.57981273 63.6273584 195.9999026
-36.38800027 -2.460200199e-05 165.6675416
0.7214057282 143.8415764 151.9999026
-0.6606752718 120.3344584 155.9999026
-36.25064927 119.1127014 114.9847946
-21.80412327 10.3183864 -1.916358393
27.94876873 113.9022524 151.9999026
43.22375573 48.7718664 195.9999026
-40.25064927 40.5297724 8.850816607
-9.821766272 -2.460200199e-05 142.5964536
-40.25064927 220.8438142 51.39021361
-40.25064927 10.7512264 2.356410607
-36.25064927 167.7428104 61.56039661
-29.37140027 105.6553494 -9.739266898e-05
-11.31840327 207.8718714 -9.739266898e-05
-40.25064927 81.8053994 38.25934361
-40.25064927 170.2073074 79.21269761
25.11150773 211.5665124 155.9999026
-27.41718527 236.3499162 -9.739266898e-05
-40.25064927 84.7397364 131.5861806
29.28990473 133.9705554 -9.739266898e-05
10.63162673 191.5401044 -9.739266898e-05
-33.22013527 199.9577404 0.1819786073
36.09190873 -2.460200199e-05 27.58879561
-40.25064927 34.5854194 161.9391596
40.40812473 -2.460200199e-05 185.0867386
-9.863913272 10.8168514 201.9999026
14.15079173 -2.460200199e-05 108.4139246
-36.25064927 134.2014864 43.51215561
-36.25064927 135.3940564 6.862060607
-15.22209327 84.4692654 -9.739266898e-05
-11.55562527 107.3552454 -9.739266898e-05
-40.25064927 96.8927414 119.2274216
-36.19560127 150.7002994 148.3165376
-38.52214227 49.7361724 201.9999026
-36.25064927 7.092994398 22.24088461
-8.282195272 148.9724314 -9.739266898e-05
-32.44954027 28.4464644 0.03885060733
-36.25064927 141.2803474 35.21395061
-21.01446027 53.1617754 195.9999026
-40.25064927 181.3601414 88.27317661
-43.45464127 25.4999754 55.65291961
-12.25190827 182.3410954 -9.739266898e-05
-40.25064927 197.7906124 129.5186376
-40.25064927 55.6838384 114.6258086
36.59234673 176.6581264 151.9999026
-30.18897527 16.8392384 -0.02447439267
31.95853073 -2.460200199e-05 47.41295561
-0.6380142718 206.3674124 -9.739266898e-05
-40.25064927 22.6185894 185.8902926
-6.114751272 219.7153227 151.9999026
-36.25064927 195.3813314 24.78326461
19.26713173 99.5661734 151.9999026
-40.25064927 242.0582365 134.4105766
24.43635873 190.2723724 -9.739266898e-05
-31.14768627 36.9341644 201.9999026
2.406041728 61.4872594 151.9999026
-40.25064927 89.8533804 6.962174607
5.414472728 82.7282174 155.9999026
-32.64835927 -2.460200199e-05 102.4978706
10.18886373 58.5319264 -9.739266898e-05
1.657139728 31.2199714 195.9999026
-4.884538272 250.2748839 -9.739266898e-05
-2.836797272 -2.460200199e-05 30.14490661
-40.25064927 68.6207614 107.7299366
-40.25064927 239.9073412 55.69933461
17.03122073 173.6625114 151.9999026
-41.61523027 103.2331954 78.81403361
-36.25064927 138.0605064 78.22641961
-36.25064927 33.3933564 58.86260461
-40.25064927 151.9214714 67.53718061
32.07006873 73.9432174 -9.739266898e-05
11.92393073 98.7720514 -9.739266898e-05
-40.25064927 32.6218104 108.0483576
-40.25064927 200.9547594 147.0305016
-28.48640327 69.4752684 -9.739266898e-05
-21.78325227 10.2920394 154.4404066
-40.25064927 147.6602544 94.77579361
-40.75064927 -2.252197602 117.0169486
-40.25064927 103.6539064 35.27057561
-40.25064927 181.5461124 5.625421607
-40.25064927 82.3346124 27.80920861
-40.25064927 79.7147944 59.52232061
8.507984728 -2.460200199e-05 -1.314756393
-6.010461272 70.2435084 155.9999026
-40.25064927 59.9862584 157.4962966
-40.25064927 248.0128135 143.9397186
-13.21356327 40.7763064 195.9999026
-6.569308272 -2.460200199e-05 160.3299516
-36.19318127 59.9670554 3.508285607
37.74935073 213.0522213 -0.2370273927
-40.25064927 48.7664594 50.83931561
-32.98465927 26.9792174 155.9146886
-16.75646727 -2.460200199e-05 100.5304526
-26.89169227 67.5526894 201.9999026
-28.67557127 148.3039124 -9.739266898e-05
13.53848973 -2.460200199e-05 52.23262461
17.67745173 64.8779584 151.9999026
7.670043728 11.2893684 195.9999026
35.86279773 35.2182224 -9.739266898e-05
-25.56203927 216.5327613 155.9999026
-20.49593527 60.4312694 155.9999026
-36.25064927 123.7755404 80.25471361
-36.25064927 221.1190004 142.7193146
-36.25064927 48.0660344 71.84367161
-40.93926227 175.4028264 103.0176696
-40.25064927 119.8385324 26.05141161
-36.25064927 37.5714754 17.88048561
-40.25064927 196.1578814 97.98708361
-40.25064927 172.4345484 22.67180061
19.46252173 136.1747154 151.9999026
-12.35941627 108.7447404 155.9999026
-29.25813327 47.2695804 155.9999026
-40.25064927 17.8504334 39.65667361
32.79483973 39.0748664 195.9999026
-36.85934327 231.538117 25.49990261
-36.55050827 217.5835932 30.48581261
-36.25064927 229.3426189 47.56213961
-20.44841727 129.3920434 -9.739266898e-05
-36.25064927 233.0936428 82.29526761
36.89773973 141.7941094 155.9999026
-30.46864827 119.3398544 -9.739266898e-05
-9.463949272 -2.460200199e-05 77.63061661
-36.25064927 249.4920284 36.33434561
-6.187951272 209.1841284 151.9999026
28.29947273 1.145316398 201.9999026
-28.31861827 -0.608787602 195.9999026
22.16167073 32.8758324 151.9999026
37.74935073 44.5740994 155.4479066
27.07350673 9.721811398 -1.942429393
-36.25064927 120.9899644 59.94881561
4.645820728 118.8415314 -9.739266898e-05
-36.25064927 181.8203624 143.1151246
11.32349573 75.2625144 -9.739266898e-05
-36.25064927 105.9449274 12.89050161
29.89976373 -2.460200199e-05 167.5757676
1.329380728 13.4009204 -9.739266898e-05
35.13050673 189.6072734 151.9999026
-35.11415127 239.6524425 155.4336646
-40.25064927 55.3975194 80.73939361
-36.25064927 60.6231104 133.1913996
7.146795728 52.5630674 151.9999026
-41.76120327 8.146145398 195.9999026
-35.77879427 26.3307294 195.9999026
0.5269327282 36.0598064 155.9999026
-36.25064927 174.3208254 52.81455061
-30.69798627 -2.460200199e-05 72.29811961
15.98595873 40.6504214 -9.739266898e-05
-36.25064927 242.1658777 105.8261716
25.29122573 -2.460200199e-05 -1.911698393
-31.77984127 210.4493694 -9.739266898e-05
31.19144873 54.6104314 195.9999026
-8.915694272 -2.460200199e-05 57.35747661
-36.25064927 226.7709507 104.8528626
4.807731728 19.3110024 201.9999026
13.29668273 54.8017854 201.9999026
-30.04981327 -2.460200199e-05 83.60480061
37.74935073 161.0717774 153.7801976
-36.25064927 167.2958924 100.4404796
-8.717659272 45.5081574 155.9999026
-29.38270727 124.5790544 155.9999026
-28.01050127 70.3752134 155.9999026
-36.25064927 65.1314004 75.54542261
-36.25064927 214.9421863 85.00269961
-40.25064927 69.6103384 56.56738961
-36.25064927 166.6506294 140.4796906
6.149618728 -2.460200199e-05 43.28258461
-40.25064927 8.786295398 62.71992261
-36.25064927 124.9745114 131.3899316
35.00662773 103.9457044 -9.739266898e-05
-40.25064927 78.8873654 9.469923607
-40.25064927 64.8206624 96.32680561
14.91244373 117.8817134 -9.739266898e-05
-39.63453827 143.6812364 1.001001607
-40.25064927 118.4098734 45.72267761
-40.25064927 168.4971774 37.37178261
-40.25064927 177.9965524 122.5717086
-40.25064927 12.3870334 145.7935126
-40.25064927 45.5643734 122.1861246
30.90756573 -2.460200199e-05 66.43868661
-27.86245927 135.1969664 151.9999026
-40.25064927 133.9687014 63.82678261
8.937575728 23.4015414 151.9999026
-16.33341327 -2.460200199e-05 12.12299761
-36.25064927 12.1279304 90.29405261
-17.78942027 23.5652154 155.9999026
-8.100817272 48.6266434 -9.739266898e-05
2.151237728 196.5478544 -9.739266898e-05
-42.66596127 106.1725714 63.23491061
-40.25064927 86.8981194 80.05669661
8.138736728 196.8345164 155.9999026
11.60747873 -2.460200199e-05 117.4747886
2.662267728 -2.460200199e-05 158.5743326
-36.25064927 148.9987604 19.86952961
-40.25064927 78.5368114 124.5293846
-40.19537127 246.2540647 3.483604607
12.42568173 181.3450064 -9.739266898e-05
38.38797973 5.975997398 201.9999026
-36.25064927 25.7898554 69.69063361
-36.25064927 -1.619601602 128.0074556
-40.25064927 190.0476374 110.3433456
-40.25064927 116.1037664 94.72376061
-27.97627427 79.5668774 -9.739266898e-05
-22.49172727 173.9682704 151.9999026
-39.53001427 36.0882684 195.9999026
-40.25064927 46.2380164 19.62441161
36.13073273 63.2184294 155.9999026
-40.25064927 200.6924204 42.50249461
-43.41343927 25.0495004 46.39494561
-40.25064927 151.4317224 110.4703996
-40.25064927 33.5817804 117.2534516
-40.25064927 108.6337474 48.19130361
12.19630573 44.8374894 151.9999026
12.66968673 245.3219363 -9.739266898e-05
-36.25064927 135.8820874 130.2757766
-36.25064927 22.4471024 90.43258461
28.08623173 161.4954344 -9.739266898e-05
-3.015611272 140.1687164 -9.739266898e-05
-36.25064927 146.6207674 74.95957961
-40.25064927 185.0037384 135.5448546
-40.25064927 109.5952024 128.3255496
-40.25064927 188.1675674 69.87793261
-36.25064927 151.3208594 139.2618016
21.05010773 84.5065734 155.9999026
10.05792473 45.9588184 195.9999026
25.71109473 170.4202934 -9.739266898e-05
-40.25064927 22.8062194 22.54419761
-36.25064927 107.9589674 87.94968661
-40.25064927 173.8196814 144.3791396
-39.76697827 32.9197304 150.6471876
8.436956728 104.6809234 151.9999026
-39.12288427 104.3009094 152.0332086
-36.25064927 8.522278398 53.68899061
-12.58557727 172.1324294 151.9999026
19.91100473 182.8590234 155.9999026
-14.93252527 159.8579584 -9.739266898e-05
-36.25064927 229.7019087 145.2622356
-40.25064927 75.4056104 141.9586966
-40.25064927 70.6384114 24.66500061
-15.33656127 7.086790398 195.9999026
-31.98239127 90.1621454 155.9999026
20.00926373 206.2512594 -9.739266898e-05
6.765175728 117.4644424 151.9999026
-40.25064927 214.873485 96.34789561
22.94335973 147.4103244 151.9999026
-32.26867727 162.7034104 0.002005607331
-2.421289272 165.5242444 -9.739266898e-05
-40.25064927 36.7562224 86.40091561
28.79808573 -2.460200199e-05 146.9733796
16.84520573 42.5109254 201.9999026
-11.11525427 0.499975398 152.7684116
-35.88462727 212.9316378 149.6314126
-36.25064927 203.9263494 134.9036346
-37.95979927 229.3869817 -1.603977393
13.02844273 235.0431154 151.9999026
14.63650373 -2.460200199e-05 133.0402346
-40.25064927 149.2622004 58.28857561
-40.25064927 172.2208194 67.98677761
-40.25064927 68.1362944 4.428743607
-40.25064927 48.8834534 109.0577936
24.15630973 55.9718534 201.9999026
36.42225073 26.4718844 -0.09570339267
-40.25064927 249.9971327 111.2242396
31.10939473 122.7760604 151.9999026
-6.116577272 45.8709004 195.9999026
-40.50271827 58.8205714 195.9999026
20.35579373 17.8871224 151.9999026
-5.724202272 5.136956398 -9.739266898e-05
-20.96713827 243.349087 -9.739266898e-05
-40.25064927 190.2418994 13.89018361
-40.25064927 114.4349574 64.37156661
-36.25064927 7.344840398 135.7465806
-40.25064927 155.4673994 78.28980461
-21.28318127 -2.460200199e-05 147.2427316
-27.28321127 8.463105398 195.9999026
32.20884573 221.9219989 155.9999026
13.60362473 213.0474153 -9.739266898e-05
-13.92225327 22.7860104 201.9999026
-1.206478272 6.871165398 195.9999026
21.24801373 -2.460200199e-05 113.2895486
30.22560773 229.2941233 151.9999026
34.85131173 23.1935524 152.1945646
-40.25064927 137.7515694 91.71222961
-40.25064927 59.1665624 62.21950061
12.10736473 -2.460200199e-05 76.59750961
-40.25064927 224.44796 81.73568161
-0.06583327182 183.9870634 151.9999026
-12.40845127 79.1386654 155.9999026
-39.50495627 51.8593644 0.6361666073
-40.25064927 219.0876732 118.7137796
-40.25064927 200.6325434 55.95983561
26.95525873 62.0685494 -9.739266898e-05
-40.25064927 112.4475334 31.82417961
-36.25064927 195.8205814 115.5694926
-40.25064927 201.8898304 28.59238161
-36.25064927 2.115022398 94.79647561
-36.25064927 76.3391604 74.20289261
33.08980673 89.6291384 -9.739266898e-05
-10.47798627 -2.460200199e-05 129.8247806
20.62449073 22.2371344 201.9999026
-6.967390272 159.6917234 151.9999026
8.161237728 59.4821294 195.9999026
-5.319860272 92.3560004 155.9999026
-40.25064927 220.3950737 110.1532926
-40.25064927 107.5320974 104.7451596
-40.25064927 130.3550964 75.64289861
28.04901773 204.7047004 151.9999026
25.63977373 172.5001354 155.9999026
-20.63336127 183.4893274 -9.739266898e-05
38.59478473 29.3023714 195.9999026
-36.76846127 -0.711100602 19.06705161
-36.25064927 212.5274709 58.79998261
-36.25064927 200.5570664 83.69392061
-15.65719727 -1.395776602 195.9999026
-40.25064927 160.1102264 124.6921186
-36.25064927 50.1403114 134.8772096
-40.25064927 46.4068944 144.7613276
5.759509728 188.7957474 155.9999026
19.44590573 43.5441554 155.9999026
-40.25064927 23.8597314 163.9797846
-36.25064927 136.3416694 109.6917506
-36.25064927 92.5633954 42.82170061
-36.25064927 2.283244398 66.47714261
-40.25064927 16.8521194 176.9804706
-40.25064927 31.9008084 33.45847161
11.48369973 -2.460200199e-05 191.6556926
-37.67707827 103.0561234 -1.845907393
31.89906073 240.1195848 151.9999026
-36.25064927 203.1933084 99.88109161
-11.83522327 189.7474084 155.9999026
-15.73799027 157.3563074 151.9999026
-2.289203272 239.6806833 155.9999026
-36.25064927 94.8996594 138.8196406
-36.25064927 231.6815763 91.12133661
-36.25064927 189.7639444 57.47250861
-5.996209272 65.7930084 -9.739266898e-05
-37.24668027 120.4525924 154.2179556
-36.25064927 163.2610684 81.18399061
-1.187256272 232.5504105 151.9999026
30.04505173 23.0758104 195.9999026
-40.25064927 151.0063204 123.8712576
-40.25064927 160.5216004 51.36150261
-40.25064927 61.9031154 36.79759961
-4.753362272 22.9541054 201.9999026
-40.25064927 216.6167274 9.569580607
-36.25064927 129.5356954 26.75351461
-8.884249272 57.0857534 195.9999026
-33.06372027 17.6571604 154.3283856
-40.25064927 63.2729544 171.3033856
-18.60732527 -2.460200199e-05 69.71056061
-42.06295427 124.9832884 102.8644686
-24.96087227 250.6118667 151.9999026
-40.25064927 63.4798744 12.77239361
-34.79727427 187.2025584 0.9801666073
-38.73442827 0.499975398 79.83253761
-32.30549227 -2.460200199e-05 134.9317796
-27.63515727 -2.460200199e-05 45.71858361
-40.25064927 250.4516573 128.2403436
15.03889573 -2.460200199e-05 65.71185561
-40.25064927 234.0094176 75.28706761
-40.25064927 61.0422534 145.2367646
6.988442728 231.7748436 -9.739266898e-05
-40.25064927 62.6141514 122.5020816
-40.25064927 24.1022874 100.5828996
32.98881773 107.5469404 151.9999026
-38.06882527 178.2888874 -1.474051393
-8.482329272 67.9999754 201.5283936
0.2110377282 200.0096504 151.9999026
15.50494873 31.7285574 201.9999026
-40.25064927 155.9432194 24.45373561
-40.25064927 127.1792824 43.73310261
-13.47146827 38.9793034 155.9999026
-29.61305927 223.5183282 155.9999026
34.61643673 -2.460200199e-05 58.53935061
37.50322973 128.5363254 155.9999026
12.85807473 50.4640894 -9.739266898e-05
-42.90906627 19.2227624 117.4980456
5.665146728 231.1465477 155.9999026
-36.25064927 122.2754034 144.1350656
13.02064473 173.3125174 -9.739266898e-05
-40.25064927 153.2319114 9.678021607
10.44641473 209.7014194 155.9999026
-4.841060272 175.1431784 155.9999026
-14.95449127 56.1869074 151.9999026
-40.25064927 33.0293784 131.6748816
17.94698273 228.6937007 151.9999026
-19.40575327 119.3343714 151.9999026
-36.25064927 91.9660594 129.4843586
5.431172728 161.3746584 151.9999026
-40.25064927 96.8011944 70.71155061
-2.110016272 19.0696024 155.9999026
2.435992728 25.7750694 155.9999026
34.33700573 65.0894894 201.9999026
-36.25064927 182.3054994 52.63098961
28.18636673 228.4946215 -9.739266898e-05
-36.25064927 131.4716114 145.4426756
-12.71188527 68.6749174 151.9999026
-40.25064927 61.7619974 48.01165661
18.21459573 104.0728094 -9.739266898e-05
-36.25064927 47.9763224 91.61431761
-40.25064927 91.7670644 14.67623961
4.064440728 -2.460200199e-05 34.26128461
-40.25064927 17.3719124 75.27036961
23.23659173 234.906563 -9.739266898e-05
-9.308064272 25.3280044 -9.739266898e-05
0.8010207282 62.1359954 201.9999026
0.4877057282 217.950737 155.9999026
-40.25064927 58.4899164 187.7575696
-36.25064927 244.5757287 48.81071261
-36.25064927 246.324084 84.67207461
-40.25064927 125.5318434 117.9835826
-36.25064927 94.6831584 101.5133046
-36.25064927 65.5593334 30.70137261
-40.25064927 216.7908473 37.49521161
-39.73641727 82.2889164 150.7513246
7.564072728 151.3826724 151.9999026
-21.91288027 65.1066294 -9.739266898e-05
-32.29137327 10.4908814 201.9999026
-25.07004327 203.1031154 -9.739266898e-05
-21.36982827 112.8358604 155.9999026
-22.05618727 227.6150335 151.9999026
30.12247673 75.8661204 151.9999026
-40.25064927 78.4017124 80.91725561
-40.25064927 108.3781654 6.530293607
-36.25064927 244.3917912 67.81118861
-36.25064927 126.7155324 6.623641607
29.15992873 140.5453474 155.9999026
-40.25064927 70.4283314 126.0792726
13.09559673 -2.460200199e-05 5.035440607
-36.25064927 28.0866754 18.36423661
-36.25064927 190.5399634 94.27549061
-42.58471027 6.335811398 26.78028961
-40.25064927 19.3924514 141.0544866
-40.25064927 229.8334793 66.57460861
-22.88161427 12.4990284 201.9999026
-41.13926227 -2.460200199e-05 109.5393866
6.170802728 -2.460200199e-05 111.8689906
36.92668173 179.2790314 -9.739266898e-05
-36.25064927 37.8093254 79.73260461
-36.25064927 87.7124304 107.1453826
-36.25064927 218.2224572 69.13661561
-40.25064927 18.2226804 157.8064636
-28.20329627 107.9556454 151.9999026
-19.86429127 121.6365474 -9.739266898e-05
-40.25064927 81.8230184 2.267817607
-40.25064927 24.6799794 30.60553061
4.757160728 248.7093945 151.9999026
7.586817728 135.1690194 155.9999026
-36.25064927 232.4339379 17.82657061
-40.25064927 228.3749709 124.6775866
-40.25064927 29.1407264 87.82163261
34.00403573 -2.460200199e-05 154.8865516
22.12990973 117.0757494 155.9999026
-40.25064927 48.6523694 36.13079861
-40.25064927 33.4352574 5.786461607
-40.25064927 49.6277924 174.0399776
32.04276973 49.0313234 151.9999026
-27.11461727 203.7023234 155.9999026
-36.25064927 164.9577094 6.225492607
-30.88725727 170.7351924 -9.739266898e-05
-35.93118527 69.5254344 155.0784766
-16.95064827 58.7512714 201.9999026
28.32996773 -2.460200199e-05 6.074199607
4.488433728 -2.460200199e-05 10.45870461
0.3626067282 75.2501094 151.9999026
19.31238673 195.8579804 155.9999026
-40.25064927 156.2945604 44.08243261
-27.23419427 -2.460200199e-05 -1.736796393
4.363570728 212.1992513 -9.739266898e-05
-36.25064927 40.2917644 70.98889561
-40.25064927 76.1395984 47.46502661
-36.25064927 98.5328414 26.92789561
-10.26202827 245.1618312 155.9999026
17.92578673 248.3869656 151.9999026
-32.51698227 -2.460200199e-05 119.6949126
-40.25064927 235.7259994 46.13665961
-40.25064927 43.0298994 189.3736876
-40.25064927 79.6806204 19.93273261
31.87230973 192.0513784 -9.739266898e-05
-36.25064927 106.8458344 138.9862936
-40.25064927 241.9047785 112.3336376
-36.25064927 13.0658584 44.04494561
1.366201728 -2.460200199e-05 64.24767361
20.34724873 166.0548764 151.9999026
-15.32830627 44.9696304 201.9999026
-36.25064927 180.9220454 38.56772661
-40.25064927 75.0881784 88.53428661
-29.58638827 221.7610485 -9.739266898e-05
-40.25064927 24.9776764 63.28561161
11.46409873 -2.460200199e-05 84.41518061
-40.25064927 155.1425694 93.65458361
-36.25064927 166.6080484 19.97378361
10.97962973 35.8875014 195.9999026
-36.25064927 112.8046954 16.05990261
-29.81342727 96.2026114 -9.739266898e-05
-40.25064927 184.5135164 118.7572076
-8.615928272 -2.460200199e-05 4.717577607
-15.79639927 222.3269365 -9.739266898e-05
25.14555373 7.996943398 201.9999026
-36.25064927 207.3890584 66.25623261
-40.54389627 15.5064884 194.9999026
-27.11647227 189.1662584 -9.739266898e-05
38.68276573 63.7827384 195.9999026
-36.25064927 10.1423014 102.1609886
-24.26321027 31.3312314 155.9999026
-36.25064927 3.492223398 48.12049261
-40.25064927 56.7519234 165.0862366
-40.25064927 125.4517414 21.07316461
-35.26914127 139.2793904 150.5466966
-31.84531827 127.8133714 -9.739266898e-05
25.10439973 108.2425494 155.9999026
-1.292905272 84.6368044 -9.739266898e-05
-40.25064927 134.6415694 34.68190261
13.23904373 -2.460200199e-05 31.50312061
-40.25064927 20.5353704 15.25382161
-36.25064927 52.2307384 62.87355161
29.17771873 111.8537874 -9.739266898e-05
-40.25064927 115.1952404 110.0902196
37.74935073 242.913846 155.6425406
-32.66612227 -2.460200199e-05 12.90805061
-37.07708727 249.6375189 -2.342749393
13.24933973 88.8427304 -9.739266898e-05
-23.55951327 24.6238494 195.9999026
-36.25064927 208.3067734 80.34824061
-40.25064927 67.4715024 140.9374746
-16.90114327 205.1705914 155.9999026
-36.25064927 121.8409114 51.23151161
24.65424873 251.5282447 -9.739266898e-05
-40.25064927 6.628047398 176.5837306
-31.22778027 171.0660004 151.9999026
24.49355973 96.2489434 155.9999026
33.05754173 20.0469004 201.9999026
-36.25064927 143.3115404 86.79377061
-40.25064927 209.4533204 30.90016361
-36.25064927 82.4250414 138.8482666
31.08426673 57.7846854 151.9999026
-40.25064927 161.9523024 116.2407026
-36.25064927 173.0022244 41.56723961
9.111322728 154.4150544 -9.739266898e-05
25.62404873 -2.460200199e-05 43.72065361
-23.08263327 -2.460200199e-05 39.97133061
-36.25064927 181.8657954 27.71538161
-40.25064927 87.3998024 21.44442261
-40.25064927 220.9530657 102.8474226
-40.25064927 27.0469124 178.9328986
-36.25064927 233.6486635 5.143438607
-36.25064927 180.5441964 131.3624506
-38.14926127 194.0774184 153.3637566
-36.25064927 34.4227914 102.2089986
-42.65855327 157.7718474 31.24464461
27.73584973 43.0749614 201.9999026
37.74935073 164.4204364 -0.6194583927
-25.55750427 54.6275634 201.9999026
-23.12457727 78.7257934 155.9999026
-40.25064927 87.2000004 62.31572961
11.97167973 96.6602054 151.9999026
-36.25064927 134.1237314 51.81444461
-34.56182427 41.6023004 151.1927966
-36.25064927 103.4606624 112.4061176
37.04970173 208.0660184 155.9999026
-4.238477272 -2.460200199e-05 177.3700796
15.94678973 0.499975398 155.3841526
-39.91732427 7.532293398 15.97711261
-40.25064927 101.9126834 87.63630561
-40.25064927 142.9194764 132.7404506
-36.25064927 39.4612484 32.25630261
-36.25064927 158.9987804 110.6595206
-36.31358827 -2.460200199e-05 177.5105586
-17.38860327 238.12759 151.9999026
38.37137873 18.5149254 195.9999026
-36.25064927 148.4107924 115.6889706
-22.16083127 181.4529114 151.9999026
-40.25064927 31.0221274 171.8934876
-27.19866627 37.6158634 195.9999026
-40.25064927 52.2573474 95.81633061
25.49706873 38.0911314 195.9999026
-40.25064927 217.0575948 137.9706866
-38.92199527 64.7710204 201.9999026
-40.25064927 38.8994054 63.16285861
-39.34092227 161.4225404 0.3360846073
-36.25064927 17.7809624 6.549927607
-40.25064927 163.6088064 66.08865661
-36.25064927 170.6902084 130.3259476
-40.25064927 32.5151524 14.35421861
16.51091873 187.4020674 -9.739266898e-05
-15.89102427 -2.460200199e-05 85.41535261
17.29494973 5.757932398 -9.739266898e-05
-40.25064927 38.0252164 96.57890561
31.10436173 -2.460200199e-05 18.44576761
-42.33527327 -2.460200199e-05 132.6433676
20.53865273 -2.460200199e-05 50.71572361
10.37136373 14.4905154 151.9999026
-36.14141527 27.1236494 148.5515486
-13.93095327 197.7989294 151.9999026
-11.63690927 37.2431824 201.9999026
10.91295073 227.5012559 151.9999026
-40.25064927 232.8652778 107.7062956
-17.25941527 16.4555044 155.9999026
-30.94506427 234.0383007 151.9999026
-18.39075827 140.0098864 -9.739266898e-05
-5.194822272 132.0355554 -9.739266898e-05
-36.25064927 122.5001664 37.03915961
3.612679728 73.6659894 -9.739266898e-05
-40.25064927 138.4889434 125.0098176
-36.25064927 24.9735954 115.1952876
-40.25064927 141.3337414 48.29814261
23.39232873 197.2966664 -9.739266898e-05
-39.45191227 135.1151934 0.5293126073
-43.14142427 0.499975398 150.0373936
-36.25064927 60.8258784 85.36839861
-40.25064927 132.0538364 102.8194396
-36.25064927 16.4400454 109.9396026
25.29458273 8.936709398 151.9999026
-1.886313272 113.2131334 155.9999026
-37.24641527 0.499975398 36.66279261
-40.25064927 61.5015784 110.6194746
26.98137473 36.1416464 155.9999026
-36.25064927 69.4230704 62.84630461
-40.25064927 65.0477744 19.65082361
4.480069728 96.3885794 -9.739266898e-05
-2.279349272 227.9914254 -9.739266898e-05
-7.233778272 201.9513124 151.9999026
18.91876673 65.1767344 201.9999026
-36.25064927 113.9278494 143.4724306
-40.25064927 13.1414804 80.96637961
3.696537728 168.9620064 -9.739266898e-05
-36.25064927 127.0313874 89.03748661
-27.42064527 149.0814124 151.9999026
27.38441373 85.5611034 -9.739266898e-05
-36.25064927 137.4208674 119.0262396
29.57296873 241.7025026 -9.739266898e-05
-36.25064927 148.3172774 6.711360607
-12.00262127 13.7067244 195.9999026
1.961834728 43.0896574 201.9999026
-30.87391427 248.514658 155.9999026
-35.45033027 18.1774484 201.9999026
40.51854073 -2.460200199e-05 67.19450761
-40.25064927 47.3089774 77.51815261
22.56241873 244.8939987 155.9999026
-6.040618272 171.4933674 -9.739266898e-05
15.52321873 59.5797364 155.9999026
17.43721473 5.806176398 201.9999026
-40.25064927 241.4127794 98.03902661
-4.445102272 49.0036534 201.9999026
27.68947273 207.8572954 -9.739266898e-05
12.70938973 18.7597224 -9.739266898e-05
-28.68267227 60.0476054 195.9999026
-27.05795227 -2.460200199e-05 140.3682766
32.57719973 172.0129524 155.9999026
37.23268573 13.0404634 201.9999026
7.765504728 166.5579124 155.9999026
8.210592728 135.3864424 -9.739266898e-05
37.74935073 84.6213524 152.1632466
-25.29082727 93.1715174 155.9999026
-36.25064927 211.3198594 135.0594926
-40.25064927 28.5945454 189.4118126
-36.25064927 39.3599364 120.5264766
-8.236132272 87.0541604 151.9999026
36.25500673 31.8442854 201.9999026
-40.25064927 226.8877275 140.3676406
43.42185673 58.7439914 195.9999026
-33.55351327 139.6514124 0.2519866073
-6.456516272 31.5999444 151.9999026
-36.25064927 225.3040853 117.9857046
33.36809573 68.1207314 151.9999026
-40.25064927 89.0223114 92.39140361
-0.6260462718 -2.460200199e-05 164.6400866
-40.25064927 246.1729482 62.27502161
43.48482073 -2.460200199e-05 178.9180216
20.00889273 43.7284714 195.9999026
-36.25064927 36.6560914 135.9546066
31.50311573 29.1018124 155.9999026
-19.95781427 89.8883474 -9.739266898e-05
35.61283473 -2.460200199e-05 7.345603607
-40.25064927 20.2589784 124.7005536
-40.25064927 229.4467007 41.88595461
-40.25064927 31.1700204 53.45895761
-36.25064927 184.0967744 13.32986961
-4.125891272 227.8219522 155.9999026
-30.03072427 -2.460200199e-05 59.55875561
-40.25064927 92.1014244 48.97828761
-8.267622272 -2.460200199e-05 50.53839761
26.24021373 77.5386074 -9.739266898e-05
11.50318273 202.7978394 155.9999026
-40.25064927 175.4248034 74.03526061
-40.25064927 186.4583844 38.96665461
18.58000173 212.7936183 151.9999026
28.39973973 8.398713398 195.9999026
-36.25064927 205.6283834 106.2654876
-12.45981327 222.2319719 151.9999026
-40.25064927 229.1549225 99.87505361
-40.25064927 140.2909614 40.64355761
6.101150728 4.658028398 195.9999026
13.80108473 19.2427064 155.9999026
-23.35930727 156.8557864 -9.739266898e-05
21.61352773 37.1598934 201.9999026
-36.25064927 195.2496284 41.65752561
-40.25064927 104.6049094 133.7349286
-11.55083927 20.1385354 155.9999026
-36.25064927 186.3423424 85.66970461
-29.64859627 2.279295398 201.9999026
-13.56167927 5.944100398 155.9999026
29.69438273 -2.460200199e-05 30.04252761
16.70214173 -2.125325602 201.9999026
-40.25064927 210.5915394 122.8365686
30.56422573 47.7172284 195.9999026
-36.25064927 206.4218164 146.8216326
-36.25064927 88.6631154 35.29982961
-40.25064927 144.8105884 109.0521046
-40.25064927 102.6454304 57.98501061
30.21063673 31.5828614 195.9999026
2.512178728 55.1576084 201.9999026
-15.57072227 147.2539194 155.9999026
4.266723728 100.5701454 155.9999026
-32.67901427 51.8745204 151.9500556
-40.25064927 39.5684264 166.5022046
-36.25064927 13.0388484 37.10982161
-39.72393527 241.1521619 35.49068061
35.26375073 -2.460200199e-05 180.7170816
-6.890629272 124.6139144 151.9999026
20.43372773 111.5645274 151.9999026
-13.04371127 227.8141668 155.9999026
-36.25064927 189.1549334 147.6641046
24.71290473 24.8593014 -9.739266898e-05
-40.25064927 208.5092624 98.87640261
18.87129573 104.9601604 155.9999026
15.19594973 63.0199454 -9.739266898e-05
-40.25064927 217.8602533 19.78483161
-16.97981727 -2.460200199e-05 117.5213416
-40.25064927 166.2889144 54.79074761
-36.25064927 239.0660082 18.84169161
-23.40706227 242.3894494 155.9999026
-2.899686272 -2.460200199e-05 195.4923686
-40.06680327 45.4323274 2.420506607
-36.25064927 66.6828544 113.7548376
31.57219273 57.2309074 -9.739266898e-05
-36.25064927 54.6813464 29.02537561
22.43889873 50.9878924 155.9999026
-40.25064927 152.1019784 50.78760361
22.44521273 57.5464574 151.9999026
32.33998773 40.3371384 155.9999026
-36.25064927 104.6129684 126.4132276
-36.25064927 111.2975054 80.91672061
0.04651972818 -2.460200199e-05 52.30378061
-7.435362272 -2.460200199e-05 114.7450416
-36.25064927 79.7746014 43.18093761
16.37090573 156.7529864 151.9999026
-40.25064927 85.5284124 55.39986061
-36.25064927 112.0188434 98.11214261
26.89885573 -2.460200199e-05 78.08810861
-36.25064927 109.2645704 65.47999461
14.93687473 -2.460200199e-05 58.71214161
-35.81808827 166.0165444 149.7285266
-6.849829272 202.9835264 -9.739266898e-05
-36.25064927 199.5904174 35.08094561
-18.62755427 204.5921674 -9.739266898e-05
-36.25064927 117.6700574 89.69704361
9.401758728 48.6530514 201.9999026
-40.25064927 34.1853624 123.8304246
2.653227728 59.0433264 -9.739266898e-05
-40.25064927 81.1760484 95.30407761
33.49215473 56.1144274 201.9999026
-40.25064927 53.9459754 147.7322486
-36.25064927 248.1004583 43.23452561
-7.795849272 7.040097398 195.9999026
-40.25064927 75.8462834 112.0185886
-17.96138727 231.7738947 -9.739266898e-05
6.090081728 -2.460200199e-05 88.21572361
-21.52284527 217.7288681 -9.739266898e-05
-40.25064927 190.2471564 48.65854561
-36.25064927 197.5029624 121.9286946
-40.25064927 161.6198054 38.10784361
-21.16143027 23.4102314 201.9999026
13.92529173 -2.460200199e-05 101.1663156
-40.25064927 52.8192714 22.00264761
-22.08651927 71.6663574 -9.739266898e-05
-16.41185627 176.7075184 155.9999026
-19.44998427 -2.460200199e-05 22.43446061
-36.09021627 214.4369723 2.921733607
7.619852728 217.3302951 155.9999026
-40.25064927 184.4253944 106.9759386
-16.98248627 -2.460200199e-05 130.4995116
-1.490306272 124.4792554 -9.739266898e-05
-36.25064927 218.4649233 56.07115061
1.229547728 136.6676124 155.9999026
-36.25064927 14.6391494 127.2146106
23.88463873 58.7250224 195.9999026
26.16393573 85.1299874 151.9999026
-40.25064927 146.2935394 145.7395866
-43.46141727 103.2849184 72.56166161
-34.32717527 8.967145398 195.9999026
16.13316973 -2.460200199e-05 174.1443656
-14.61765427 -2.460200199e-05 54.22796361
-40.25064927 239.4101361 128.4727436
-40.25064927 75.9643114 152.1592996
-40.25064927 6.278447398 140.8840006
-36.25064927 137.6308424 59.38304661
-7.384521272 109.9358964 151.9999026
-40.25064927 42.7639464 138.2677866
5.290304728 -2.460200199e-05 138.0120586
-36.25064927 192.6885524 129.7628316
-36.25064927 156.1005164 128.4521686
-40.25064927 107.1355214 40.72908761
-40.25064927 83.0532194 104.8655596
-36.25064927 75.0422904 38.44442461
-40.25064927 47.5379624 130.5119296
8.342076728 75.1704054 151.9999026
-40.25064927 139.4860444 17.66337461
-17.10057327 96.0552944 155.9999026
38.33436473 44.5549484 195.9999026
-7.994804272 53.4604244 155.9999026
17.37807873 13.0259324 -9.739266898e-05
-35.80453427 64.3437114 149.7439676
-40.25064927 103.3988174 23.58894161
-41.87590327 36.2307294 201.9999026
-40.25064927 203.4184464 126.3864586
-36.25064927 173.2574604 17.69350061
-40.25064927 250.8934838 28.23902261
-35.95097727 44.2910544 195.9999026
-36.25064927 142.1980954 94.05113061
-40.25064927 64.9456874 70.52787761
-29.47815327 -2.460200199e-05 65.99701361
37.74935073 38.9756924 152.3097176
-36.25064927 222.3711282 41.14474461
-36.07859427 118.2026984 2.891858607
-40.25064927 124.9641284 124.3706486
-40.25064927 5.742740398 8.019100607
-40.25064927 130.9282404 130.9676476
-36.25064927 178.8845154 65.51781261
-23.45840227 189.8770694 155.9999026
-40.25064927 153.5975474 134.8215976
4.772128728 171.7243754 151.9999026
-19.82552727 168.1564344 151.9999026
-27.35758927 85.0387234 151.9999026
-22.86325727 47.7306574 -9.739266898e-05
-36.25064927 199.8871254 62.23441761
-40.25064927 118.5976514 19.78622161
-40.25064927 39.6147694 56.39219761
-40.25064927 92.9334034 75.79254461
-40.25064927 11.6194524 118.8690956
37.75880673 -2.460200199e-05 79.80477261
36.59722073 79.6505834 155.9999026
-20.93749027 2.191719398 195.9999026
-40.25064927 51.2103184 15.62525161
-36.25064927 122.1856654 137.1257396
8.516432728 242.4574866 155.9999026
-40.25064927 234.6811724 87.00154661
-40.25064927 200.0667754 49.60805961
7.800711728 -2.460200199e-05 49.45244861
-13.20651427 208.4873204 151.9999026
-40.25064927 31.2732984 43.92163861
-40.25064927 189.9772894 20.25717161
-40.25064927 223.7905094 96.43703361
-36.25064927 141.7323164 6.246578607
-36.25064927 34.8803774 90.98519461
-24.54253927 140.6292004 151.9999026
-40.25064927 40.4967364 26.74242061
-36.25064927 57.1388684 49.78445061
-11.14474527 239.3392908 151.9999026
14.82449473 7.264368398 151.9999026
-5.517084272 187.2580884 151.9999026
-40.25064927 224.574199 24.31228861
-40.25064927 69.2572814 79.21764561
-36.25064927 6.835957398 35.75386661
-7.560556272 64.9636224 151.9999026
-39.11494727 234.2012984 152.0543716
-37.79139727 53.0845164 195.9999026
-36.25064927 111.1871184 132.9833906
-36.25064927 151.3596764 105.0515026
41.63118973 -2.460200199e-05 146.4674686
-40.25064927 186.8434214 142.6132156
24.89918073 177.3520334 151.9999026
-42.64508627 -2.460200199e-05 166.6304876
-3.125322272 57.6523564 151.9999026
-40.25064927 161.8540534 21.18211761
29.26655973 -2.460200199e-05 95.49027161
10.33698873 28.0991184 155.9999026
-23.82959927 84.3419314 -9.739266898e-05
-36.25064927 212.5030844 90.83579261
22.73812473 13.1108234 155.9999026
-40.25064927 49.0416994 85.24791561
-40.25064927 228.775896 4.749394607
-36.25064927 121.9961804 109.3686806
-18.88140227 1.873709398 152.7709486
-40.25064927 58.1318664 100.0180926
-36.25064927 211.7219704 111.1123566
-40.25064927 206.1506934 46.78433461
-36.25064927 174.0938704 61.12552361
-40.25064927 173.6892784 47.98446661
-4.193273272 165.1129414 155.9999026
36.51081473 237.7751348 -9.739266898e-05
-36.25064927 234.5375134 69.65018061
-34.71447227 211.2252594 155.5726396
-4.473922272 105.6025144 155.9999026
6.044891728 42.2781014 155.9999026
-40.25064927 57.4533274 14.56229961
21.87991673 -2.460200199e-05 157.6955026
-36.25064927 26.0830174 78.58409161
10.61150573 23.0944034 201.9999026
-40.25064927 11.9478424 158.0280756
3.651831728 103.5706434 -9.739266898e-05
-13.60411927 16.5182114 201.9999026
-34.63542627 27.7578524 201.9999026
-36.25064927 130.0556734 68.07530861
-40.25064927 245.3028378 122.7532106
-36.25064927 104.4042654 81.84363561
-40.25064927 73.6513424 103.0563336
-36.25064927 245.4699613 76.07379661
-10.91737427 43.0251724 -9.739266898e-05
-36.25064927 199.6931784 70.07577261
-40.18881327 40.5941404 148.6244306
7.585755728 -2.460200199e-05 105.7660106
-34.41279227 0.823520398 195.9999026
-40.25064927 202.9983284 5.812297607
-40.25064927 58.8596914 128.7124396
-40.25064927 68.1435354 36.34303261
22.21074673 231.6580618 155.9999026
-35.93265027 90.3563684 2.474058607
-40.25064927 175.3224574 93.56839861
-40.25064927 5.684442398 160.1549586
21.37918273 117.4245684 -9.739266898e-05
-36.25064927 211.1923764 26.43277861
-36.25064927 75.4084544 137.1678806
-19.45113527 132.4361404 155.9999026
-40.25064927 81.2305154 75.35911261
-36.25064927 192.8950194 70.61317061
-3.678538272 53.0215694 -9.739266898e-05
-18.16160027 39.8676534 151.9999026
10.24198873 177.6197964 151.9999026
-40.25064927 103.3640884 51.80873061
37.28497573 123.4586134 151.9999026
-36.25064927 135.2620594 29.99277761
1.489567728 20.6862744 195.9999026
-11.38372627 -2.460200199e-05 27.13270461
-40.25064927 238.4683532 4.935312607
-40.25064927 232.245805 118.5871796
33.04234373 92.4480154 155.9999026
-36.25064927 46.0487904 66.01504461
-2.878709272 26.2554524 195.9999026
-36.25064927 180.0134964 117.4392216
-40.25064927 9.967557398 128.2543216
-36.25064927 69.7016774 70.87054961
3.944770728 45.2104894 195.9999026
-40.25064927 200.7754854 22.53585261
-40.25064927 108.0154354 111.3394656
-40.25064927 24.9476024 36.75322261
-36.25064927 192.1623704 100.4094386
-36.25064927 191.4236344 80.57726061
-18.29856427 219.286308 155.9999026
-39.88127627 57.6510684 201.9999026
-40.25064927 41.7030814 109.5788106
-36.25064927 225.3197445 67.72784361
6.763093728 128.2823464 155.9999026
-36.25064927 19.7672144 59.33893461
-36.25064927 46.6509754 14.70757261
-36.25064927 145.5498964 50.26017761
-40.25064927 116.7660554 37.99635361
32.77346473 37.8190154 201.9999026
-40.25064927 13.6889604 23.93781161
-40.25064927 184.6942344 75.17386861
-29.36426327 46.8536094 201.9999026
-15.96519827 53.0843604 -9.739266898e-05
-37.64679827 220.1082876 -1.873352393
-40.25064927 236.0051144 135.3236186
-40.25064927 199.5451154 92.88947661
-36.25064927 205.8440904 94.36644461
-23.00844627 62.8263214 201.9999026
-36.25064927 236.8859869 52.20178161
33.54731673 -2.460200199e-05 132.5988326
-34.26663527 109.2458384 0.6271206073
-36.25064927 189.7490784 116.1698276
-15.51606227 142.2834844 151.9999026
-12.66620827 29.5173244 151.9999026
-21.09069927 51.1609794 155.9999026
-40.25064927 24.6505314 128.9165826
-36.25064927 52.1818604 77.47066961
-40.25064927 34.2815174 179.8441486
38.92272573 -2.460200199e-05 51.85703461
-40.25064927 118.9048414 74.43540161
-40.25064927 16.6987664 90.20662761
-36.25064927 109.3537954 75.16504161
-36.25064927 29.9971914 111.7925856
-13.22691227 185.4060424 151.9999026
14.97952773 86.5088624 151.9999026
14.72304573 -2.460200199e-05 46.28777261
17.48551773 77.4835124 155.9999026
-36.25064927 64.2269524 105.0510996
-36.25064927 179.0682184 9.435511607
-29.75187727 -2.460200199e-05 147.1023416
-36.25064927 59.2915884 40.87209261
-40.25064927 193.8636064 137.4578776
19.60644973 51.6563044 201.9999026
-36.25064927 49.4837734 5.132110607
-40.25064927 183.3678884 66.00762661
-40.25064927 86.1631524 86.18253961
4.101478728 18.7518894 -9.739266898e-05
-36.25064927 152.7844274 71.96111261
-40.25064927 194.2459414 104.4040866
-40.25064927 139.3838744 69.61861561
-36.25064927 52.2676654 53.66024661
36.34669473 -2.460200199e-05 149.3419976
-36.25064927 126.3618224 102.1841836
17.00640973 -1.958665602 195.9999026
-36.34171327 179.5699684 154.8394936
17.56317673 -2.460200199e-05 93.74022561
4.209843728 108.9553834 155.9999026
-23.51739927 -2.460200199e-05 181.2012096
-36.25064927 101.6095514 43.59583461
-16.78790427 78.2250884 151.9999026
-36.25064927 85.6972454 8.601158607
-36.25064927 190.1820794 27.76383661
-6.566943272 -2.460200199e-05 13.99637461
-41.36167927 114.2987264 53.88093761
-36.25064927 146.5717494 32.24357661
-2.092054272 41.4355254 195.9999026
-36.25064927 19.3274554 133.9058726
36.10032573 103.8953934 155.9999026
-36.25064927 73.4045024 120.4965156
-36.25064927 168.2983504 30.58011961
-21.15290627 -2.460200199e-05 91.01016861
-36.25064927 78.7556834 55.20485661
-40.25064927 130.3172744 4.062048607
-36.25064927 73.6635014 58.32419261
-12.95419127 67.3847404 -9.739266898e-05
-40.25064927 44.2012444 155.7229296
23.99157973 -2.460200199e-05 12.25988861
-7.209053272 14.5006274 155.9999026
-35.62181327 114.1125014 155.2530066
12.28983273 173.7327844 155.9999026
-34.62819527 245.3341886 151.1455776
-36.25064927 166.6332744 88.32892961
-11.35142727 21.1393554 195.9999026
-30.82333927 130.0537964 151.9999026
-36.25064927 81.8968234 144.7560216
-36.25064927 242.1685154 145.5925086
-5.586965272 -2.460200199e-05 170.5949216
19.08829773 149.4710044 155.9999026
-36.25064927 207.4024134 139.9846896
-36.25064927 0.565988398 74.27533661
23.71233173 72.4353434 155.9999026
-21.00459127 150.8980784 155.9999026
14.49324173 121.2832974 151.9999026
-36.25064927 185.7976224 47.37324861
-40.25064927 15.1163634 105.0323716
-40.25064927 65.2338464 61.66242061
-40.25064927 171.9241234 115.0643806
-18.83906927 68.7708734 151.9999026
-36.25064927 21.9957454 144.5173846
-36.25064927 91.5713574 62.09660661
-40.25064927 8.200583398 114.0690136
-13.73445927 -2.460200199e-05 63.84752061
-40.25064927 30.8056454 73.88375061
18.31718873 56.8258014 195.9999026
-40.25064927 98.9133324 31.79072261
-40.25064927 27.0602324 106.1453956
-9.844541272 -2.269492602 195.9999026
2.353545728 85.7579084 151.9999026
-36.25064927 158.1650184 28.13794661
-40.25064927 118.0706474 131.5169006
-40.25064927 51.4081874 121.6496636
-36.25064927 215.5449043 75.86055061
-40.25064927 238.0770182 92.39440761
3.831057728 146.7850624 155.9999026
-36.25064927 52.8175454 35.14729561
-40.25064927 70.1792644 9.911138607
-7.295680272 239.5530943 -9.739266898e-05
7.388021728 184.8555734 151.9999026
-10.65378627 213.6774368 -9.739266898e-05
-36.25064927 57.6829884 75.36310061
10.42807873 161.4338604 -9.739266898e-05
-40.25064927 171.5632354 98.67709561
-36.25064927 17.5363714 27.12753761
-36.25064927 158.7928054 104.3120546
-36.25064927 94.4511994 37.30782461
-36.25064927 163.2210424 57.71393461
33.17063373 203.7211604 155.9999026
30.11781773 155.2724814 151.9999026
-32.82921227 82.7792684 0.1111836073
-40.25064927 65.6470514 133.7672686
-36.25064927 93.4802714 107.8924716
-36.25064927 50.3841464 99.59646561
34.19648773 -2.460200199e-05 172.2791756
-0.2565212718 80.4347894 155.9999026
-40.25064927 10.1273254 73.74972761
-28.97160927 157.1502714 151.9999026
-36.25064927 65.0356454 7.270943607
-36.25064927 87.6595904 141.6540306
6.450603728 200.6843864 151.9999026
-36.25064927 30.8548034 136.0099436
-40.25064927 131.1471034 22.15944461
-3.110395272 126.4369794 155.9999026
15.02622773 0.499975398 -0.9037443927
-40.66268827 25.4999754 83.32959461
-36.25064927 174.7478024 125.2262246
-24.41277227 25.4753844 151.9999026
-36.25064927 98.7911004 97.43726661
12.41726873 67.2876514 151.9999026
-1.520776272 70.9974844 -9.739266898e-05
-40.25064927 15.4188994 17.95440761
-22.86882027 -2.460200199e-05 171.6368226
-40.25064927 161.4176964 85.16592561
31.99285673 194.4540754 151.9999026
40.40334073 -2.460200199e-05 114.1593936
-40.25064927 138.8102624 10.44252561
-35.80599327 99.2340744 2.205720607
-40.25064927 79.2115814 118.8066566
-23.92098227 62.7698144 151.9999026
-36.25064927 218.9731832 96.95104161
37.74935073 149.5627544 154.1147366
-40.25064927 21.7691354 68.70637761
-40.61396227 23.3771044 194.9999026
-40.25064927 158.2133674 6.800293607
32.16185073 -2.460200199e-05 86.47052361
-32.07505127 187.4887644 151.9999026
-40.25064927 16.1924374 168.4133806
22.51503373 -2.460200199e-05 38.87775561
-40.25064927 56.1469324 4.911353607
-34.96298427 60.9873144 155.4819316
-36.25064927 240.9952897 86.82046661
-36.25064927 148.0054274 65.85028861
-36.25064927 90.5235714 82.57091661
-4.657810272 32.2093194 201.9999026
-24.43551127 48.0057214 195.9999026
-40.25064927 99.1218454 65.46847961
-36.25064927 221.7749513 74.20030061
-36.25064927 202.3503064 10.67743861
9.956164728 19.2022324 195.9999026
20.36737773 -2.460200199e-05 131.5684746
-40.25064927 171.8223594 56.21230461
-36.25064927 188.3296654 105.7950436
-40.25064927 56.8480084 53.85008061
-40.25064927 200.7022084 103.1072656
-40.25064927 151.7872864 144.1884566
-40.25064927 193.8061534 57.93929461
15.21516973 99.2230184 155.9999026
