# .PCD v0.7 - Point Cloud Data file format
VERSION 0.7
FIELDS x y z
SIZE 4 4 4
TYPE F F F
COUNT 1 1 1
WIDTH 1239
HEIGHT 1
VIEWPOINT 0 0 0 1 0 0 0
POINTS 1239
DATA ascii
-104.499785 33.53503039 54.85486161
-75.041887 34.13129839 -9.738563813e-05
26.864459 18.57070239 -9.738563813e-05
-95.523396 -2.460743394e-05 75.92197861
-105.703136 -2.460743394e-05 44.17340161
-115.759298 66.95424739 -9.738563813e-05
-121.136692 -2.460743394e-05 131.2976426
-104.499785 24.37432539 8.176135614
-85.310036 -2.460743394e-05 251.5013476
-3.512183999 -2.460743394e-05 229.0646926
-91.966761 -2.460743394e-05 106.1183676
-20.04568 -2.460743394e-05 160.8747666
-110.499785 14.49936239 88.15682761
19.464403 -2.460743394e-05 252.2800376
80.076486 -2.460743394e-05 77.28871161
75.121993 55.45493539 -9.738563813e-05
-15.269968 -2.460743394e-05 180.5860176
-1.758133999 -2.460743394e-05 64.39527661
-4.781723999 -2.460743394e-05 32.48392461
-113.509206 -1.920820607 -9.738563813e-05
41.209173 -2.460743394e-05 176.5633676
-73.179539 -2.460743394e-05 147.8466216
107.143683 32.22861039 -9.738563813e-05
93.716933 -2.460743394e-05 103.4063406
127.506277 1.422797393 -9.738563813e-05
-106.410018 49.99997539 20.09426461
-110.499785 11.49595839 15.10698261
20.199288 -2.460743394e-05 180.7026206
47.141575 -2.460743394e-05 194.9505916
16.75303 67.99997539 -0.9003083856
50.272723 -2.460743394e-05 209.8794826
80.455852 22.96576339 -9.738563813e-05
37.756947 -2.460743394e-05 128.2746446
-30.971306 -2.460743394e-05 130.5573986
-68.672053 -2.244619607 -9.738563813e-05
68.378208 -2.460743394e-05 166.8312606
-115.980407 -2.460743394e-05 251.7536436
69.714652 -2.460743394e-05 144.1848546
-95.615087 -2.460743394e-05 32.05085061
3.818501001 -2.460743394e-05 97.33962961
-53.927158 37.29527339 -9.738563813e-05
-90.567199 -2.460743394e-05 229.8937146
-76.403561 -2.460743394e-05 187.9861316
-48.928417 16.75488239 -9.738563813e-05
-51.533065 -2.460743394e-05 117.4811396
-124.91414 35.26783339 -9.738563813e-05
65.72638 -2.460743394e-05 191.2177186
116.051272 -2.460743394e-05 35.71817361
75.770526 -2.460743394e-05 237.9230976
74.269364 -2.460743394e-05 126.1822796
-122.548612 -2.460743394e-05 33.68662661
89.942723 -2.460743394e-05 32.54861661
127.652607 -2.460743394e-05 183.6297056
-104.499785 27.35259339 38.38695961
34.486796 -2.460743394e-05 65.29857261
-110.499785 32.87522439 239.8499696
-86.989523 -2.460743394e-05 161.8369936
57.770678 -2.460743394e-05 115.7635526
-104.499785 32.31415139 131.4058186
-27.085219 -2.460743394e-05 238.2276776
-110.499785 15.31972139 177.0767376
-3.357277999 28.81747739 -9.738563813e-05
-64.604928 63.13891939 -9.738563813e-05
70.323362 -0.8535666074 -9.738563813e-05
-110.393539 49.99997539 219.4772136
-104.499785 20.08011639 24.26316161
0.6858180013 -2.460743394e-05 126.8239576
106.460907 -2.460743394e-05 231.5769906
83.529813 -2.460743394e-05 13.69085261
-75.471888 11.18464539 -9.738563813e-05
127.391149 -2.460743394e-05 240.4617306
42.509361 59.15403639 -9.738563813e-05
-59.324155 -2.460743394e-05 232.1400386
128.360967 -2.460743394e-05 133.6051086
97.954621 -2.460743394e-05 140.1501666
-110.499785 6.288155393 77.18912861
-110.499785 34.57234239 101.9782406
-114.025713 -2.460743394e-05 169.0513996
-90.921849 -2.460743394e-05 134.2859186
-99.614571 -2.460743394e-05 210.0303976
-48.125087 -2.460743394e-05 181.9477996
-104.499785 9.638730393 145.6781196
-34.821339 -2.460743394e-05 188.7466506
37.624679 -2.460743394e-05 22.78792861
-43.204166 -2.460743394e-05 159.3022346
10.012747 -2.460743394e-05 228.6938846
-23.080832 -2.460743394e-05 66.72592761
39.604058 -2.460743394e-05 161.0726546
59.39185 -2.460743394e-05 42.91438961
84.607484 -2.460743394e-05 215.2830086
-27.304208 -2.460743394e-05 106.9683096
6.817827001 -2.460743394e-05 171.1873956
-110.499785 37.79477639 194.9927036
21.346252 -2.460743394e-05 136.0983086
92.795329 -2.460743394e-05 237.1545246
96.131423 -2.460743394e-05 168.7521796
-110.499785 21.47718439 195.7986456
-104.499785 49.54897439 93.65870961
-125.524426 -2.460743394e-05 20.08595061
96.319528 -2.460743394e-05 73.94940161
67.935269 -2.460743394e-05 95.95799761
62.585581 -2.460743394e-05 68.97681361
114.711539 18.49685639 -9.738563813e-05
-28.099592 3.287601393 -9.738563813e-05
-104.499785 9.392135393 129.1289186
111.865317 -2.460743394e-05 95.31452461
-60.221584 -2.460743394e-05 146.7482906
46.753391 -2.460743394e-05 60.98526061
-108.673321 49.99997539 239.5241086
60.608914 -2.460743394e-05 218.2461786
110.051579 -2.460743394e-05 56.75715061
-74.301409 -2.460743394e-05 101.5207766
57.901144 32.41105239 -9.738563813e-05
35.621804 31.35719039 -9.738563813e-05
11.852154 -2.460743394e-05 6.592432614
-34.672026 67.99997539 -2.265585386
-42.320303 56.18860039 -9.738563813e-05
118.031491 -2.460743394e-05 162.0832726
-111.534783 -2.460743394e-05 21.24787261
-118.891209 9.502007393 -9.738563813e-05
-110.499785 37.42050339 177.2869546
-104.499785 38.23012439 216.8464986
90.696734 31.54204939 -9.738563813e-05
-104.499785 49.44882139 146.9369796
23.337958 -2.460743394e-05 15.32354161
45.46219 -2.460743394e-05 12.36223161
-125.722812 -2.460743394e-05 102.7043216
-110.499785 12.92754439 63.67149761
-61.177292 -2.460743394e-05 174.7146866
37.834127 -2.460743394e-05 208.4114646
-111.869798 -2.460743394e-05 201.2015906
-107.018887 49.99997539 196.4680506
-41.946677 32.22688739 -9.738563813e-05
15.242872 -2.460743394e-05 37.15494461
-109.8377 49.99997539 69.16304861
-87.211038 -2.460743394e-05 94.70218561
-43.811787 -2.460743394e-05 27.06636061
18.977974 -2.460743394e-05 216.0637736
-104.499785 14.60592939 111.2603856
32.260061 6.331043393 -9.738563813e-05
-104.499785 8.461179393 53.05012061
71.770586 -2.460743394e-05 51.85662161
17.156736 -2.460743394e-05 110.3358916
-10.534865 -2.460743394e-05 217.6952446
110.155161 -2.460743394e-05 199.5224376
-110.499785 41.76388439 43.35402561
-63.211382 11.17231739 -9.738563813e-05
115.449239 -2.460743394e-05 119.5339736
107.359118 -2.460743394e-05 25.17871661
-26.950954 53.08716139 -9.738563813e-05
-88.05625 -2.460743394e-05 15.17709261
11.367354 37.02509939 -9.738563813e-05
17.79753 10.07933639 -9.738563813e-05
94.272626 -2.460743394e-05 155.1009856
94.296151 58.93955239 -9.738563813e-05
-110.499785 49.35199639 1.504551614
-121.457487 -2.460743394e-05 157.6133646
-67.35453 -2.460743394e-05 72.44191661
11.079262 -2.460743394e-05 243.6160776
-104.499785 9.819828393 167.7241496
109.460025 -2.460743394e-05 81.62333061
115.305024 -2.460743394e-05 223.5080036
1.400278001 12.62759439 -9.738563813e-05
37.854222 -2.460743394e-05 239.4166706
-15.411235 -2.460743394e-05 75.88903561
-8.781776999 -2.460743394e-05 152.2120526
79.443273 -2.460743394e-05 92.86696561
-104.499785 13.00301639 214.1546986
-69.777889 -2.460743394e-05 11.60983061
-40.913948 -2.460743394e-05 170.9734306
-104.499785 45.64612639 117.6659716
-9.232913999 61.98920039 -9.738563813e-05
56.109016 19.86895939 -9.738563813e-05
98.81968 -2.460743394e-05 212.4871386
-49.779648 -2.460743394e-05 67.31408061
-25.854296 -2.460743394e-05 216.7277896
-50.085557 -2.460743394e-05 250.1538926
48.733485 -2.460743394e-05 248.6849206
-97.387036 -2.460743394e-05 156.4557366
48.282186 -2.460743394e-05 123.1709336
128.064639 -2.460743394e-05 99.64727061
-110.499785 25.56383339 60.88050861
-110.499785 7.087377393 119.3858026
7.509323001 -2.460743394e-05 77.12139061
82.26194 44.67094539 -9.738563813e-05
67.339305 64.01403439 -9.738563813e-05
-96.578238 -2.460743394e-05 1.159712614
-102.592067 32.32688339 -9.738563813e-05
-18.919124 -2.460743394e-05 246.3947646
23.21116 -2.460743394e-05 147.4871786
-82.132433 -2.460743394e-05 33.35681561
-104.499785 46.17722739 172.9066486
-42.431028 -2.460743394e-05 5.260745614
37.373893 -2.460743394e-05 35.92729961
51.573245 -2.460743394e-05 83.00379061
76.291697 11.14479439 -9.738563813e-05
-41.735243 -2.460743394e-05 92.18267961
-76.131771 22.49608239 -9.738563813e-05
6.470361001 -2.460743394e-05 56.60836561
-110.427416 -2.460743394e-05 213.3847856
89.724401 -2.460743394e-05 187.8031996
-26.781385 -2.460743394e-05 79.18959261
-104.499785 24.96256239 234.4712636
-36.299642 -2.460743394e-05 118.0924036
55.420569 5.988046393 -9.738563813e-05
-66.8968 -2.460743394e-05 211.6628756
-94.24095 -2.460743394e-05 241.1144216
-107.709233 -2.460743394e-05 236.6000836
42.423619 -2.460743394e-05 138.4966936
-61.47078 -2.460743394e-05 27.78947261
-21.733358 -2.460743394e-05 148.4689346
-97.071452 -2.460743394e-05 53.69660561
-116.087476 -2.460743394e-05 144.9518146
-10.974329 3.049793393 -9.738563813e-05
98.543311 0.2499753926 -0.6121413856
-110.499785 13.35902039 188.0144276
68.401699 22.55241639 -9.738563813e-05
4.925551001 -2.460743394e-05 198.5849796
-57.834996 -2.460743394e-05 78.15761961
100.597868 -2.460743394e-05 94.80034061
-110.499785 19.32329839 151.3844256
-3.414855999 -2.460743394e-05 240.0759506
70.018168 -2.460743394e-05 247.3010446
111.209445 65.21342839 -9.738563813e-05
22.502912 46.84320039 -9.738563813e-05
-65.534635 -2.460743394e-05 122.9546046
-110.499785 41.34702739 89.30554961
-26.156033 -2.460743394e-05 18.71835661
13.716059 -2.460743394e-05 26.33422561
-80.80586 52.97425439 -9.738563813e-05
-9.210921999 -2.460743394e-05 116.6166426
-60.74499 -2.460743394e-05 221.2880666
-88.925636 66.58213439 -9.738563813e-05
-12.129977 -2.460743394e-05 40.85642161
27.809803 -2.460743394e-05 83.20885161
122.772916 33.92693139 -9.738563813e-05
-110.499785 27.33937639 172.9909626
-114.35505 -2.460743394e-05 85.08976561
107.499727 44.67108139 -1.333862386
-104.499785 13.37772339 249.3145226
-124.646806 60.86677739 -9.738563813e-05
21.906115 -2.460743394e-05 98.98588961
-91.566538 -2.460743394e-05 187.4577776
-18.971598 -2.460743394e-05 131.3398256
-3.097558999 45.04591439 -9.738563813e-05
-104.499785 13.28470539 42.93676961
86.044532 -2.460743394e-05 110.9700186
-104.499785 8.794190393 102.3585686
128.730214 54.28812539 -9.738563813e-05
45.2074 8.766881393 -9.738563813e-05
-2.448443999 -2.460743394e-05 137.9734466
-12.188352 -2.460743394e-05 62.81244761
41.626824 -2.460743394e-05 218.2503826
97.137429 -2.460743394e-05 246.7624966
-111.511282 -2.460743394e-05 52.96752261
-118.705856 -2.460743394e-05 182.6704106
74.882732 -2.460743394e-05 61.87993661
65.561744 -2.460743394e-05 31.21355361
-78.739817 -2.460743394e-05 44.93176661
85.176376 -2.460743394e-05 121.8928836
-52.28847 -2.460743394e-05 98.87460961
3.870976001 -2.460743394e-05 154.8099236
-104.499785 28.38405939 220.1982696
-110.499785 43.49976039 28.76642161
-110.499785 28.36526739 79.19499561
126.100651 -2.460743394e-05 25.46767861
126.094553 -2.460743394e-05 207.1617686
88.663648 -2.460743394e-05 51.14975961
-110.499785 29.55125839 153.8612676
-104.499785 7.400354393 155.7768276
-4.607305999 -2.460743394e-05 9.052807614
-110.499785 28.90481339 15.14500261
-110.499785 25.74389839 113.2247516
-55.176611 59.16925639 -9.738563813e-05
77.643359 -2.460743394e-05 33.32415661
-104.499785 12.81164139 232.0356426
-51.024396 26.75042939 -9.738563813e-05
36.914006 -2.460743394e-05 6.786360614
-110.499785 39.12214039 16.47222961
-115.402493 -2.460743394e-05 229.5213506
-58.460103 -2.460743394e-05 244.3608016
-66.120967 -2.460743394e-05 89.69875061
62.324691 42.18821439 -9.738563813e-05
94.415036 -2.460743394e-05 9.672467614
-4.364864999 -2.460743394e-05 91.39678561
-110.499785 9.426892393 222.6098236
-104.499785 33.53088439 207.1361706
-110.499785 37.62956839 249.5964746
123.583137 10.67080339 -9.738563813e-05
-28.633518 37.94054639 -9.738563813e-05
16.380514 -2.460743394e-05 55.37401561
27.01983 -2.460743394e-05 111.8349626
31.548234 -2.460743394e-05 200.6835976
128.092967 -2.460743394e-05 56.97182261
-103.224545 -2.460743394e-05 195.4363126
105.712107 -2.460743394e-05 146.3609516
-9.397097999 -2.460743394e-05 23.68760661
-107.927279 19.99719539 -9.738563813e-05
-27.08744 -2.460743394e-05 57.71255961
-5.414905999 -2.460743394e-05 180.9947406
-50.653965 -2.460743394e-05 227.4386216
-94.851621 -2.460743394e-05 66.08871961
-89.80186 -2.460743394e-05 118.7444256
-108.307434 -2.460743394e-05 125.8301996
113.440389 -2.460743394e-05 183.8623676
-110.499785 40.65561239 162.3366186
-38.778055 -2.460743394e-05 206.6059176
-84.832597 34.47552939 -9.738563813e-05
-94.054271 53.30266639 -9.738563813e-05
27.69686 -2.460743394e-05 37.37720061
-25.0413 -2.460743394e-05 188.4817126
57.789496 -2.460743394e-05 143.1165076
-76.860328 -2.460743394e-05 156.9020546
-60.76373 -2.460743394e-05 197.0388196
10.955662 -2.460743394e-05 117.8619896
-110.499785 43.55880139 125.0469386
-115.239415 36.28315439 -9.738563813e-05
-115.380326 -2.460743394e-05 64.49219961
17.357374 56.99875639 -9.738563813e-05
-119.088485 -2.460743394e-05 110.7273026
30.598872 -2.460743394e-05 180.1437756
-110.499785 24.99003439 133.4027596
101.588108 -2.460743394e-05 63.17256761
-78.002768 -2.460743394e-05 244.0067756
-110.499785 23.16358739 92.35713961
-128.868615 -2.460743394e-05 125.5809986
121.274536 -2.460743394e-05 63.73270761
-104.499785 41.50106539 141.5549456
76.300391 -2.460743394e-05 7.420801614
-3.842449999 -2.460743394e-05 55.06188361
-81.143464 -2.460743394e-05 142.2688666
-82.497512 -2.460743394e-05 204.4578196
-104.499785 24.37256939 202.6409866
-19.36023 -2.460743394e-05 198.1459856
-71.452261 54.72485639 -9.738563813e-05
-110.499785 34.35177739 228.2585266
-76.198806 44.65375539 -9.738563813e-05
-110.499785 5.940740393 135.7693536
-105.01787 -2.460743394e-05 33.38153061
117.037594 -2.460743394e-05 75.91702661
-102.464181 -2.460743394e-05 109.4213596
54.832437 -2.460743394e-05 187.0240476
58.030126 -2.460743394e-05 89.92968661
-125.036115 -2.460743394e-05 246.3865916
32.8036 50.20551139 -9.738563813e-05
-18.699199 -2.460743394e-05 170.1783426
115.818957 -2.460743394e-05 174.5999276
-13.648149 32.31745339 -9.738563813e-05
-86.179485 8.873389393 -9.738563813e-05
-104.499785 35.22977339 188.2854066
-46.13213 -2.460743394e-05 75.93098161
-39.163656 -2.460743394e-05 135.0619526
99.289404 -2.460743394e-05 83.47688761
-20.589692 8.810321393 -9.738563813e-05
-104.499785 18.75844739 34.81115861
17.565595 26.40951839 -9.738563813e-05
-58.076314 -2.460743394e-05 7.639690614
105.523856 10.02143239 -9.738563813e-05
7.046458001 -2.460743394e-05 67.85496861
27.984703 -2.460743394e-05 227.9296706
-110.499785 40.28237939 56.91340161
-104.499785 41.47754839 64.75438161
44.528436 -2.460743394e-05 107.0054296
-77.053612 -2.460743394e-05 234.8298226
-87.013155 -2.460743394e-05 24.33634461
-44.407463 -2.460743394e-05 37.33088461
26.558322 -2.460743394e-05 244.1258136
-127.489388 6.226510393 -9.738563813e-05
66.807429 -2.460743394e-05 152.8956566
-64.768116 -2.460743394e-05 102.9066006
-104.499785 8.844066393 179.5402256
52.266433 47.12071739 -9.738563813e-05
-99.122543 -2.460743394e-05 130.2292656
80.010095 -2.460743394e-05 164.8921356
54.865119 -2.460743394e-05 233.9812306
-104.499785 28.92626139 71.66389561
-116.431243 56.89816139 -9.738563813e-05
5.782725001 -2.460743394e-05 30.82788061
66.146742 -2.460743394e-05 233.5623486
88.10291 -2.460743394e-05 206.8714016
-97.938758 -2.460743394e-05 180.9510966
-30.720551 -2.460743394e-05 10.84135661
-4.417095999 -2.460743394e-05 106.4874536
45.619363 -2.460743394e-05 154.1958106
102.858202 -2.460743394e-05 51.23131761
83.223449 -2.460743394e-05 26.18778961
-110.499785 15.29641839 141.9612426
-76.388828 -2.460743394e-05 110.2982356
70.947816 -2.460743394e-05 72.35302061
-114.186654 -2.460743394e-05 36.99701561
79.457953 -2.460743394e-05 189.9656746
-105.006292 -2.460743394e-05 165.8715866
69.283904 -2.460743394e-05 135.2405516
-102.979028 -2.460743394e-05 80.87715161
80.564804 -2.460743394e-05 229.5043956
-3.816527999 -2.460743394e-05 44.28614461
58.400792 -2.460743394e-05 169.4490836
-115.902385 -2.460743394e-05 8.399440614
47.761517 -2.460743394e-05 170.4983916
-19.5918 -2.460743394e-05 0.9509046144
-25.486387 -2.460743394e-05 137.5775026
11.442288 -2.460743394e-05 209.1866056
-110.499785 37.58402039 136.2684366
-77.671822 -2.460743394e-05 55.89160161
-110.499785 5.684364393 194.4764896
-122.919888 -2.460743394e-05 166.4613236
-104.499785 43.26627139 103.9704596
99.226844 -2.460743394e-05 181.5786146
-110.499785 3.990331393 92.00954061
-57.003698 -2.460743394e-05 45.79935961
25.211626 -2.460743394e-05 194.5294096
106.228406 -2.460743394e-05 242.3732356
-110.499785 28.80784939 125.4629256
-107.630545 49.99997539 44.51296561
-14.628812 -2.460743394e-05 209.9149606
10.825523 -2.460743394e-05 146.8651206
41.958902 67.90709339 -9.738563813e-05
36.468095 -2.460743394e-05 87.14667461
45.355291 -2.460743394e-05 69.69749861
108.394485 -2.460743394e-05 168.1669776
117.06369 -2.460743394e-05 140.2951826
-110.499785 41.61819039 80.57166061
-104.66755 49.99997539 125.9489736
27.316738 -2.460743394e-05 70.27381761
-104.499785 36.16220839 30.76654861
67.116355 -2.460743394e-05 8.664749614
-104.499785 42.40444539 240.4417216
-99.300861 21.23023239 -9.738563813e-05
-104.499785 15.93626139 57.52329961
-7.764164999 -2.460743394e-05 71.72172361
-110.267775 49.99997539 12.30198661
-35.632473 -2.460743394e-05 36.48163761
-116.193654 -2.460743394e-05 238.4588416
47.739204 -2.460743394e-05 145.8200656
13.396893 -2.460743394e-05 131.5504426
-43.024668 -2.460743394e-05 61.97445061
-33.748156 -2.460743394e-05 232.7736866
-110.499785 32.39238539 48.80111461
-41.506386 -2.460743394e-05 249.6118556
-20.804615 41.48588939 -9.738563813e-05
-84.535271 -2.460743394e-05 86.53790661
-101.136139 48.48009039 -9.738563813e-05
-110.499785 26.41691739 32.35596261
-104.499785 5.041746393 71.23681961
60.078487 -2.460743394e-05 199.1737386
55.386292 -2.460743394e-05 75.37237161
-34.76376 -2.460743394e-05 158.0815966
-47.233244 -2.460743394e-05 47.39984061
-102.866026 -2.460743394e-05 23.32492761
-125.658098 -2.460743394e-05 228.4434996
127.466099 -2.460743394e-05 80.08368861
-104.499785 16.40025139 80.08607461
-78.93659 -2.460743394e-05 217.8674906
-110.499785 19.02850239 205.9048756
-110.499785 13.49651539 72.13622361
57.013784 -2.460743394e-05 20.31103161
-104.499785 24.12334939 86.46256361
-104.499785 30.73669339 148.0252356
93.711645 -2.460743394e-05 43.75861461
115.787221 7.421785393 -9.738563813e-05
89.099794 -2.460743394e-05 164.0797986
85.599109 -2.460743394e-05 101.0930196
66.961587 -2.460743394e-05 104.3408416
-122.585221 -2.460743394e-05 55.80667561
-68.924353 40.40980039 -9.738563813e-05
-72.33011 -2.460743394e-05 180.6310006
-105.390147 49.99997539 209.0579056
29.949203 -2.460743394e-05 125.2050046
116.081249 -2.460743394e-05 205.4558216
-98.170601 -2.460743394e-05 100.4954406
84.595328 10.08100739 -9.738563813e-05
-104.499785 20.45961239 128.6903616
-104.499785 34.57062539 94.67144461
117.082972 48.60282239 -9.738563813e-05
-82.839418 -2.460743394e-05 175.7559866
65.526329 -2.460743394e-05 224.9367776
-36.401764 3.194040393 -9.738563813e-05
-67.493397 -2.460743394e-05 52.04747661
-110.499785 39.30914639 116.6260706
66.981764 -2.460743394e-05 179.2745506
98.523391 -2.460743394e-05 27.63275761
103.231288 -2.460743394e-05 222.3499346
-19.172694 -2.460743394e-05 234.6388886
-104.499785 43.15508039 152.2703386
10.760607 -2.460743394e-05 84.68594761
-104.499785 41.41452039 130.2570846
-63.997981 -2.460743394e-05 154.0503136
-110.499785 9.558575393 160.9551216
-104.499785 35.96207639 44.48153961
-75.061063 -2.460743394e-05 128.5431656
-18.884796 57.19690739 -9.738563813e-05
99.55318 -2.460743394e-05 109.1519316
-52.984729 -2.460743394e-05 190.0292886
-39.972219 -2.460743394e-05 84.19393261
-13.814215 -2.460743394e-05 30.57280861
-104.499785 12.82080639 136.5512766
-110.499785 32.63721039 142.8124936
67.97837 50.53030839 -9.738563813e-05
-16.388918 24.62772739 -9.738563813e-05
-90.079213 16.03961939 -9.738563813e-05
-104.499785 11.97669439 25.13886061
119.073291 -2.460743394e-05 9.509190614
-110.499785 20.95562939 13.45393861
-27.219404 23.11964439 -9.738563813e-05
-110.499785 29.42213239 6.069491614
-104.499785 1.563515393 144.7862166
-64.182288 -2.460743394e-05 163.7169086
72.107739 -2.460743394e-05 215.6533726
45.554979 -2.460743394e-05 130.7575166
-104.499785 41.04428039 182.7048096
-11.999849 -2.460743394e-05 83.18922261
-28.177143 -2.460743394e-05 167.6264936
-104.499785 38.44634439 75.11213261
-104.499785 26.34282339 163.8758496
-110.499785 31.14103639 183.6727376
-53.780041 -2.460743394e-05 151.4988746
-109.387799 -2.460743394e-05 115.8596806
60.565672 -2.460743394e-05 1.247160614
83.396266 -2.460743394e-05 240.3084056
-110.499785 2.189290393 175.8756876
-58.511229 -2.460743394e-05 138.9483516
77.716883 37.94653339 -9.738563813e-05
46.022342 -2.460743394e-05 115.5238266
-110.499785 20.27278239 236.7858516
-110.499785 43.09627339 223.9463416
-75.683256 -2.460743394e-05 6.286940614
-33.448785 -2.460743394e-05 101.9350416
6.103191001 42.95649939 -9.738563813e-05
9.838509001 64.22429539 -9.738563813e-05
112.328639 -2.460743394e-05 152.2232826
-104.499785 25.43086839 104.9507746
73.200466 -2.460743394e-05 84.39386161
-35.033346 -2.460743394e-05 62.88495461
105.924813 -2.460743394e-05 138.4790026
35.389326 -2.460743394e-05 103.7423686
-104.499785 13.66962839 96.16340461
-97.595598 38.42394539 -9.738563813e-05
-11.033104 -2.460743394e-05 187.2309626
-104.499785 32.44541039 176.1420456
57.355291 -2.460743394e-05 161.6423826
-106.923673 42.49912939 -9.738563813e-05
43.964462 -2.460743394e-05 234.4524206
-53.786554 -2.460743394e-05 23.05750361
-104.499785 24.90390639 155.8867116
-57.854596 -2.460743394e-05 124.5890986
10.666391 -2.460743394e-05 49.98937761
-104.499785 22.45434839 174.2089056
4.001050001 -2.460743394e-05 223.6757346
1.333905001 20.45272339 -9.738563813e-05
30.120248 39.98645639 -9.738563813e-05
104.994018 -2.460743394e-05 6.260093614
-1.069751999 -2.460743394e-05 207.3061216
83.541214 -2.460743394e-05 143.8054716
124.86163 -2.460743394e-05 140.5666776
-23.357017 -2.460743394e-05 208.3003236
-110.499785 46.50443139 168.0066846
-110.499785 6.335305393 149.3112636
89.059506 -2.460743394e-05 228.5164816
93.209995 18.88398439 -9.738563813e-05
-110.499785 28.51168239 200.0427766
-104.499785 19.99526339 210.8429716
-110.499785 5.966101393 45.27610661
-120.707366 1.996258393 -9.738563813e-05
-110.499785 17.64743839 39.53636161
-28.665548 -2.460743394e-05 116.9945636
-104.499785 42.65507439 21.45132161
12.510566 -2.460743394e-05 164.5100376
-122.491133 -2.460743394e-05 121.2570486
34.094615 -2.308699607 -9.738563813e-05
-104.499785 27.05862539 27.56919561
-128.012438 -2.460743394e-05 182.1215906
66.83218 -2.460743394e-05 57.74254361
-60.992531 40.30978339 -9.738563813e-05
-104.499785 23.28501039 55.38456761
-59.033424 -2.460743394e-05 95.28092461
-110.080586 6.593121393 -9.738563813e-05
-59.064872 -2.460743394e-05 111.3733506
-84.028285 -2.460743394e-05 131.0188746
100.433757 25.68799939 -9.738563813e-05
-110.285324 49.99997539 100.0900606
-11.305432 -2.460743394e-05 246.0842046
-93.907853 -2.460743394e-05 223.0502206
-104.499785 32.72339539 157.3143486
47.378858 -2.460743394e-05 99.94440661
-25.797274 -2.460743394e-05 154.8846846
-110.499785 22.82266939 187.6547026
-60.023054 -2.460743394e-05 62.15499061
21.425809 -2.460743394e-05 155.1879116
-34.808528 55.20387739 -9.738563813e-05
-104.499785 15.00295939 153.0216076
-80.245486 -2.460743394e-05 227.9687596
-110.499785 25.23729739 245.6300886
-110.499785 16.79292139 244.2264226
-26.394029 -2.460743394e-05 228.7208926
-102.121127 -2.460743394e-05 6.292089614
-110.499785 41.52361539 99.02431261
58.100163 -2.460743394e-05 34.60750761
-104.499785 6.008800393 19.08226761
-112.88652 -2.460743394e-05 220.5046676
-110.499785 22.84723539 68.92903161
-64.926357 -2.460743394e-05 44.66294861
-36.960658 -2.460743394e-05 178.1444516
-104.499785 8.792560393 191.2094026
-84.638611 60.42192439 -9.738563813e-05
-110.499785 7.226751393 111.8829156
-104.499785 10.81432039 85.09055561
-51.571255 -2.460743394e-05 235.1094546
-110.499785 30.98620639 41.44096061
91.047213 50.70554739 -9.738563813e-05
10.97782 3.411739393 -9.738563813e-05
35.117046 -2.460743394e-05 136.9485446
-104.499785 45.68858039 73.30048661
-104.499785 5.226750393 240.8505086
-104.499785 14.70844039 160.4659876
-110.499785 13.48890539 103.3313206
115.662309 -2.460743394e-05 101.7128036
108.826162 -2.460743394e-05 44.65797961
-110.499785 41.86182839 188.7696956
-110.499785 24.66822439 23.89550961
-70.483751 -2.460743394e-05 31.74299561
-104.499785 32.44686839 17.66100861
51.771642 -2.460743394e-05 108.4904736
-87.497899 -2.460743394e-05 54.83904761
-50.114633 -2.460743394e-05 206.4560096
120.684603 -2.460743394e-05 124.7196226
-104.499785 21.39507539 42.71392161
-110.499785 7.919980393 57.27879061
-77.001966 -2.460743394e-05 251.2979036
-104.499785 41.49109839 35.82748061
2.309720001 -2.460743394e-05 244.6700686
52.289581 -2.460743394e-05 41.06777561
-104.499785 15.69237039 182.1362706
-104.499785 7.190834393 62.40192461
-7.554838999 -2.460743394e-05 171.1904966
-104.499785 41.79069239 249.1047046
39.422471 -2.460743394e-05 183.6591056
-99.578088 -2.460743394e-05 38.27111561
-45.054141 -2.460743394e-05 19.86702661
62.739147 -2.460743394e-05 110.2951796
62.298617 -2.460743394e-05 49.60636861
46.25061 40.79707639 -9.738563813e-05
-77.844255 -2.460743394e-05 210.0730436
-104.499785 7.200951393 35.14796961
-110.499785 37.28170539 34.74644961
-8.652760999 -2.460743394e-05 97.75692361
-110.499785 15.08510639 30.01115561
-104.499785 29.33832739 138.8469286
81.286204 -2.460743394e-05 67.68214961
-104.499785 18.94059839 218.3389106
-73.114214 3.501893393 -9.738563813e-05
-104.499785 34.60642539 199.9566466
-110.499785 15.82928239 169.8685666
22.918518 -2.460743394e-05 222.1209246
126.746341 63.09538639 -9.738563813e-05
-123.715758 -2.460743394e-05 13.10446861
-67.550971 -2.460743394e-05 143.3602646
52.700633 -2.460743394e-05 242.6811586
-104.499785 16.73942139 190.0805186
-46.836898 38.42906339 -9.738563813e-05
72.233249 -2.460743394e-05 205.5388166
50.323139 -2.460743394e-05 24.94969061
-107.079103 -2.460743394e-05 96.88239761
-110.499785 3.979347393 249.4254616
-110.499785 31.08927839 92.89017561
-56.836645 -2.460743394e-05 181.2553286
105.015884 -2.460743394e-05 249.4189746
63.787706 -2.460743394e-05 18.05222561
-110.499785 44.33697639 50.35194961
-110.408674 62.23340139 -9.738563813e-05
118.78886 -2.460743394e-05 52.60183961
-110.499785 12.81477639 47.33089161
-69.190383 30.08017839 -9.738563813e-05
24.39615 -2.460743394e-05 6.670412614
-104.499785 13.95428139 12.18183861
-99.968165 -2.460743394e-05 189.1188306
-104.499785 20.77047739 96.22483361
-91.080658 -2.460743394e-05 37.51185961
0.6051810013 -2.460743394e-05 119.7282916
124.843628 -2.460743394e-05 247.0805676
121.621771 -2.460743394e-05 116.0507936
19.047276 -2.460743394e-05 207.5173466
57.209928 12.82686439 -9.738563813e-05
-104.499785 0.7208413926 55.65504761
115.665766 25.49771339 -9.738563813e-05
-104.995879 -2.460743394e-05 181.2692516
7.811900001 26.39556639 -9.738563813e-05
-104.499785 8.060366393 219.1744376
-66.494226 -2.460743394e-05 22.85228261
-104.880887 49.99997539 223.8590466
-95.107873 -2.460743394e-05 92.04756661
91.506926 -2.460743394e-05 216.6475986
-104.499785 20.17367539 65.28534361
-110.499785 4.896887393 227.9856416
-118.508683 -2.460743394e-05 49.39121861
-14.95744 66.03820539 -9.738563813e-05
-104.499785 44.46671239 199.9609446
-110.499785 29.93951639 163.4308026
-110.499785 12.78289439 210.5425536
121.133963 -2.460743394e-05 154.8214146
-110.499785 6.719544393 22.92071761
-104.499785 34.34463539 236.5613166
1.244829001 50.52896539 -9.738563813e-05
-2.406355999 -2.460743394e-05 23.60049861
74.001063 -2.460743394e-05 119.2114986
70.14474 -2.460743394e-05 160.0849746
52.116193 -2.460743394e-05 176.2391806
-104.499785 40.29833839 208.7747826
-29.850558 -2.460743394e-05 222.4273476
-110.499785 31.47246439 64.55415361
-95.477287 64.25171839 -9.738563813e-05
-110.499785 45.12008039 230.5952236
20.410888 -2.460743394e-05 189.5073396
-82.179169 25.89093439 -9.738563813e-05
-118.038543 -2.460743394e-05 175.7720996
56.959249 -2.460743394e-05 211.6672776
22.425941 61.71065739 -9.738563813e-05
-102.225538 -2.460743394e-05 230.9202186
51.919129 54.02576239 -9.738563813e-05
-110.499785 7.028199393 126.6383946
-104.499785 13.69756039 68.71279561
-45.32929 -2.460743394e-05 232.1499826
-52.498301 10.84588239 -9.738563813e-05
-110.499785 43.20917439 110.9371976
-122.927095 43.38141839 -9.738563813e-05
-104.499785 38.20786839 110.4592666
87.214868 -2.460743394e-05 19.51130261
112.951828 57.40728739 -9.738563813e-05
-104.499785 39.42217539 158.8828026
-104.499785 16.20195339 121.5670076
68.014454 -2.460743394e-05 64.51465161
116.878999 37.45632439 -9.738563813e-05
20.599495 -2.460743394e-05 21.61540361
-11.989665 -2.460743394e-05 158.2764046
-0.7368339987 -2.460743394e-05 189.8352786
-108.317449 49.99997539 28.86092061
-45.778343 2.829213393 -9.738563813e-05
-57.566913 49.49034839 -9.738563813e-05
-74.29099 -2.460743394e-05 82.18055961
56.264358 -2.460743394e-05 66.35126961
-32.50138 -2.460743394e-05 195.1770756
87.257504 23.47263239 -9.738563813e-05
-91.186959 -2.460743394e-05 172.0744096
-121.079957 -2.460743394e-05 83.98011561
-72.186928 -2.460743394e-05 121.4812856
-22.652643 -2.460743394e-05 252.0864396
-104.499785 40.66094839 86.16794161
103.946274 -2.460743394e-05 19.30356661
-115.066948 -2.460743394e-05 151.6688376
-51.483195 -2.460743394e-05 126.9455646
-9.321828999 25.57702239 -9.738563813e-05
-127.018194 -2.460743394e-05 134.6790166
-104.499785 24.63213139 195.7454656
99.371488 -2.460743394e-05 228.8796966
90.273347 -2.460743394e-05 181.0488636
111.972896 -2.460743394e-05 125.3393516
-79.003433 -2.460743394e-05 181.7324716
-105.707594 49.99997539 6.231394614
75.487336 -2.460743394e-05 199.6205986
42.181317 -2.460743394e-05 225.3674166
-97.153277 14.83778339 -9.738563813e-05
-30.124722 -2.460743394e-05 123.8692876
-103.999785 -0.7790816074 151.0784756
-18.56066 -2.460743394e-05 60.64330561
77.014889 -1.504292607 -9.738563813e-05
-99.518113 -2.460743394e-05 60.34759461
-104.499785 26.60488339 92.69368261
45.078628 -2.460743394e-05 35.24289561
-110.499785 19.98408739 109.7986046
-65.713624 -2.460743394e-05 181.6876846
-31.216786 31.76090239 -9.738563813e-05
29.067732 -2.460743394e-05 173.2347346
-110.499785 13.52569539 80.82752061
-93.196736 -2.460743394e-05 164.3302786
24.219605 8.210521393 -9.738563813e-05
-122.94598 -2.460743394e-05 198.2136146
119.80113 -2.460743394e-05 23.24191361
-126.975841 -2.460743394e-05 210.7200406
92.18014 -2.460743394e-05 96.90815761
-104.499785 23.50362139 14.88791961
-110.499785 28.11327339 223.0916306
-71.611638 65.33137839 -9.738563813e-05
-38.320835 -2.460743394e-05 124.4380136
-104.499785 40.37182839 192.5155476
-110.499785 10.51391739 199.7288736
-110.499785 26.57402639 232.0897206
108.499727 19.18727839 -2.274996386
-110.499785 19.25427539 213.6129486
-110.499785 31.11036539 214.9507266
74.277297 -2.460743394e-05 17.53286761
-104.499785 39.89330539 175.8936186
-104.499785 21.55598839 227.0612726
-49.935705 -2.460743394e-05 29.61684761
86.285673 -2.460743394e-05 92.60121761
33.638921 -2.460743394e-05 72.26383561
61.901345 -2.460743394e-05 148.3113636
-104.499785 42.10709339 46.94779361
-104.499785 36.41798639 224.9938126
-110.499785 13.06089339 149.2473986
-110.499785 37.02447139 126.0234206
-110.499785 34.96998839 79.04896761
-104.499785 6.587076393 206.4726926
-104.980237 -2.460743394e-05 103.1403916
7.714393001 -2.460743394e-05 23.59324361
-110.499785 40.50909139 242.4123316
-104.499785 6.002192393 116.8878546
94.598762 -2.460743394e-05 67.59039761
-110.499785 16.18271439 97.19565061
-96.096034 -2.460743394e-05 234.7983756
-110.499785 11.10456439 40.22880561
-104.499785 30.69585039 108.8790346
-110.499785 33.48701439 108.4557416
-108.368651 16.77561039 5.693658614
53.361073 -0.9426176074 -9.738563813e-05
-25.275395 -2.460743394e-05 244.8244926
-104.499785 26.46261439 63.46483461
120.886736 -2.460743394e-05 134.9827896
30.802288 -2.460743394e-05 9.113402614
-110.499785 39.33937339 211.8534056
10.946499 -2.460743394e-05 124.4006866
-110.499785 38.53850639 156.1507246
-38.139964 37.54178939 -9.738563813e-05
-95.309908 -2.460743394e-05 10.93261061
37.994109 -2.460743394e-05 201.7522536
32.810667 -2.460743394e-05 235.2633006
51.019906 -2.460743394e-05 160.0488696
-17.233038 -2.460743394e-05 107.5284296
-104.633727 49.99997539 234.4065416
-104.499785 26.12483939 125.4680326
-110.499785 13.18085339 22.16656261
6.402045001 -2.156613607 -9.738563813e-05
-104.499785 47.71022739 62.92626961
-61.755614 -2.460743394e-05 83.33021761
-104.499785 21.48425039 239.9500026
-113.314225 -2.460743394e-05 162.6084796
-104.499785 40.80307339 121.9741316
114.539298 -2.460743394e-05 194.7484696
-2.622792999 -2.460743394e-05 100.1303046
27.732123 -2.460743394e-05 135.0110236
-64.802519 56.67113239 -9.738563813e-05
-110.499785 8.286415393 99.48447461
-110.499785 18.35615539 129.8857256
-104.499785 34.26846139 61.27841661
-78.240537 -2.460743394e-05 63.14956161
-90.249619 -0.5562186074 -9.738563813e-05
-104.499785 45.96102439 214.0095766
-32.24338 -2.460743394e-05 215.8439806
-44.09419 -2.460743394e-05 13.20443361
-40.307598 65.83939039 -9.738563813e-05
-46.165155 -2.460743394e-05 85.98149561
-2.772230999 62.83841439 -9.738563813e-05
73.895889 17.11827739 -9.738563813e-05
-47.831365 -2.460743394e-05 212.6692246
-110.499785 29.01960539 119.0382476
126.445537 -2.460743394e-05 177.3197586
-104.499785 41.57137939 168.4295236
60.045528 -2.460743394e-05 128.2390326
86.287146 61.75994639 -9.738563813e-05
-17.995643 -2.460743394e-05 153.6692156
106.931799 -2.460743394e-05 217.1253296
-15.350958 -2.460743394e-05 126.0621266
13.218 -2.460743394e-05 61.37610461
-91.856277 -2.460743394e-05 178.9785806
-89.691252 -2.460743394e-05 112.3522156
-104.499785 39.66089439 53.04021461
-104.499785 36.45916239 22.99339861
116.069367 -2.460743394e-05 215.6701246
-110.499785 14.02469239 134.7451096
-104.499785 19.68412539 115.1158016
73.65421 63.16427039 -9.738563813e-05
-36.381132 -2.460743394e-05 22.08034161
-110.499785 41.08316539 22.83231961
-95.872597 -2.460743394e-05 19.85425061
-122.453243 -2.460743394e-05 5.766683614
-16.006846 -2.460743394e-05 203.7242446
-64.395373 -2.460743394e-05 7.209599614
-70.971827 -2.460743394e-05 196.3896776
78.873965 -2.460743394e-05 212.5940616
44.37791 -2.460743394e-05 212.5470226
-71.297388 -2.460743394e-05 65.32988061
-69.53648 -2.460743394e-05 232.7401596
-110.499785 33.89082939 56.80235161
25.517458 -2.460743394e-05 250.4735956
-20.750836 -2.460743394e-05 15.49270161
-104.499785 21.63765739 147.9044256
-110.499785 39.77362839 105.5204656
-110.499785 5.797421393 236.3555646
105.144093 -2.460743394e-05 191.7552956
-110.499785 48.56821539 148.5511926
33.36527 -2.460743394e-05 168.6660566
-36.618212 -2.460743394e-05 7.596569614
-104.707677 -2.460743394e-05 244.2975286
-109.220802 49.99997539 84.97566061
61.015932 -2.460743394e-05 78.09993461
-110.499785 23.54636839 84.80994061
-105.547433 25.68763839 0.9999026144
-110.499785 1.866449393 140.5034636
-3.977497999 9.452813393 -9.738563813e-05
-110.499785 0.05453639257 76.83370261
-111.070175 30.71997939 -9.738563813e-05
-0.01197899871 -2.460743394e-05 160.3712056
-104.499785 33.04731539 102.6413976
120.628453 16.14210639 -9.738563813e-05
101.435376 44.96614139 -9.738563813e-05
47.445057 16.52555839 -9.738563813e-05
-104.499785 19.04966639 50.44065061
-110.499785 15.08907839 220.0532646
-110.499785 45.44992639 75.68382361
-104.499785 5.025739393 94.30626761
118.234433 -2.460743394e-05 15.66066761
66.304841 -2.460743394e-05 172.6830176
80.749597 -2.460743394e-05 126.2438416
-110.499785 41.45397139 6.262928614
-110.499785 42.99100639 65.08369761
-34.823171 -2.460743394e-05 94.34387061
-7.821370999 41.06522139 -9.738563813e-05
-68.435425 -2.460743394e-05 97.94625261
-69.368704 -2.460743394e-05 171.6314796
86.15267 -2.460743394e-05 221.2549446
-104.499785 48.44495139 156.1855886
68.374835 -2.460743394e-05 200.7298536
19.20407 -2.460743394e-05 195.9085756
-104.499785 17.23126339 169.9456856
-107.983345 13.18992339 -9.738563813e-05
102.834267 -2.460743394e-05 152.1061886
-95.610533 -2.460743394e-05 121.2429966
-104.499785 19.29637339 104.5267186
-110.499785 12.06966739 235.3697516
-19.383429 -2.460743394e-05 138.2431436
-110.499785 19.16645839 64.01915461
-104.499785 25.93911039 212.3667586
-104.499785 49.52017639 135.2347466
91.855268 -2.460743394e-05 112.9161976
13.693536 44.93146639 -9.738563813e-05
-110.499785 49.67718339 60.15848761
-93.604194 44.04727639 -9.738563813e-05
-12.204742 53.08218739 -9.738563813e-05
-104.499785 11.76646039 224.0388136
-108.975136 -2.460743394e-05 3.623379614
-40.303191 -2.460743394e-05 77.76985161
-104.499785 29.49773539 79.11799361
-110.499785 13.51189139 111.5293456
-104.499785 0.8330603926 214.5616016
85.138611 -2.460743394e-05 36.30384361
7.800479001 -2.460743394e-05 216.8413596
-62.913717 -2.460743394e-05 128.4541176
-110.499785 5.349819393 70.28641061
-34.100179 -2.460743394e-05 171.0551356
-104.499785 31.91015839 183.1076546
-55.403124 43.18160039 -9.738563813e-05
-79.749095 -2.460743394e-05 167.4190536
-75.760305 -2.460743394e-05 12.61218261
66.304489 30.14593839 -9.738563813e-05
-104.499785 36.78305539 242.7044096
-110.499785 37.66419439 236.1371446
85.329018 -2.460743394e-05 233.2910176
56.037357 -2.460743394e-05 26.95646261
3.335448001 -2.460743394e-05 142.0190636
-110.499785 14.41332739 119.3654686
-104.499785 36.50545339 149.7926456
41.440527 -2.460743394e-05 101.0080536
-104.499785 5.904824393 77.66602161
-43.177276 -2.460743394e-05 153.2723306
53.278304 -2.460743394e-05 119.7992586
-110.499785 7.094558393 217.0564366
77.371772 -2.460743394e-05 243.7262896
-110.499785 40.93062539 182.2588946
-110.499785 -0.2538416074 147.1311676
64.811463 6.060819393 -9.738563813e-05
120.25447 -2.460743394e-05 209.7513086
57.937188 -2.460743394e-05 246.1970126
-104.499785 19.33804539 249.8221626
-104.499785 28.91248839 239.0581196
-110.499785 44.33362939 157.6036916
-110.499785 8.206041393 83.54265661
33.173523 -2.460743394e-05 212.1456706
-127.292223 29.79522339 -9.738563813e-05
-104.499785 48.58179039 100.2613196
-10.688391 -2.460743394e-05 176.7946516
-72.813106 16.50373939 -9.738563813e-05
-82.99138 -2.460743394e-05 148.1532936
-109.453433 37.13568539 0.9999026144
41.449107 -2.460743394e-05 1.490161614
110.391166 -2.460743394e-05 162.5819866
-104.499785 1.636922393 132.1197656
111.093261 13.79898539 -9.738563813e-05
-117.919231 -2.460743394e-05 204.1204696
-48.43697 -2.460743394e-05 94.37498461
-110.499785 5.096361393 184.8681046
-97.779846 -2.460743394e-05 83.66632961
17.689684 -2.460743394e-05 94.86528361
-104.499785 3.650211393 160.3195336
-110.499785 24.47739639 165.6236326
-99.364757 -2.460743394e-05 69.86686161
43.20366 -2.460743394e-05 251.7042816
127.678255 -2.460743394e-05 234.5864576
-110.499785 -2.387067607 130.7381986
-110.499785 18.37835639 19.41516861
-110.499785 43.14957939 12.18852761
-90.094118 -2.460743394e-05 248.0856586
-32.343545 -2.460743394e-05 240.8544056
-80.089179 -2.460743394e-05 100.5033356
75.575466 -2.460743394e-05 144.4363916
17.252418 15.91809139 -9.738563813e-05
-110.499785 23.60592439 44.56730461
122.099647 -2.460743394e-05 166.2964636
-110.499785 5.660210393 156.5938046
28.708654 -2.460743394e-05 64.41353861
-104.499785 7.006955393 185.0878106
-6.893979999 -2.460743394e-05 206.8327966
28.875664 -2.460743394e-05 148.9207606
-104.499785 14.18657339 31.17272261
80.885114 -2.460743394e-05 58.41614861
88.175368 -2.460743394e-05 41.28558761
-110.499785 49.38053639 124.8358236
-51.221733 -2.460743394e-05 78.76098261
20.519727 -2.460743394e-05 141.8605326
-110.499785 17.43910939 54.32130961
-60.535272 -2.460743394e-05 168.2493926
-31.058681 -2.460743394e-05 40.06751761
-110.499785 29.10293939 98.33861361
-104.499785 7.776440393 250.8147256
30.804536 -2.460743394e-05 88.35888261
-110.499785 39.06572839 203.4666616
-47.839418 -2.460743394e-05 222.3820246
-110.499785 23.34486139 147.2240776
-110.499785 45.48177739 94.80360661
-104.499785 23.67335239 189.4941946
-110.499785 43.29231939 132.0115986
-104.499785 4.747241393 198.4764876
80.561322 4.816170393 -9.738563813e-05
79.09417 -2.460743394e-05 114.8386356
-110.499785 49.11905039 39.57760161
-77.249705 -2.460743394e-05 115.9974186
-104.499785 6.039731393 172.0745586
44.339682 46.73620939 -9.738563813e-05
-110.499785 10.60908739 172.3079206
-104.499785 16.08653839 176.3878456
-110.387404 -2.460743394e-05 195.6400606
-110.499785 10.76940539 182.8764156
-104.499785 22.07664139 79.20999861
-115.6616 -2.460743394e-05 79.33545161
28.753947 33.70710839 -9.738563813e-05
-79.059732 59.13703939 -9.738563813e-05
56.274316 -2.460743394e-05 5.034877614
33.045758 11.99993539 -9.738563813e-05
-122.179616 -2.460743394e-05 43.10575361
-104.499785 32.43342339 67.15031661
-32.489657 -2.460743394e-05 181.6952926
88.977699 -2.460743394e-05 193.4618746
-47.66699 -2.460743394e-05 192.0999416
-110.499785 32.34589439 84.11642361
65.97474 -2.460743394e-05 211.7220756
-104.499785 47.82753039 25.23089461
60.95578 27.60528239 -9.738563813e-05
117.690537 -2.460743394e-05 240.7370556
112.591171 -2.460743394e-05 89.67279161
-110.499785 19.80615839 26.83526261
47.917151 3.718842393 -9.738563813e-05
-104.499785 45.25976839 160.8884206
-104.499785 4.886120393 40.31816361
-104.499785 25.04027639 113.2823716
-29.474158 -2.460743394e-05 150.3773456
-104.499785 43.84583039 188.0622226
98.989512 -2.460743394e-05 124.8302756
-62.883604 -2.460743394e-05 247.8670546
57.912734 -2.460743394e-05 107.3768056
-104.499785 1.025718393 175.7463456
83.188019 -2.460743394e-05 149.4335466
-110.499785 45.10448639 216.6997696
-104.535271 -2.199976607 158.1842836
-114.381548 -2.460743394e-05 190.4762666
74.494436 -2.460743394e-05 78.92928761
89.396974 -2.460743394e-05 152.3233546
-80.929303 6.893971393 -9.738563813e-05
-110.499785 17.99767539 182.0054246
-68.960088 -2.460743394e-05 128.8298756
-44.287034 43.42148239 -9.738563813e-05
-125.837405 -2.460743394e-05 151.4182876
-87.912642 -2.460743394e-05 29.86535061
-110.499785 23.60966139 127.9427686
-110.499785 30.23902439 248.1510856
110.858131 -2.460743394e-05 235.0457596
37.777712 -2.460743394e-05 172.1462556
-40.315598 -2.460743394e-05 200.8087726
-3.064698999 -2.460743394e-05 143.5267396
78.196925 -2.460743394e-05 21.53690661
-104.499785 14.28377239 74.92477861
75.525188 -2.460743394e-05 168.2053146
90.110344 -2.460743394e-05 -2.158185386
-19.579419 -2.460743394e-05 47.05164561
-93.092901 -2.460743394e-05 49.73299461
-104.499785 30.63362639 248.5923576
-110.499785 3.110202393 205.6059406
-120.881198 -2.460743394e-05 231.2833406
-104.499785 13.77041739 37.24732261
-110.499785 15.84860139 198.2285226
-40.613805 -2.460743394e-05 43.47247461
-110.499785 24.99494139 156.9882766
81.825042 -2.460743394e-05 183.9731496
-62.876205 -2.460743394e-05 55.08196061
-104.499785 26.79691739 131.1741206
-104.499785 14.86607239 128.4055976
-98.872712 -2.460743394e-05 27.59538761
-110.499785 49.28846339 112.8756456
-104.499785 45.71922739 83.98460561
-104.499785 7.616877393 134.7526946
-104.499785 4.450350393 106.9029506
35.411595 -2.460743394e-05 118.1373706
-47.144993 -2.460743394e-05 114.1635936
60.674842 -2.460743394e-05 189.0474156
-105.430883 49.99997539 243.9526586
95.257048 27.50862539 -9.738563813e-05
-110.499785 38.04304439 28.25063461
-110.499785 10.44487839 139.4138546
-112.877169 -2.460743394e-05 58.27029261
-104.499785 12.93477539 237.5101156
-52.689269 -2.460743394e-05 164.3976426
-78.296161 -2.460743394e-05 93.81034861
53.127615 -2.460743394e-05 205.2175326
-104.499785 2.994273393 191.0467516
-119.875236 33.15953139 -9.738563813e-05
101.76834 -2.460743394e-05 74.33090361
97.588763 -2.460743394e-05 33.01312461
107.757982 -2.460743394e-05 207.5070936
-104.499785 24.86852739 21.64955161
-104.499785 37.01024739 231.7662536
124.100618 -2.460743394e-05 159.3953176
-104.499785 40.34381039 59.42324861
-116.710892 17.11627339 -9.738563813e-05
-45.027696 -2.460743394e-05 52.66411761
-104.499785 5.486530393 86.20383161
-20.676165 -2.460743394e-05 181.2087526
49.1599 -2.460743394e-05 134.8306236
-109.323258 49.99997539 90.41136461
5.784713001 -2.460743394e-05 121.3582216
103.004489 -2.460743394e-05 172.7451436
-104.499785 15.09480739 147.6016296
-110.499785 44.22645039 246.3573586
25.67341 66.04793039 -9.738563813e-05
39.032973 -2.460743394e-05 72.77039161
-105.311812 -2.460743394e-05 209.2730236
-121.30612 65.12637739 -9.738563813e-05
-110.499785 29.42725739 136.5020756
-110.499785 32.74388439 18.93488761
117.785125 -2.460743394e-05 228.2916226
-110.499785 3.088574393 108.4555156
-104.499785 46.72092539 49.69468461
110.447962 6.851603393 -9.738563813e-05
61.222252 36.93553039 -9.738563813e-05
-110.499785 30.34218239 148.5531076
-11.523442 -2.460743394e-05 18.76228061
-110.499785 8.158559393 166.1320226
87.17087 46.79945739 -9.738563813e-05
95.718819 53.31350039 -9.738563813e-05
-104.499785 21.02358439 134.0091156
-104.499785 30.81295239 50.25192361
45.117144 -2.460743394e-05 244.7459816
103.892858 36.47260339 -9.738563813e-05
-9.749984999 -2.460743394e-05 222.9812466
110.346234 27.95214539 -9.738563813e-05
-83.222952 -2.460743394e-05 51.63662961
-86.506548 -2.460743394e-05 210.2347126
1.469427001 -2.460743394e-05 27.26487361
40.564745 -2.460743394e-05 40.19962961
-110.499785 11.36061739 192.9571586
106.8327 -2.460743394e-05 97.07072161
-110.499785 44.86301739 103.1780236
-55.274969 -2.460743394e-05 64.57106661
-110.499785 28.10778539 188.3233546
-47.738032 33.18255039 -9.738563813e-05
-110.499785 7.314765393 36.49617061
-104.499785 36.50735739 139.7228426
-110.499785 22.87276539 175.8785736
-105.784571 -2.460743394e-05 200.4998106
-110.499785 33.94705339 188.1888166
62.624151 -2.460743394e-05 95.78495261
-110.499785 0.8240253926 231.3982916
-2.436703999 -2.460743394e-05 169.7829036
18.601518 -2.460743394e-05 130.5129156
-110.499785 17.16939839 76.97035461
-110.499785 11.72985339 123.9420716
89.724287 -2.460743394e-05 106.8987236
-110.499785 33.01678439 9.969938614
-104.499785 2.391654393 28.67905561
-104.499785 25.16257939 243.7665966
-25.39117 -2.460743394e-05 144.6328946
-110.499785 12.15056439 246.7741416
-52.075783 -2.460743394e-05 43.86292561
54.970754 -2.460743394e-05 61.21741961
7.972903001 -2.460743394e-05 111.6729406
-104.499785 6.344820393 224.1803386
48.049283 -2.460743394e-05 55.85521961
17.698023 -2.460743394e-05 117.4442046
-104.499785 41.77185939 146.8343116
-41.2588 0.08774339257 -9.738563813e-05
-110.499785 36.64374839 63.46165961
-104.499785 3.436598393 127.1530226
82.231595 -2.460743394e-05 107.3138986
43.692954 54.00697339 -9.738563813e-05
-27.895522 -2.460743394e-05 210.9974116
-110.499785 31.68932539 74.91286061
36.875687 -2.460743394e-05 80.02134261
-92.468593 -2.460743394e-05 71.62427561
-80.950004 -2.460743394e-05 6.054751614
-104.499785 34.67353439 212.2822496
-53.896704 -2.460743394e-05 112.3719556
69.262686 59.11452139 -9.738563813e-05
-26.627748 -2.460743394e-05 160.0815726
-8.738158999 -2.460743394e-05 195.1756506
-63.964708 30.63972039 -9.738563813e-05
-104.499785 23.75942739 169.1209816
-104.499785 19.39935439 88.75321661
6.632052001 13.05369839 -9.738563813e-05
-84.951222 -2.460743394e-05 225.6447436
-89.283835 51.11844239 -9.738563813e-05
-104.69169 49.99997539 70.15093261
-104.499785 21.71569639 30.48744461
117.695583 -2.460743394e-05 67.55731761
-80.979201 42.52324939 -9.738563813e-05
-104.499785 24.18956339 179.1816016
101.597298 -2.460743394e-05 198.5906676
-110.499785 24.35206439 215.4236856
-109.875215 49.99997539 192.0881066
-110.499785 15.79260139 158.0855606
-110.499785 23.75073139 76.73658861
-104.499785 12.40311639 172.2667066
-8.867520999 35.95426039 -9.738563813e-05
-110.499785 25.83690339 55.67346261
15.852645 -2.460743394e-05 144.1804216
-105.635675 49.99997539 203.8537576
-110.499785 14.43526439 229.1589956
49.314946 -2.460743394e-05 78.31631561
-110.499785 4.236264393 60.94349561
-104.499785 8.269620393 212.0257756
-104.499785 46.95945739 248.6441896
-110.499785 43.61940139 146.9916236
-110.499785 41.88074339 37.14629161
-104.499785 19.49213239 162.4644746
-104.499785 32.87777439 126.2534866
