# .PCD v0.7 - Point Cloud Data file format
VERSION 0.7
FIELDS x y z
SIZE 4 4 4
TYPE F F F
COUNT 1 1 1
WIDTH 1163
HEIGHT 1
VIEWPOINT 0 0 0 1 0 0 0
POINTS 1163
DATA ascii
-31.21325254 13.9655904 -9.742805241e-05
399.4559275 14.6804464 -9.742805241e-05
21.13982646 -2.459982034e-05 198.2662826
429.9644845 -2.459982034e-05 152.3080876
36.12939946 -2.459982034e-05 234.2426936
-43.89165254 -2.459982034e-05 81.70179557
168.4450775 46.4246374 -9.742805241e-05
-212.9442735 -2.459982034e-05 56.06595957
115.4892755 -2.459982034e-05 178.7835296
291.0983915 -2.459982034e-05 244.9716426
40.00689246 -2.459982034e-05 151.0589816
267.3722475 -2.459982034e-05 237.7825286
272.5552695 60.7478554 -9.742805241e-05
-411.7404585 -2.459982034e-05 153.5777886
-305.3052485 -2.459982034e-05 238.8908406
318.3961405 -2.459982034e-05 91.60680957
-427.0008285 49.9999754 60.99748857
206.1700275 -2.459982034e-05 75.71874357
-14.79680554 -2.459982034e-05 106.1971176
224.8794225 -2.459982034e-05 40.59324557
-237.9438675 45.3263614 -9.742805241e-05
39.84898046 -2.459982034e-05 114.2456246
20.72775446 -2.459982034e-05 52.45760257
-24.70171754 -2.459982034e-05 35.00736757
-325.9662285 -2.459982034e-05 22.51947357
-421.4401985 34.3478674 34.41378857
-310.5990585 -2.459982034e-05 168.3588956
273.6472085 -2.459982034e-05 7.449093572
295.8767225 -2.459982034e-05 192.4393906
-86.80900954 -2.459982034e-05 93.55747357
78.84716246 -2.459982034e-05 111.4492826
-6.358224538 -2.459982034e-05 5.291673572
-117.0957065 -2.459982034e-05 173.4445546
-411.7466785 47.3428624 20.76213257
-108.8643775 -2.459982034e-05 238.2285526
350.5550955 -2.459982034e-05 47.64414957
75.81111846 -2.459982034e-05 174.8169986
-412.9452185 66.5556384 -1.645994428
208.9875425 -2.459982034e-05 27.58563857
369.0065065 67.9999754 -0.7716864281
-89.84491654 40.2696144 -9.742805241e-05
-105.5570685 -2.459982034e-05 126.5707366
25.96229946 -2.459982034e-05 21.03333057
-155.7467245 -2.459982034e-05 120.1580906
58.59187346 -2.459982034e-05 246.2150866
217.9359565 -2.459982034e-05 55.02464057
270.2163265 -2.459982034e-05 134.7372046
381.8886525 -2.459982034e-05 134.5719646
101.1190115 -2.459982034e-05 148.8295016
11.53110646 -2.459982034e-05 101.5111636
-107.1812645 -2.459982034e-05 223.6658676
-297.7174985 -2.459982034e-05 119.8786716
373.1294815 -2.459982034e-05 185.8866516
-241.3940885 67.9999754 -1.082648428
-334.1792585 -2.459982034e-05 182.4238806
-409.0991085 -2.459982034e-05 88.92430557
130.5291625 -2.459982034e-05 200.5011266
-241.5739985 -2.459982034e-05 183.8549066
-190.1882265 -2.459982034e-05 153.5458406
-76.91436554 57.9027144 -9.742805241e-05
395.2343585 -2.459982034e-05 85.11726357
303.3458425 -2.459982034e-05 166.9643176
380.3293295 40.7939784 -9.742805241e-05
-3.970772538 -2.459982034e-05 150.4809016
-300.7993685 -2.459982034e-05 97.41910057
-154.4556795 -1.6595496 -9.742805241e-05
-370.3141285 -2.459982034e-05 216.1978066
-153.1286345 52.5851664 -9.742805241e-05
247.3866295 -2.459982034e-05 198.2574836
-16.46637054 -2.459982034e-05 91.15746557
-159.2407295 -2.459982034e-05 99.77380757
71.47131046 -2.459982034e-05 237.3140166
-19.63182754 -2.459982034e-05 185.7189146
-138.0608905 -2.459982034e-05 54.36054757
348.9324305 -2.459982034e-05 92.61198357
67.55897046 -2.459982034e-05 59.85326257
330.2392625 44.4693214 -9.742805241e-05
278.7583265 12.3574234 -9.742805241e-05
-341.8873485 -2.459982034e-05 3.530661572
363.9553805 -2.459982034e-05 19.17234957
173.5053895 -2.459982034e-05 117.4253126
-161.8192245 -2.459982034e-05 222.6715976
-397.7763085 -2.459982034e-05 36.71954957
321.5098005 -2.459982034e-05 189.8998626
76.18597946 67.0203254 -9.742805241e-05
-206.9376255 -2.459982034e-05 14.08432057
-146.6895905 -2.459982034e-05 38.49074757
377.7783785 -2.459982034e-05 212.0110586
367.6083225 -2.459982034e-05 63.02229857
-341.4477885 56.0134234 -9.742805241e-05
160.0543265 -2.459982034e-05 69.88304657
-99.14692354 20.0823914 -9.742805241e-05
246.7164885 -2.459982034e-05 214.4966316
-5.740447538 -2.459982034e-05 209.0676906
-380.2993585 13.8124944 -9.742805241e-05
-398.3481485 -2.459982034e-05 220.7749496
319.4835035 -2.459982034e-05 11.30249857
191.5424805 -2.459982034e-05 138.4122076
-62.87839954 33.2559364 -9.742805241e-05
-277.5565985 -2.459982034e-05 248.1820346
-193.9888015 19.5489504 -9.742805241e-05
284.5954815 67.9999754 -0.4601414281
241.7439365 -2.459982034e-05 179.0550656
334.5435695 67.9999754 -0.1738614281
-397.8292685 53.6517384 -9.742805241e-05
-248.2364985 -2.459982034e-05 125.4237866
-429.7958685 9.1853664 76.31192557
-59.03306754 8.5377064 -9.742805241e-05
42.86804246 -2.459982034e-05 35.64698957
-393.1110685 24.1934144 -9.742805241e-05
121.0375905 -2.459982034e-05 32.45009557
129.0374825 -2.459982034e-05 92.22847557
-118.8406975 52.3206614 -9.742805241e-05
164.3526535 -2.459982034e-05 103.1618846
-323.9632285 -2.459982034e-05 58.17703257
-313.2101385 -2.459982034e-05 110.6494906
-77.16148454 -2.459982034e-05 249.7654976
145.3585705 58.6415404 -9.742805241e-05
405.3114385 -2.459982034e-05 217.3176986
-32.84318354 -2.459982034e-05 129.4383276
-197.9834215 -2.459982034e-05 140.2997796
278.1816665 -2.459982034e-05 162.0946656
-327.9447085 -2.459982034e-05 222.3302366
379.5460925 -2.459982034e-05 40.32336257
-420.5090385 20.7429114 -2.000097428
99.50998046 -2.459982034e-05 190.0962556
344.1914655 -2.459982034e-05 203.1111436
236.5075125 -2.459982034e-05 16.30116857
91.87089846 49.1214304 -9.742805241e-05
-312.1394685 -2.459982034e-05 12.39722957
120.2288685 -2.459982034e-05 209.6586726
339.4159475 -2.459982034e-05 251.7354006
-401.7813085 -2.459982034e-05 181.5988696
406.3370015 -2.459982034e-05 169.4488666
168.5736575 15.1185884 -9.742805241e-05
-249.2095885 -2.459982034e-05 19.54855957
167.4723555 -2.459982034e-05 227.5020526
-290.3611285 -2.459982034e-05 190.8466896
-58.02794554 -2.459982034e-05 140.5885146
-46.12628354 -2.459982034e-05 15.14611957
414.7735745 -2.459982034e-05 37.37275157
-98.23365054 -2.459982034e-05 65.00909157
67.22450446 -2.459982034e-05 154.1612706
107.5016265 -2.459982034e-05 111.1045326
383.6959915 -2.459982034e-05 171.1795336
-426.1950985 45.6897564 -2.000097428
-157.8055075 -2.459982034e-05 49.05891457
85.89257146 -2.459982034e-05 251.1091626
-4.805148538 24.9867574 -9.742805241e-05
-277.3217385 -2.459982034e-05 164.7348076
-155.3645985 25.3346534 -9.742805241e-05
275.3966395 -2.459982034e-05 59.35548257
-40.07766354 56.5932284 -9.742805241e-05
-227.9827855 32.3930944 -9.742805241e-05
-425.1365585 49.9999754 47.27893557
-386.3714585 -2.2187456 -9.742805241e-05
347.5683395 8.3218404 -9.742805241e-05
-131.3755985 -2.459982034e-05 149.4117326
-157.6203785 -2.459982034e-05 188.5441226
-357.7254785 -2.459982034e-05 53.53403857
-170.8748565 -2.459982034e-05 235.3620346
-54.59066654 22.5145164 -9.742805241e-05
353.2175415 -2.459982034e-05 140.2866156
230.4886585 -2.459982034e-05 154.1652996
108.0683715 -2.459982034e-05 74.43007657
19.71549646 30.5738444 -9.742805241e-05
47.76912346 -2.459982034e-05 183.3593406
-13.20041454 -2.459982034e-05 124.9233556
146.4579205 -2.459982034e-05 105.0288856
4.209715462 48.6819574 -9.742805241e-05
-297.3631285 -2.459982034e-05 45.89829657
-175.8769295 -2.459982034e-05 97.51660457
212.6447425 64.3167114 -9.742805241e-05
-179.5284055 35.9314664 -9.742805241e-05
187.8804395 -2.459982034e-05 168.2989386
-263.4476985 49.2825294 -9.742805241e-05
-384.0976585 58.7823084 -9.742805241e-05
-163.8966325 11.3996774 -9.742805241e-05
-200.3376115 -2.459982034e-05 236.3937096
-328.6071285 -2.459982034e-05 95.99223657
-188.9013615 -2.459982034e-05 55.38724057
-26.36209654 -2.459982034e-05 159.0255326
290.8353795 -2.459982034e-05 145.3645066
-352.0261685 -2.459982034e-05 148.1581366
214.3455205 -2.459982034e-05 216.1874306
-384.3240985 -2.459982034e-05 96.74970157
71.54138546 8.9549034 -9.742805241e-05
360.9824815 57.5544934 -9.742805241e-05
-56.45925754 -2.459982034e-05 232.4545026
-49.03280754 -2.459982034e-05 47.27945957
256.4639795 -2.459982034e-05 74.51340857
152.2564225 -2.459982034e-05 59.25358557
29.82018646 -2.459982034e-05 173.7319426
-91.20858454 -2.459982034e-05 184.6710586
409.6334385 44.9357374 -0.6316714281
368.4845565 7.8938574 -9.742805241e-05
-259.7173785 -2.459982034e-05 183.7648976
-135.6561515 -0.3060975998 -9.742805241e-05
-279.8984485 -2.459982034e-05 98.32694357
-69.82169254 -2.459982034e-05 74.83780257
11.38633446 -2.459982034e-05 61.80754357
349.6754395 -2.459982034e-05 169.3996016
403.6701165 -2.459982034e-05 194.2736376
-217.5346705 -2.459982034e-05 152.9268186
-136.8464315 -2.459982034e-05 240.9436596
55.42728946 55.2044764 -9.742805241e-05
-228.2594365 -2.459982034e-05 143.5497836
39.46659946 -2.0944626 -9.742805241e-05
-422.6532585 21.0277654 54.32963857
85.34442446 -2.459982034e-05 194.2592996
-124.4214415 -2.459982034e-05 14.78901957
184.2589565 -2.459982034e-05 27.48959657
86.31349346 -2.459982034e-05 145.6420526
-114.6408625 -0.07229759982 -9.742805241e-05
-310.6284585 -2.459982034e-05 190.5887176
-422.4503285 7.5174954 37.52271057
-91.54547654 -2.459982034e-05 107.2868316
-70.66430054 -2.459982034e-05 24.68723857
393.0062135 -2.459982034e-05 56.98888257
127.7437625 -2.459982034e-05 183.0463786
31.59244446 -2.459982034e-05 124.3119216
284.4785705 38.3697934 -9.742805241e-05
43.72243446 29.2605194 -9.742805241e-05
-225.5867495 -2.459982034e-05 76.89149557
-136.8348035 -2.459982034e-05 82.66677857
-354.2026685 45.4919744 -9.742805241e-05
-335.6986985 -2.2594896 30.68942957
423.5249235 -2.459982034e-05 110.8211856
392.3923215 -2.459982034e-05 11.58515057
172.9220035 -2.459982034e-05 239.1897646
-117.9068265 -2.459982034e-05 109.9119006
375.8772505 -2.459982034e-05 78.95572557
-260.4294685 -2.459982034e-05 206.9664856
-316.9741985 -2.459982034e-05 214.5508846
250.9827905 12.2645684 -9.742805241e-05
389.4830575 -2.459982034e-05 144.9382496
139.4803745 -2.459982034e-05 84.74561057
-115.6979525 -2.459982034e-05 68.66621557
297.1251175 -2.459982034e-05 233.6549206
-76.48385154 -2.459982034e-05 147.9388576
-429.6050985 -2.459982034e-05 59.34495457
-123.1625205 38.1364204 -9.742805241e-05
-412.3117885 -2.459982034e-05 114.1694026
197.0966685 -2.459982034e-05 50.77354757
87.82747346 -2.459982034e-05 215.5822146
-370.1371385 6.1158104 -9.742805241e-05
-241.7647485 -2.459982034e-05 97.63329857
320.0504035 -2.459982034e-05 138.1922516
-382.2639185 -2.459982034e-05 202.2232076
-288.3795685 41.7311414 -9.742805241e-05
-108.7769115 11.4085814 -9.742805241e-05
216.2401885 -2.459982034e-05 162.8329366
57.21889746 -2.459982034e-05 114.3871426
-32.62802654 -2.459982034e-05 107.8992646
223.4084315 -2.459982034e-05 237.0212536
336.8778735 55.5462634 -9.742805241e-05
343.2107985 -2.459982034e-05 103.9159006
-354.9588785 -2.459982034e-05 204.3311566
140.0529605 -2.459982034e-05 139.7018966
399.2862745 -2.459982034e-05 70.61059757
-401.5417885 -2.459982034e-05 248.1495716
118.4295945 0.4926464002 -9.742805241e-05
360.5345835 -2.459982034e-05 187.0303646
-304.3253385 65.4833154 -9.742805241e-05
401.3390475 -2.459982034e-05 122.3083836
156.3542445 -2.459982034e-05 200.7475866
31.18049246 -2.459982034e-05 208.3220626
-196.2360205 -2.459982034e-05 172.8845016
-417.5852385 -2.459982034e-05 128.9073846
-51.39970054 -2.459982034e-05 59.63808457
194.8834475 -2.459982034e-05 35.26187957
262.8476895 -2.459982034e-05 58.81581657
-333.9286285 -2.459982034e-05 197.0721636
386.4962195 14.2550464 -9.742805241e-05
253.6889925 -2.459982034e-05 167.6371166
-270.4342885 3.8266854 -9.742805241e-05
-58.93000154 55.0723094 -9.742805241e-05
-169.7081425 43.7067204 -9.742805241e-05
-116.5286895 -2.459982034e-05 34.10206457
102.8004005 -2.459982034e-05 28.04796257
-350.3885785 -2.459982034e-05 106.3189206
-327.1169885 56.6634324 -9.742805241e-05
-394.2354785 -2.459982034e-05 131.6123626
297.6051955 -2.459982034e-05 50.97829057
205.1164515 -2.459982034e-05 188.2482906
-379.0706985 -2.459982034e-05 25.03391957
59.12543446 -2.459982034e-05 169.5494046
256.1909995 -2.459982034e-05 182.5195936
-180.6626195 -2.459982034e-05 73.33861357
151.0489505 -2.459982034e-05 245.3321646
-30.99285954 -2.459982034e-05 65.45444057
269.7792705 30.4474024 -9.742805241e-05
172.4325355 -2.459982034e-05 31.22212457
-109.8994085 -2.459982034e-05 205.1573936
-409.5192985 39.6612504 -0.6350624281
248.8223205 -2.459982034e-05 99.24967057
-12.87121554 -2.459982034e-05 251.8690536
98.08032946 -2.459982034e-05 99.15161257
-283.9737185 -2.459982034e-05 13.63089057
-93.53636354 -2.459982034e-05 15.78325557
-385.4393085 -2.459982034e-05 72.60719557
164.4616095 -2.459982034e-05 46.71778957
-310.8565185 -2.459982034e-05 82.42485657
-179.6981595 67.9999754 -2.135473428
377.4010715 -2.459982034e-05 55.48254657
-274.9381085 27.6558554 -9.742805241e-05
85.83087046 -2.459982034e-05 47.85519057
269.2454815 -2.459982034e-05 107.5264136
165.6760435 59.7605864 -9.742805241e-05
-46.64122254 -2.459982034e-05 145.3160546
209.0825805 -2.459982034e-05 242.8671596
30.83225646 -2.459982034e-05 105.1012916
310.3601855 -2.4870546 -9.742805241e-05
102.0556195 -2.459982034e-05 125.7816126
279.6903335 -2.459982034e-05 216.3879316
113.0590755 64.9865924 -9.742805241e-05
157.3921755 -2.459982034e-05 82.21959957
-215.7185755 -2.459982034e-05 33.08713057
-365.2466985 -2.459982034e-05 30.36249357
-366.5551985 -2.459982034e-05 251.0856756
193.1293815 -2.459982034e-05 122.9226756
-369.3400085 -2.459982034e-05 121.1109946
98.15566146 -2.459982034e-05 251.1039536
235.8015275 -2.459982034e-05 102.1735956
222.2685075 -2.459982034e-05 205.8430106
-19.29330354 -2.459982034e-05 209.7723196
320.2263905 -2.459982034e-05 160.7721286
296.7886005 23.2630174 -9.742805241e-05
100.1608025 -2.459982034e-05 236.7437936
-294.2048785 -2.459982034e-05 206.8898266
-387.0685485 -2.459982034e-05 49.47722057
8.976166462 -2.459982034e-05 162.3103426
-254.0249085 -2.459982034e-05 72.15246557
-78.86284154 -2.459982034e-05 181.5139776
-426.8667085 -2.459982034e-05 120.5178066
-305.2209385 50.4057824 -9.742805241e-05
17.14384446 -2.459982034e-05 11.30244057
104.0122875 48.5092154 -9.742805241e-05
217.2176325 -2.459982034e-05 84.96930557
79.95422646 -2.459982034e-05 124.2350006
-251.7484385 46.0295324 -9.742805241e-05
297.7844365 7.7323814 -9.742805241e-05
-166.3501585 -2.459982034e-05 168.3530906
63.17620646 -2.459982034e-05 137.9931746
147.1817415 -2.459982034e-05 168.4671146
169.3323025 -2.459982034e-05 167.5130376
-425.0523185 -2.459982034e-05 151.8364256
337.9554415 -2.459982034e-05 148.4011886
-141.0617115 -2.459982034e-05 67.76212657
51.94830746 -2.459982034e-05 210.0604456
-88.42538754 -1.6862696 -9.742805241e-05
-11.56869454 -2.459982034e-05 80.12258657
327.2366605 -2.459982034e-05 226.5210756
64.97857346 -2.459982034e-05 4.715968572
-98.32119154 -2.459982034e-05 232.3937696
-227.5784695 56.0629164 -9.742805241e-05
-422.7768385 -2.459982034e-05 72.96340357
46.44608446 -2.459982034e-05 60.50345257
-271.9498485 -2.459982034e-05 122.4967956
-255.8095985 -2.459982034e-05 97.20435857
387.7106545 -2.459982034e-05 183.4405296
207.5651425 -2.459982034e-05 15.66054757
259.3617915 -2.459982034e-05 207.2990346
-77.70736054 -2.459982034e-05 125.0508376
-287.7753785 -2.459982034e-05 69.72352057
-135.6893005 -2.459982034e-05 180.6257056
29.94053746 52.9972284 -9.742805241e-05
-185.3381255 47.2789404 -9.742805241e-05
149.0387815 -2.459982034e-05 129.1514006
279.8928345 -2.459982034e-05 239.8294766
89.49182946 -2.459982034e-05 165.7316866
-192.3299335 -2.459982034e-05 36.45151157
-7.163679538 -2.459982034e-05 46.11275457
-5.997951538 -2.459982034e-05 181.0327386
372.6538195 -2.459982034e-05 9.089829572
-222.4399595 7.7857984 -9.742805241e-05
101.1278575 -2.459982034e-05 50.11185757
22.60395446 18.1887394 -9.742805241e-05
137.7292055 18.0808474 -9.742805241e-05
384.9488735 -2.459982034e-05 227.9084436
-98.64914054 -2.459982034e-05 93.55065257
382.3462825 67.9999754 -2.485526428
-247.0192185 -2.459982034e-05 208.2397906
-52.89728454 -2.459982034e-05 121.0250946
262.3793005 -2.459982034e-05 13.51340157
331.0068215 30.8898894 -9.742805241e-05
384.5419115 -2.459982034e-05 106.7604676
209.6882505 -2.459982034e-05 105.7553856
-42.06143054 -2.459982034e-05 69.56738957
-242.7255385 -2.459982034e-05 79.53466457
-308.0295685 -2.459982034e-05 64.17680157
118.6094855 -2.459982034e-05 107.1315476
-352.4205185 -2.459982034e-05 90.81686357
-369.3690485 57.3755984 -9.742805241e-05
-19.74116454 -2.459982034e-05 171.4750346
-309.4731685 -2.459982034e-05 139.5089606
422.0382105 -2.459982034e-05 240.2862366
81.14569846 25.0747144 -9.742805241e-05
-348.8283685 -2.459982034e-05 77.12968257
195.1169555 27.5360864 -9.742805241e-05
-14.23244854 48.7769274 -9.742805241e-05
179.0319785 -2.459982034e-05 51.35408957
-403.6211885 -2.459982034e-05 193.1713526
-36.35309254 -2.459982034e-05 170.0370006
-64.78573654 -2.459982034e-05 6.991513572
130.3054965 -2.459982034e-05 146.1914456
330.5713955 -2.459982034e-05 180.0002136
-205.8641465 -2.459982034e-05 104.0008466
-354.4231585 10.9780954 -9.742805241e-05
-198.4449385 -2.459982034e-05 6.038939572
-410.9520885 11.1533114 -1.057856428
398.5126185 -2.459982034e-05 110.9739156
64.27792046 -2.459982034e-05 45.85871457
-149.6746465 -2.459982034e-05 26.62280257
-303.0362585 -2.459982034e-05 251.3235286
-269.4497185 -2.459982034e-05 195.4627856
279.5906635 -2.459982034e-05 87.49166757
206.5553485 40.4873924 -9.742805241e-05
-129.0560065 -2.459982034e-05 219.6292746
137.5536545 -2.459982034e-05 53.31598957
228.7766195 -2.459982034e-05 28.71842257
234.8661115 -2.459982034e-05 118.2499566
-323.1543185 -2.459982034e-05 145.3624876
0.5626684623 -2.459982034e-05 15.14659657
-36.51128754 -2.459982034e-05 241.3461626
-148.9912575 -2.459982034e-05 131.9753546
178.3766375 67.9999754 -1.316759428
-145.1597585 44.2142234 -9.742805241e-05
13.42874246 -2.459982034e-05 220.7567036
-234.6752575 12.1781834 -9.742805241e-05
90.22797146 67.9999754 -2.423289428
6.859967462 37.3435184 -9.742805241e-05
341.9256975 -2.459982034e-05 234.5142416
30.97731346 -2.459982034e-05 42.89423757
-274.9893385 -2.459982034e-05 110.0550556
173.9145235 -2.459982034e-05 7.111872572
187.0306725 -2.459982034e-05 236.3313506
-275.7434885 -2.459982034e-05 61.73147157
-343.2173485 -2.459982034e-05 244.6784606
-232.2166815 -2.459982034e-05 34.37825157
118.7531695 -2.459982034e-05 47.11916057
-254.3067885 21.8855004 -9.742805241e-05
50.98522546 -2.459982034e-05 157.4445786
426.6242615 -2.459982034e-05 136.5707666
-51.55638854 -2.459982034e-05 187.4394826
-129.8109895 -2.459982034e-05 116.7840816
126.7875325 -2.459982034e-05 135.1501686
-206.6529975 -2.459982034e-05 156.4180206
-166.0470855 -2.459982034e-05 62.47703757
0.5490194623 -2.459982034e-05 69.12067557
389.9993515 30.1940964 -9.742805241e-05
361.1510315 -2.459982034e-05 95.83744457
-362.6145685 -2.459982034e-05 143.3630646
-197.1906415 -2.459982034e-05 118.5637656
-426.3255185 -2.459982034e-05 97.58446657
57.99212746 -2.459982034e-05 24.47935857
-74.16895354 -2.459982034e-05 40.27407257
354.3149665 -2.459982034e-05 13.12864557
-112.2095505 -2.459982034e-05 193.7925246
386.2910505 -2.459982034e-05 31.16778957
420.6939695 -2.459982034e-05 81.48848257
-276.2048985 -2.459982034e-05 49.21902957
9.875155462 10.3534504 -9.742805241e-05
193.4053655 -2.459982034e-05 7.466189572
-415.7645785 5.7724554 16.94719757
69.38610146 -2.459982034e-05 30.81477957
-317.0014685 -2.459982034e-05 201.8974246
-199.7765065 -2.459982034e-05 94.33542857
407.6444735 -2.459982034e-05 238.0086076
-341.3177785 -2.459982034e-05 213.9086526
191.0171225 53.9139704 -9.742805241e-05
56.24359946 27.1317584 -9.742805241e-05
11.31556646 -2.459982034e-05 191.9611286
-158.4250815 -2.459982034e-05 88.51579757
-42.80957854 -2.459982034e-05 194.5723986
-47.31996954 11.1508164 -9.742805241e-05
309.9671105 21.9743634 -9.742805241e-05
-412.5225585 -2.459982034e-05 78.18868457
247.8523815 -2.459982034e-05 121.9181686
-184.6019295 -2.459982034e-05 89.84535557
-200.2332265 -2.459982034e-05 184.6503956
143.0638925 -2.459982034e-05 8.009975572
-315.9423485 11.0528844 -9.742805241e-05
346.5584795 -2.459982034e-05 215.0169006
-371.0990485 -2.459982034e-05 75.11255957
-425.7993685 10.3524524 47.83070757
332.7679485 -2.459982034e-05 211.9597936
-134.2138065 16.0399804 -9.742805241e-05
407.7316215 -2.459982034e-05 103.6044456
243.7878955 62.5746594 -9.742805241e-05
254.1537965 -2.459982034e-05 89.41083057
260.6437425 18.8650914 -9.742805241e-05
-293.4037685 -2.459982034e-05 6.404379572
267.7832675 -2.459982034e-05 152.5737726
281.1072935 -2.459982034e-05 49.74723257
-299.1947085 -2.459982034e-05 31.92083157
163.0864355 -2.459982034e-05 134.1699686
137.7759315 -2.459982034e-05 115.4135556
49.14517146 -2.459982034e-05 240.3017036
195.9375985 -2.459982034e-05 152.6735996
-176.8488765 -2.459982034e-05 187.9624046
105.7875245 -2.459982034e-05 201.5950796
-227.2554855 -2.459982034e-05 219.6236566
81.62038946 57.3114564 -9.742805241e-05
280.7219105 -2.459982034e-05 31.07107257
-0.3888075377 14.7877774 -9.742805241e-05
-399.5796285 -2.459982034e-05 154.3110746
-244.7783785 -2.459982034e-05 251.5402706
-231.1683465 -2.459982034e-05 118.4557456
227.2930215 34.2092144 -9.742805241e-05
-102.8940655 -2.459982034e-05 145.1747986
-217.1817355 -2.459982034e-05 201.7062106
-134.3132485 -2.459982034e-05 126.8924246
-140.7431055 -2.459982034e-05 158.0743956
-388.0837785 -2.459982034e-05 174.5118726
375.4584185 -2.459982034e-05 238.8980456
-340.2461385 27.4534144 -9.742805241e-05
-358.3208885 -2.459982034e-05 121.3954806
-169.4043395 -2.459982034e-05 37.83297357
-169.7939575 -2.459982034e-05 213.9388126
-363.9252685 -2.459982034e-05 63.77702457
-121.7796685 -2.459982034e-05 83.28770757
126.5101815 -2.459982034e-05 115.6186196
-386.2478885 47.0930784 -9.742805241e-05
-164.1269065 53.1317644 -9.742805241e-05
-136.0700375 -2.459982034e-05 43.59187457
29.20165546 -2.459982034e-05 59.38262057
-139.2700925 -2.459982034e-05 98.15143757
409.6334385 9.5228504 -2.249098428
124.2818885 42.7477204 -9.742805241e-05
-413.3740985 39.7538514 9.588776572
-277.0477485 -2.459982034e-05 211.3995616
-410.8741785 -2.459982034e-05 34.05834257
-57.18809254 -2.459982034e-05 220.0137646
355.4146655 -2.459982034e-05 117.6648096
-159.9495375 -2.459982034e-05 148.0167416
-252.7804985 -2.459982034e-05 136.6973586
-179.2622995 -2.459982034e-05 177.0314676
-321.7221085 -2.459982034e-05 81.82879957
99.45998646 -2.459982034e-05 63.12997157
190.9045495 -2.459982034e-05 74.97180157
418.8203565 66.3528874 -9.742805241e-05
-349.6782085 -2.459982034e-05 12.37004757
324.6637285 -2.459982034e-05 64.77942657
-345.4916385 66.0855504 -9.742805241e-05
240.2265265 -2.459982034e-05 3.475203572
201.8254015 -2.459982034e-05 226.0846046
172.8906745 -2.459982034e-05 210.9218666
-334.4098185 -2.459982034e-05 122.2287046
337.1289295 -2.459982034e-05 31.64688157
181.8436775 35.5556014 -9.742805241e-05
-72.98565254 67.9999754 -0.3080244281
319.9057835 -2.459982034e-05 77.84496357
-273.2439285 -2.459982034e-05 31.99822657
406.0461735 67.6900294 -9.742805241e-05
105.0324145 -2.459982034e-05 176.0171776
417.6465765 -2.459982034e-05 67.66057957
11.69218746 -2.459982034e-05 117.8679596
-414.2923385 -2.459982034e-05 103.5455846
337.8145365 1.4371494 -9.742805241e-05
130.7278775 -2.459982034e-05 248.1387466
-330.9457285 -2.459982034e-05 66.40303057
309.4702685 -2.459982034e-05 213.1208026
402.3372995 -2.459982034e-05 47.31958857
-20.56634554 -2.459982034e-05 6.752764572
-114.9538505 -2.459982034e-05 133.7075016
228.9493075 -2.459982034e-05 187.7690246
-180.4110625 12.2521544 -9.742805241e-05
-111.2327875 -2.459982034e-05 182.4491996
-302.6080685 -2.459982034e-05 129.5003186
245.5205535 -2.459982034e-05 23.13870957
-429.6125085 35.4966804 75.74773357
-3.105487538 67.6915444 -9.742805241e-05
-201.9682575 -2.459982034e-05 62.59834357
-161.2981425 -2.459982034e-05 249.0050426
138.9818955 -2.459982034e-05 96.13844457
121.4909705 19.6326254 -9.742805241e-05
-111.1946465 41.7741314 -9.742805241e-05
69.25268846 -2.459982034e-05 195.4260276
321.5243635 50.5762004 -9.742805241e-05
62.60956946 63.0540814 -9.742805241e-05
30.65148746 8.9150554 -9.742805241e-05
-97.50442754 -2.459982034e-05 119.6225516
22.13832946 -2.459982034e-05 84.40809557
-299.4584185 5.9297284 -9.742805241e-05
-345.6467485 -2.459982034e-05 47.35757557
-128.1985875 -2.459982034e-05 248.4807986
369.1710925 -2.459982034e-05 196.6774726
84.76154646 -2.459982034e-05 37.17724757
-36.76002454 43.4813994 -9.742805241e-05
35.75192546 -2.459982034e-05 160.7781226
-95.16186254 -2.459982034e-05 26.53841057
301.2921735 -2.459982034e-05 83.84284857
229.5489865 -2.459982034e-05 81.20412857
-419.0122685 -2.459982034e-05 236.0609486
-322.9972485 67.9999754 -0.2591584281
-22.47888954 -2.459982034e-05 240.9924306
-361.4750885 67.8371124 -9.742805241e-05
38.67368946 67.9999754 -1.982563428
311.4240885 -2.459982034e-05 132.0396036
-88.19589954 56.9957544 -9.742805241e-05
-172.4430235 -2.459982034e-05 139.8252206
331.9984465 -2.459982034e-05 15.59670857
369.0081535 -2.459982034e-05 218.2647486
19.12402346 59.8586904 -9.742805241e-05
-426.0538085 -2.459982034e-05 222.8956716
-420.2912985 34.1210704 47.06002757
-382.1531585 -2.459982034e-05 238.2810446
-214.3738985 -2.459982034e-05 43.83726057
289.1248325 14.3098574 -9.742805241e-05
-45.18724354 36.6139564 -9.742805241e-05
-254.0369585 -2.459982034e-05 10.17424157
317.6256855 -2.459982034e-05 206.1896906
-117.4645535 -2.459982034e-05 154.3558306
91.11443546 3.3060334 -9.742805241e-05
100.7737635 12.1052374 -9.742805241e-05
69.93743246 -2.459982034e-05 103.5174976
-71.82477254 -2.459982034e-05 200.2030116
274.8054945 -2.459982034e-05 195.9722496
-314.2131885 -2.459982034e-05 24.26749357
354.4589075 -2.459982034e-05 37.91790057
71.58987046 -2.459982034e-05 184.4004126
-424.1771685 -2.459982034e-05 189.9375286
386.4538475 -2.459982034e-05 48.24438857
418.5489015 -2.459982034e-05 164.9207676
20.05964946 1.3993514 -9.742805241e-05
-405.3581785 -2.459982034e-05 127.6421926
118.6229095 -2.459982034e-05 244.5074106
-40.13336054 -2.459982034e-05 205.5395406
2.382519462 -2.459982034e-05 221.5676776
204.2143165 -2.459982034e-05 141.0071696
-37.24217854 -2.459982034e-05 157.7386646
232.0477895 57.7688274 -9.742805241e-05
-127.2272995 -2.459982034e-05 105.2521306
-218.2867835 -2.459982034e-05 163.3139266
-368.6888285 -2.459982034e-05 226.4678066
-260.0396585 67.9999754 -1.908251428
246.2645825 25.4393944 -9.742805241e-05
425.1541105 -2.459982034e-05 37.58784957
-390.1392985 -2.459982034e-05 212.4252496
-62.95737254 -2.459982034e-05 131.0042756
-316.3616985 -2.459982034e-05 42.27945157
386.6832715 -2.459982034e-05 79.26765057
164.0313675 -2.459982034e-05 10.32511057
245.4317095 -2.459982034e-05 227.0389226
47.57336146 -2.459982034e-05 226.5873486
-209.9532795 41.4910254 -9.742805241e-05
198.7308385 -2.459982034e-05 101.0247106
289.0978915 -2.459982034e-05 70.77238157
-360.6623085 -2.459982034e-05 190.5289286
-315.8116985 28.0084044 -9.742805241e-05
-403.0701985 -2.459982034e-05 73.68174057
-366.6477885 -2.459982034e-05 7.539965572
81.16869646 -2.459982034e-05 10.78774957
200.1217035 3.5025854 -9.742805241e-05
6.473177462 -2.459982034e-05 142.9244126
-428.8947785 -2.459982034e-05 40.36807557
360.8387195 -2.459982034e-05 160.8009046
-10.09120154 -2.459982034e-05 194.3181226
374.1720595 -2.459982034e-05 127.7705226
403.6907655 -2.459982034e-05 151.6054656
-317.2172985 -2.459982034e-05 0.8198675719
-43.09586654 67.9999754 -0.5905194281
-230.9266295 -2.459982034e-05 184.8230426
-394.7698685 -2.459982034e-05 141.8624776
-61.69320754 44.6506574 -9.742805241e-05
-307.4998285 -2.459982034e-05 218.4765496
270.2399555 -2.459982034e-05 209.0591306
-273.7875685 -2.459982034e-05 82.84499257
-430.2773685 21.0506134 61.61204457
278.4441295 50.5615514 -9.742805241e-05
162.7071565 -2.459982034e-05 238.6387726
-92.53601254 -2.459982034e-05 201.2533686
259.1695665 -2.459982034e-05 134.8512816
-30.94867254 25.5113824 -9.742805241e-05
222.7912245 65.4860854 -9.742805241e-05
-82.65717254 -2.459982034e-05 211.1208346
-366.1796585 -2.459982034e-05 40.53222257
203.4164395 -2.459982034e-05 170.8453836
199.6018285 59.4249834 -9.742805241e-05
237.6641745 -2.459982034e-05 44.72539157
-393.9342685 -2.459982034e-05 93.34911157
420.1063955 9.3661584 -9.742805241e-05
307.2949235 -2.459982034e-05 241.8809626
-231.6838825 -2.459982034e-05 50.81571157
-240.3065785 -2.459982034e-05 156.1955366
287.4542315 -2.459982034e-05 135.7803036
-187.0515835 58.5842014 -9.742805241e-05
-74.15207554 -2.459982034e-05 10.90065757
-68.99789254 6.6197154 -9.742805241e-05
273.9416055 -2.459982034e-05 123.6711366
-416.2247085 -2.459982034e-05 164.0208256
350.5802005 28.0538784 -9.742805241e-05
-67.84584054 -2.459982034e-05 230.8037256
-33.42552954 -2.459982034e-05 180.6252626
-425.2104085 -2.459982034e-05 201.7211816
48.70240646 -2.459982034e-05 89.10146457
-325.2223185 -2.459982034e-05 32.61601557
-254.6336185 8.4868004 -9.742805241e-05
-407.0097885 -2.459982034e-05 233.3091496
129.3062435 -2.459982034e-05 2.534618572
16.35199046 -2.459982034e-05 230.9567406
192.8423215 11.2392254 -9.742805241e-05
-346.0879685 -2.459982034e-05 34.57647857
185.6680635 -2.459982034e-05 96.34589757
-125.2734235 -2.459982034e-05 63.19676657
64.96481346 -2.459982034e-05 218.4833426
-183.4176405 -2.459982034e-05 121.1983386
243.5885985 -2.459982034e-05 167.3768276
266.4198295 -2.459982034e-05 247.8881306
412.9809515 -2.459982034e-05 -2.214489428
-253.2468985 -2.459982034e-05 110.7918866
-279.4092885 52.6885254 -9.742805241e-05
-181.9331265 -2.3630306 -9.742805241e-05
361.8826965 -2.459982034e-05 245.2282236
-56.90180954 -2.459982034e-05 103.8058236
288.6230925 -2.459982034e-05 185.4522286
411.6494385 -2.459982034e-05 22.60484157
68.71488646 -2.459982034e-05 166.4981316
12.11545446 -2.459982034e-05 91.47055657
-259.0522485 -2.459982034e-05 221.4551136
385.0533675 58.0821214 -9.742805241e-05
159.7582095 19.9576664 -9.742805241e-05
-106.3392165 -2.459982034e-05 173.0364546
-404.8228885 -2.459982034e-05 204.9897306
-104.2127655 -2.459982034e-05 247.1172816
399.5085845 44.3261424 -9.742805241e-05
-25.94491154 -2.459982034e-05 136.7043646
-305.0972885 -2.459982034e-05 182.2399356
418.5126615 -2.459982034e-05 214.4071666
-50.46641654 -2.459982034e-05 35.58125957
-129.2692245 -2.459982034e-05 194.6661416
6.328234462 -2.459982034e-05 128.0716146
-375.4248385 49.0653154 -9.742805241e-05
259.3410825 -2.459982034e-05 40.79359557
-366.7885685 -2.459982034e-05 91.40833557
-329.7569685 -2.459982034e-05 172.6502636
-182.6900335 -2.459982034e-05 144.9033376
161.2145745 -2.459982034e-05 93.69560657
-255.3209085 -2.459982034e-05 35.99605657
-86.27620454 -2.459982034e-05 222.0725436
-40.22057054 -2.459982034e-05 251.1655226
53.01365746 -2.459982034e-05 79.10719357
-117.8543605 -2.459982034e-05 221.9674636
241.1202955 -2.459982034e-05 141.1501706
142.7458695 -2.459982034e-05 22.87091957
314.3696095 43.2142444 -9.742805241e-05
-224.8351145 -2.459982034e-05 93.05468757
-430.2445685 18.6939744 -2.000097428
117.1660315 -2.459982034e-05 132.6254056
329.0688555 -2.459982034e-05 37.68523757
-413.8210485 26.1455904 27.14679457
-162.3096615 -2.459982034e-05 197.3069336
181.5116545 9.4837064 -9.742805241e-05
48.13469846 -2.459982034e-05 193.2769356
381.4860985 -2.459982034e-05 161.5214656
319.6083525 7.9379024 -9.742805241e-05
-298.2019985 40.5007764 -9.742805241e-05
-14.11778054 -2.459982034e-05 150.8155706
-199.8047535 -2.459982034e-05 76.06155157
-91.18651854 -2.459982034e-05 144.2608306
298.8245045 -2.459982034e-05 209.6995796
100.4217005 -2.459982034e-05 223.5067506
309.5457125 -2.459982034e-05 61.79054557
-87.56143354 -2.459982034e-05 124.7339186
264.5376125 -2.459982034e-05 227.7251406
-23.01533054 67.9999754 -1.802670428
363.2381095 -2.459982034e-05 71.84134357
359.7903265 -2.459982034e-05 230.4150106
-2.490864538 -2.459982034e-05 55.20073257
-242.2598785 -2.459982034e-05 230.9887086
42.86060646 46.9001654 -9.742805241e-05
-323.6349485 -2.459982034e-05 120.7253076
393.3069905 -2.459982034e-05 169.1479466
-294.5134685 65.9272714 -9.742805241e-05
116.4156255 -2.459982034e-05 221.9340706
-291.3211685 -2.459982034e-05 94.88108057
-415.7729385 -2.459982034e-05 138.5446896
-148.8800595 -2.459982034e-05 141.7684106
354.0035675 -2.459982034e-05 130.5313376
-286.1587685 26.9577384 -9.742805241e-05
352.5029535 50.8895114 -9.742805241e-05
-367.1011485 -2.459982034e-05 50.81498357
153.3039645 52.9818114 -9.742805241e-05
-59.37695154 -2.459982034e-05 28.29340057
-227.4943235 -2.459982034e-05 241.4277226
149.8713885 -2.459982034e-05 33.61708357
-193.2244425 -2.459982034e-05 163.6245116
-38.89333554 -2.459982034e-05 139.3070466
-402.5281685 -2.459982034e-05 27.96637257
-128.0818805 -2.459982034e-05 140.2564426
385.1807595 -2.459982034e-05 238.6310956
183.7044425 -2.459982034e-05 120.5513886
-332.0136085 -2.459982034e-05 12.99511157
-180.3203405 -2.459982034e-05 244.6913266
-126.3229915 61.8873984 -9.742805241e-05
45.28610846 -2.459982034e-05 72.27655657
-252.5251085 -2.459982034e-05 174.6038826
-20.07275654 -2.459982034e-05 229.6893266
-427.9762685 17.4905344 70.71206457
260.3476585 -1.2691496 -9.742805241e-05
-214.3288085 -2.459982034e-05 192.4377666
-82.71345954 -2.459982034e-05 33.96948257
-118.5179855 -2.459982034e-05 239.0469716
-366.0949985 32.5214424 -9.742805241e-05
175.0340125 -2.459982034e-05 155.3466176
236.9303175 -2.459982034e-05 128.5052856
220.8290525 -2.459982034e-05 153.8188106
377.0665465 -2.459982034e-05 202.3040786
-81.83888254 -2.459982034e-05 168.6576526
260.7473175 -2.459982034e-05 161.0672446
-70.24524754 -2.459982034e-05 175.7609696
124.1830505 -2.459982034e-05 18.93476357
-228.9086715 -2.459982034e-05 10.60546957
129.7567435 -2.459982034e-05 211.1071356
278.8799495 -2.459982034e-05 107.7462926
408.9648125 -2.459982034e-05 178.7076666
-285.9140085 -2.459982034e-05 169.0557146
86.38295346 -2.459982034e-05 74.06215957
117.2733895 -2.459982034e-05 71.66297957
-192.6659335 -2.459982034e-05 46.10158157
-305.8971385 29.0819464 -9.742805241e-05
148.1538315 -2.459982034e-05 236.1557636
-369.3001385 -2.459982034e-05 167.8902046
7.832003462 57.5707634 -9.742805241e-05
-215.4796535 -2.459982034e-05 178.4657436
214.1346995 21.6247994 -9.742805241e-05
263.1687345 58.8718634 -9.742805241e-05
-43.54648754 -2.459982034e-05 123.0608146
278.0583675 -2.459982034e-05 68.53662357
-387.1316485 -2.459982034e-05 14.29004257
-146.4736595 21.8368404 -9.742805241e-05
91.47467746 27.7597594 -9.742805241e-05
-65.82722854 -2.459982034e-05 49.21094257
69.45485746 44.5894174 -9.742805241e-05
-389.1680785 -2.459982034e-05 122.0293276
423.6078625 20.1465124 -9.742805241e-05
-4.684893538 52.0748014 -9.742805241e-05
214.5445415 46.0936874 -9.742805241e-05
-361.1510285 -2.459982034e-05 213.6327096
166.4599595 -2.459982034e-05 189.3379076
-148.7751245 -2.459982034e-05 211.6245686
-124.9897495 -2.459982034e-05 27.41883457
-238.7207085 -2.459982034e-05 220.5895026
307.6742875 -2.459982034e-05 111.8284866
142.4958365 67.6642024 -9.742805241e-05
-105.8397635 -2.459982034e-05 48.69502257
351.0897265 -2.459982034e-05 196.6318266
318.1295705 -2.459982034e-05 23.15488557
45.09633346 -2.459982034e-05 46.29433057
-136.7772765 38.3526514 -9.742805241e-05
72.36179546 -2.459982034e-05 83.98146557
-2.614449538 -2.459982034e-05 234.9068226
293.3614385 -2.459982034e-05 154.4587876
-273.3597185 -2.459982034e-05 22.56898857
270.5331115 -2.459982034e-05 97.38515757
348.3154485 -2.459982034e-05 224.9292846
-332.6668585 -2.459982034e-05 86.25389857
334.2296125 -2.459982034e-05 121.6029996
-71.73468454 -2.459982034e-05 210.2683846
411.6718505 28.3148354 -9.742805241e-05
307.9902375 -2.459982034e-05 142.7279986
-40.59375854 -2.459982034e-05 26.23325857
-97.11274654 46.9398164 -9.742805241e-05
-416.8985185 36.3581924 20.43589157
27.84266146 -2.459982034e-05 154.1906476
-8.495145538 -2.459982034e-05 171.9952126
-180.3450015 -2.459982034e-05 214.5731486
-379.6157385 4.2678204 -9.742805241e-05
-406.7260085 -2.459982034e-05 58.45146657
-49.64657054 56.2429974 -9.742805241e-05
-241.8152685 -2.459982034e-05 193.2074306
388.4450595 -2.459982034e-05 127.8985246
266.7921075 -2.459982034e-05 180.1067116
-26.41752154 -2.459982034e-05 201.8232626
-347.6501285 -2.459982034e-05 23.81188057
-103.3358535 -2.459982034e-05 11.68548757
-377.8613385 -2.459982034e-05 51.05185457
-290.3251885 -2.459982034e-05 150.5285676
-146.4347165 -2.459982034e-05 240.9964926
134.2450415 -2.459982034e-05 71.34993157
389.4443225 -2.459982034e-05 20.43090457
341.7395465 36.2459974 -9.742805241e-05
-187.6287615 -2.459982034e-05 192.2067756
128.7549225 -2.459982034e-05 155.3737216
-342.3541685 -2.459982034e-05 162.3458776
-178.7282825 -2.459982034e-05 45.81596757
-387.5699585 -2.459982034e-05 164.3522366
-410.2353285 -2.459982034e-05 215.3672176
231.6103535 -2.459982034e-05 65.54107157
-302.5569585 -2.459982034e-05 154.8618396
79.84905346 -2.459982034e-05 244.0645456
-118.6183035 -2.459982034e-05 201.9818506
-147.4415455 64.0102484 -9.742805241e-05
-264.8267885 -2.459982034e-05 116.5658566
-89.02178054 28.1440954 -9.742805241e-05
-210.1004105 -2.459982034e-05 208.8879826
-328.8280685 17.8456184 -9.742805241e-05
-63.96121154 -2.459982034e-05 111.7061776
371.0931325 44.4482634 -9.742805241e-05
209.7946365 -2.459982034e-05 67.19986357
121.4361625 60.4563784 -9.742805241e-05
-62.96659354 -2.459982034e-05 197.5427766
154.0358975 -2.459982034e-05 149.4329596
-15.76496554 36.4408654 -9.742805241e-05
-371.2058385 -2.459982034e-05 148.4812506
-188.0297365 -2.459982034e-05 220.4145346
138.8220245 -2.459982034e-05 181.4528786
-418.8327985 45.5524974 26.38882557
30.80259646 -2.459982034e-05 189.9238006
248.8488365 40.9043034 -9.742805241e-05
-126.1612615 24.0023684 -9.742805241e-05
-181.1992115 -2.459982034e-05 200.8665576
-23.62764754 -2.459982034e-05 103.6180086
356.1999535 -2.459982034e-05 25.64214357
60.05619346 8.9719684 -9.742805241e-05
-280.4340085 -2.459982034e-05 236.9651836
-406.6085085 -0.5502585998 -9.742805241e-05
-288.8863585 -2.459982034e-05 110.9567876
103.7853535 -2.459982034e-05 135.8069046
-47.28780754 -2.459982034e-05 233.0236526
-221.1532595 -2.459982034e-05 51.94189057
-415.6720085 11.5854594 32.84320757
120.6319205 -2.459982034e-05 150.5853796
-83.57852654 -2.459982034e-05 114.7405746
-259.5294685 -2.459982034e-05 27.74974357
-327.0289385 -2.459982034e-05 243.9148266
-329.6137285 -2.459982034e-05 151.8791546
85.45568546 -2.459982034e-05 203.4301146
-171.8075695 63.4919224 -9.742805241e-05
111.9220065 -2.459982034e-05 83.76487157
-370.7662285 -2.459982034e-05 139.1729486
-245.5285485 0.05589540018 -9.742805241e-05
-301.6635985 -2.459982034e-05 57.58950357
-166.3137075 -2.459982034e-05 26.28408557
417.4777925 -2.459982034e-05 99.97525557
-78.56635554 -2.459982034e-05 52.44422157
-357.8481585 22.3534804 -9.742805241e-05
392.5267475 -2.459982034e-05 207.0254336
-39.47456454 -2.459982034e-05 94.19963857
-415.8149685 21.3542284 17.10135357
199.0066805 -2.459982034e-05 200.3459676
-236.6905295 -2.459982034e-05 174.5616236
-236.4604455 58.0475784 -9.742805241e-05
338.8322835 -2.459982034e-05 160.4098326
-429.8759385 -2.459982034e-05 144.1258926
75.98418546 -2.459982034e-05 63.25851357
186.5428775 -2.459982034e-05 146.0006046
-146.4887925 -2.459982034e-05 4.041019572
219.2960305 -2.459982034e-05 24.41983257
-362.5322585 -2.459982034e-05 111.3497456
-301.5154385 14.7645424 -9.742805241e-05
120.1873475 -2.459982034e-05 90.30365357
-203.7816115 -2.459982034e-05 133.3525416
177.1769885 26.7425754 -9.742805241e-05
332.2707715 -2.459982034e-05 141.3708196
-293.5809385 -2.459982034e-05 129.3027596
-335.4254485 -2.459982034e-05 106.0736356
176.3796395 -2.459982034e-05 189.9566636
-422.1865685 -2.459982034e-05 -0.9876904281
-82.20252254 4.8398434 -9.742805241e-05
377.7703115 -2.459982034e-05 28.14952357
35.96932746 -2.459982034e-05 88.23391457
186.9959665 -2.459982034e-05 18.02310757
-316.4380485 -2.459982034e-05 132.4697426
330.2177575 6.3753964 -9.742805241e-05
-206.4591525 -2.459982034e-05 147.4227396
422.7545645 0.7668394002 -9.742805241e-05
237.7463545 -2.459982034e-05 220.0778536
-259.2789085 -2.459982034e-05 243.3079436
-58.85968454 -0.4512905998 -9.742805241e-05
-140.0592295 -2.459982034e-05 167.1845956
-99.25424054 -2.459982034e-05 180.3434556
-406.7250585 -2.459982034e-05 174.1067906
-143.0862315 7.3819364 -9.742805241e-05
287.9185525 -2.459982034e-05 219.9731066
62.14603246 36.7800324 -9.742805241e-05
309.5746835 -2.459982034e-05 10.39703957
-263.8712485 -2.459982034e-05 6.927300572
-14.67232954 -0.1393025998 -9.742805241e-05
238.1603095 51.2154684 -9.742805241e-05
310.9808445 -2.459982034e-05 86.58129057
325.7055075 -2.459982034e-05 114.2911986
-264.1690085 -2.459982034e-05 69.07784457
103.0734935 -2.459982034e-05 8.445804572
49.03482346 -2.459982034e-05 250.6162236
-346.8975085 -2.459982034e-05 179.9575996
60.20449746 -2.459982034e-05 206.3213596
107.2384385 39.2116254 -9.742805241e-05
303.6107325 29.0391294 -9.742805241e-05
297.4967705 -2.459982034e-05 62.50804157
151.0950025 -2.459982034e-05 112.6653906
405.2246545 -2.459982034e-05 14.41147857
342.5170515 -2.459982034e-05 21.73868357
-305.9378285 -2.459982034e-05 43.40488257
316.8395485 -2.459982034e-05 224.0000866
285.6975905 -2.459982034e-05 113.8518006
57.73881746 -2.459982034e-05 235.2629716
-125.9514095 -2.459982034e-05 157.1207046
-126.5369445 -2.459982034e-05 0.7752865719
-196.0692655 -2.459982034e-05 198.4122986
-376.4838385 38.1354584 -9.742805241e-05
-233.2102255 -2.459982034e-05 136.1386236
204.7772905 -2.459982034e-05 113.1897226
-130.1611455 -2.459982034e-05 173.6416326
-231.0376035 -2.459982034e-05 107.6823806
-125.1255165 -2.459982034e-05 37.79148257
295.7559635 -2.459982034e-05 101.8215396
-76.90095054 -2.459982034e-05 69.05446057
-301.7626685 -2.459982034e-05 167.3603246
209.0766815 -2.459982034e-05 54.25986457
-78.62709954 -2.459982034e-05 158.5654796
15.36226046 -2.459982034e-05 156.1349346
308.0560395 -2.459982034e-05 189.7969236
-374.3332685 -2.459982034e-05 101.2937876
190.2935375 -2.459982034e-05 228.0813986
312.5911095 -2.459982034e-05 104.2914516
246.7173955 -2.459982034e-05 69.98331957
-67.15276754 58.3825734 -9.742805241e-05
-386.4183285 -2.459982034e-05 154.0482196
135.8196425 -2.459982034e-05 62.00234257
314.7137725 -2.459982034e-05 33.81602057
-41.35498254 -2.459982034e-05 216.4836066
-151.3533465 -2.459982034e-05 150.2680136
174.3273425 -2.459982034e-05 220.8249986
402.5820505 -2.459982034e-05 160.3841946
141.3255845 40.8160424 -9.742805241e-05
361.2278215 -2.459982034e-05 172.2333586
-425.2685885 31.9591534 62.37857857
188.9220095 -2.459982034e-05 246.4281296
-23.14551754 6.8302554 -9.742805241e-05
-300.8391485 -2.459982034e-05 11.36836257
186.6212225 45.7731114 -9.742805241e-05
197.6804355 -2.459982034e-05 214.3072686
231.8096155 -2.459982034e-05 6.605834572
77.45121546 -2.459982034e-05 199.6874856
-89.98119854 -2.459982034e-05 61.85241757
159.1156845 -2.459982034e-05 224.6491256
336.9670195 -2.459982034e-05 112.4526676
24.69829946 -2.459982034e-05 143.1681176
-204.8407825 27.1666624 -9.742805241e-05
-166.3001725 -2.459982034e-05 159.5419096
14.59043846 -2.459982034e-05 29.96520557
353.6617625 -2.459982034e-05 62.24697157
-394.8042085 -2.459982034e-05 70.68577357
-202.8021075 36.3776624 -9.742805241e-05
111.7897675 -2.459982034e-05 170.4079156
-93.26748254 -2.459982034e-05 86.62442857
212.6044575 -2.459982034e-05 206.9677516
-38.55980054 -2.459982034e-05 226.3371706
149.3777945 -2.459982034e-05 195.4471226
312.6148995 59.1816774 -9.742805241e-05
274.2288755 -2.459982034e-05 172.4550406
-71.63319754 33.2473524 -9.742805241e-05
-348.8328985 -2.459982034e-05 56.45386057
-393.0701185 -2.459982034e-05 182.4583806
338.4697085 -2.459982034e-05 83.71643457
-142.3112685 -2.459982034e-05 123.3733476
321.7143395 38.4840014 -9.742805241e-05
254.9939405 -2.459982034e-05 19.65936057
228.3339985 -2.459982034e-05 245.2484166
86.78064246 -2.459982034e-05 129.6763826
139.7336765 -2.459982034e-05 233.7773196
-208.2363495 -2.459982034e-05 242.7873906
-14.75315154 -2.459982034e-05 56.81551657
294.2690415 46.3169604 -9.742805241e-05
-238.3878545 23.1968524 -9.742805241e-05
-176.1777315 -2.459982034e-05 8.623851572
-7.406847538 7.9935834 -9.742805241e-05
39.86418646 -2.459982034e-05 208.9122436
225.1618325 -2.459982034e-05 165.4710216
39.83084446 -2.459982034e-05 103.8636756
89.17599746 -2.459982034e-05 18.52250657
-315.0267985 49.6645894 -9.742805241e-05
204.1103015 -2.459982034e-05 249.9623516
408.8634315 -2.459982034e-05 84.42698157
309.1278285 67.0938314 -9.742805241e-05
274.9151715 4.6137884 -9.742805241e-05
336.4782645 -2.459982034e-05 53.59329057
-371.0473185 -2.459982034e-05 21.83315157
-276.7491885 -2.459982034e-05 176.6253276
-153.4332745 -2.459982034e-05 220.6411986
80.85827846 -2.459982034e-05 56.14672257
-108.9716685 -2.459982034e-05 26.73924357
418.9373725 -2.459982034e-05 118.1148406
-274.0677885 67.9999754 -0.8718484281
127.1960235 -2.459982034e-05 192.5625596
-0.07979153767 -2.459982034e-05 25.72411857
-1.876561538 -2.459982034e-05 200.8420466
228.5817815 16.5101324 -9.742805241e-05
-322.8916985 35.3763974 -9.742805241e-05
369.4328405 -0.6409135998 -9.742805241e-05
428.5545125 -2.459982034e-05 87.60198057
423.9766865 -2.459982034e-05 204.8267746
401.6759215 -2.459982034e-05 93.65169257
-225.6808215 -2.459982034e-05 26.96375457
74.39855946 -2.459982034e-05 49.33811157
146.0163085 -2.459982034e-05 146.4358826
348.6298935 -2.459982034e-05 1.706591572
-61.38264554 -2.459982034e-05 184.3077366
-405.2707685 47.8759454 -9.742805241e-05
280.4361785 -2.459982034e-05 130.2859856
-202.7657845 -2.459982034e-05 111.9766936
-255.0982485 -2.459982034e-05 213.8685346
-268.3382385 35.0433334 -9.742805241e-05
220.5116535 -2.459982034e-05 118.2865786
129.2862525 23.1243684 -9.742805241e-05
-422.9603285 41.3286424 39.09214257
-116.4476905 -2.459982034e-05 11.73989157
262.7207925 -2.459982034e-05 83.22109057
351.1892265 17.3448194 -9.742805241e-05
-192.0994185 29.0571304 -9.742805241e-05
98.20746546 -2.459982034e-05 35.23236757
119.4785675 -2.459982034e-05 201.0079186
167.4118685 -2.459982034e-05 159.1501506
-118.3275895 -2.459982034e-05 119.2150756
-347.8809085 -2.459982034e-05 236.8480866
-19.72701554 55.2666744 -9.742805241e-05
248.0924585 -2.459982034e-05 34.25593957
-107.3790075 60.3499214 -9.742805241e-05
424.0888885 -2.459982034e-05 227.0802336
-424.0958285 26.7187564 42.58713957
-195.0165565 47.0517444 -9.742805241e-05
-54.47301154 -2.459982034e-05 130.5831986
-220.2887645 27.6003654 -9.742805241e-05
-271.7476285 -2.459982034e-05 228.4490186
6.419984462 -2.459982034e-05 108.2820986
344.7826875 61.6571544 -9.742805241e-05
-109.9116955 -2.459982034e-05 39.39944557
-100.7742345 -2.459982034e-05 56.03412457
-55.73394154 -2.459982034e-05 158.9723336
-189.3845255 -2.459982034e-05 137.6203386
229.3368655 -2.459982034e-05 91.19670057
-270.5803585 -2.459982034e-05 14.58373757
280.3682895 -2.459982034e-05 12.57823557
189.6472985 -2.459982034e-05 46.77770257
-351.4603385 -2.459982034e-05 126.3340666
-291.0110085 4.9660024 -9.742805241e-05
214.6174195 -2.459982034e-05 75.90694357
-287.6973385 -2.459982034e-05 181.0734966
379.0127705 -2.459982034e-05 246.5569036
-218.9973125 -2.459982034e-05 221.3767806
17.92589246 -2.459982034e-05 174.6974666
-280.2533385 -2.459982034e-05 142.3573246
-35.12732954 -2.459982034e-05 45.23377857
36.95650946 -2.459982034e-05 62.71051657
245.7259545 -2.459982034e-05 89.83857757
-428.1078985 27.4344244 54.93503057
411.6671695 -2.459982034e-05 143.7129086
-383.8363685 -2.459982034e-05 33.68601757
-113.6514435 -2.459982034e-05 229.2712676
34.41702846 -2.459982034e-05 35.20303257
107.8479185 -2.459982034e-05 244.5145586
287.8695505 -2.459982034e-05 164.3372996
-420.8722985 22.1024934 32.66622657
0.3321554623 -2.459982034e-05 79.73466157
-179.7195415 -2.459982034e-05 82.31206557
55.84384046 -2.459982034e-05 98.09519457
-109.2915335 -2.459982034e-05 165.1649416
-39.51831154 -2.459982034e-05 61.55669557
-204.8625015 -2.459982034e-05 217.7703476
232.7610315 -2.459982034e-05 36.99765257
-219.0696925 -2.459982034e-05 82.18240357
