# .PCD v0.7 - Point Cloud Data file format
VERSION 0.7
FIELDS x y z
SIZE 4 4 4
TYPE F F F
COUNT 1 1 1
WIDTH 1227
HEIGHT 1
VIEWPOINT 0 0 0 1 0 0 0
POINTS 1227
DATA ascii
32.64851273 34.3870334 -94.00009739
-29.45489927 -2.46020013e-05 -70.64145739
-26.76192727 82.5636234 -9.739266716e-05
-40.25064927 68.0138894 -29.39827739
-43.20839927 0.499975398 -77.84619039
-28.87993727 62.0184444 -94.00009739
41.48568773 -2.46020013e-05 -73.31866239
-20.61340027 140.0525554 -9.739266716e-05
-4.230069272 171.7885154 -9.739266716e-05
-40.25064927 31.3242464 -77.38856639
-40.25064927 42.5359784 -8.604923393
16.51387873 9.935448398 -88.00009739
30.90054873 57.3165444 -88.00009739
-35.33270627 136.4201984 0.6192226073
-41.62615327 9.269488398 -94.00009739
-17.05529427 47.5503124 -9.739266716e-05
25.06087673 150.6324174 -9.739266716e-05
-9.224333272 -2.46020013e-05 -20.41809939
11.98593373 0.499975398 0.1984446073
7.449426728 39.1022844 -94.00009739
1.918055728 198.7456264 -9.739266716e-05
-40.25064927 5.513985398 -46.58065539
-28.34708727 220.8599212 -9.739266716e-05
15.04597673 -2.46020013e-05 -42.27621539
-3.114023272 -2.46020013e-05 -63.86525639
-4.016765272 233.7766296 -9.739266716e-05
-40.25064927 82.4525614 -15.34239339
-12.27425527 18.6183064 -9.739266716e-05
-28.55407827 -2.46020013e-05 -1.591172393
19.78198073 118.7691844 -9.739266716e-05
17.53343373 78.9274484 -9.739266716e-05
-40.25064927 58.2816224 -78.99273339
-24.88166527 234.8378337 -9.739266716e-05
-32.89535127 163.0859634 0.06356460733
-13.40047927 39.8631014 -94.00009739
-15.96674927 -2.46020013e-05 -73.13363439
-11.41187327 54.4318164 -88.00009739
0.7590027282 91.2857984 -9.739266716e-05
36.72559373 37.0757084 -9.739266716e-05
-4.471163272 125.8266664 -9.739266716e-05
-22.43215227 -1.090191602 -94.00009739
23.61638173 228.3830802 -9.739266716e-05
5.086681728 26.3555474 -9.739266716e-05
30.30096673 44.8683294 -88.00009739
43.10620173 4.175750398 -88.00009739
-39.69315427 -2.46020013e-05 -9.548225393
21.03561173 33.2253654 -9.739266716e-05
23.90693073 15.1967884 -9.739266716e-05
-1.876442272 108.5140424 -9.739266716e-05
-29.51896527 19.6423044 -9.739266716e-05
37.22804273 -2.46020013e-05 -37.55279539
37.74935073 157.8506284 0.1253516073
25.96333973 19.4387524 -94.00009739
-40.25064927 64.8600254 -0.1207583927
29.11595573 210.4279834 -9.739266716e-05
-26.76187227 199.4946504 -9.739266716e-05
1.425347728 11.4726124 -9.739266716e-05
-40.25064927 26.4227034 -43.71054139
4.116634728 146.4107534 -9.739266716e-05
-33.87670827 -2.46020013e-05 -21.15242639
-40.25064927 41.3356424 -25.45595439
-27.16732227 42.8157124 -9.739266716e-05
-15.95102327 151.1844354 -9.739266716e-05
35.34194473 192.8984574 -9.739266716e-05
-19.48607727 174.3511264 -9.739266716e-05
34.97169573 13.6590024 -88.00009739
-30.50622327 -2.46020013e-05 -38.09752439
18.73184973 240.2763617 -9.739266716e-05
-5.800804272 19.1773314 -94.00009739
-40.25064927 10.3063834 -28.10491739
-40.25064927 10.9810814 -59.14351639
-40.25064927 20.9348784 -5.633739393
14.61473373 193.4472554 -9.739266716e-05
9.658112728 175.8776004 -9.739266716e-05
-34.91456927 99.2380704 0.4870476073
-40.25064927 20.5325734 -20.64975339
-40.78622827 55.1146324 -94.00009739
-4.898355272 30.5653614 -9.739266716e-05
6.930170728 26.8509014 -88.00009739
-3.055339272 57.6290584 -94.00009739
22.33536273 37.7408974 -88.00009739
16.98040373 103.1714864 -9.739266716e-05
-3.183960272 159.2275414 -9.739266716e-05
5.678018728 240.5188601 -9.739266716e-05
-38.03114027 41.6483244 2.479125607
10.64418173 55.4493924 -9.739266716e-05
-42.83986127 -2.337160602 -88.00009739
11.81482073 125.5529254 -9.739266716e-05
-14.01503627 -0.337627602 -88.00009739
-41.99405527 34.2626734 -88.00009739
-15.11554727 -2.46020013e-05 -48.40596239
-40.25064927 25.1752274 -69.13897339
6.504920728 -2.46020013e-05 -87.97783139
-6.890348272 193.5607884 -9.739266716e-05
-12.91383227 238.6687138 -9.739266716e-05
35.41587773 -2.46020013e-05 -51.63969639
-34.89258727 43.7853994 -88.00009739
23.35920273 60.2126414 -94.00009739
-8.395345272 62.2557234 -9.739266716e-05
-34.13744227 238.7331723 0.2490076073
22.33796273 4.498389398 -94.00009739
28.84838773 -2.370622602 -88.00009739
25.72184173 42.0206314 -9.739266716e-05
12.26971573 209.0485064 -9.739266716e-05
-40.25064927 60.4217784 -54.65197239
-4.426692272 -2.46020013e-05 -84.11902939
-10.55047427 9.963552398 -94.00009739
-30.17031227 -2.46020013e-05 -60.81345339
-40.25064927 15.2939034 -47.31533739
30.80257773 67.9999754 -88.21642439
-18.65885127 88.0764034 -9.739266716e-05
18.39093373 21.0734244 -88.00009739
8.091866728 99.1019084 -9.739266716e-05
28.71566373 85.4376704 -9.739266716e-05
-34.33085827 26.9073204 -94.00009739
20.60091973 140.6331724 -9.739266716e-05
-40.25064927 57.4223384 -39.12320239
-31.81803127 55.0181924 -88.00009739
-19.21491127 61.6353214 -94.00009739
-9.094661272 33.6403184 -88.00009739
-14.39737327 -2.46020013e-05 -28.77216939
-7.799100272 -2.46020013e-05 -55.05687739
28.35370873 240.811994 -9.739266716e-05
-22.94395527 38.6207074 -94.00009739
-5.568837272 43.4046954 -9.739266716e-05
-40.25064927 26.4553354 -28.80143539
11.89158173 63.6252334 -94.00009739
25.63972773 175.1672704 -9.739266716e-05
-33.54725527 89.2712404 0.1279376073
-40.25064927 35.8517234 -50.22445439
-41.44831827 92.4974704 -18.16712939
31.20298073 -2.46020013e-05 -69.60149639
-43.29691227 102.2012674 -6.470767393
-26.03810227 26.1829444 -88.00009739
-14.85559427 18.2374564 -88.00009739
9.499663728 19.9645564 -94.00009739
-40.25064927 54.9996494 -6.147362393
38.80059073 59.9401404 -94.00009739
8.201843728 80.1902894 -9.739266716e-05
27.31754873 -2.46020013e-05 -13.00942339
24.96376073 191.7939084 -9.739266716e-05
-36.03842227 199.7454444 0.9932906073
17.02785773 56.9035424 -88.00009739
6.156237728 -2.46020013e-05 -66.39730139
25.68117473 11.4372444 -88.00009739
-37.64679827 220.1082876 2.126647607
-40.25064927 37.4218364 -70.40119339
-4.497756272 -2.46020013e-05 -30.09192539
-26.10481827 127.1776264 -9.739266716e-05
-24.00123327 53.6464004 -9.739266716e-05
10.75546473 -2.46020013e-05 -9.543154393
-6.753062272 -2.46020013e-05 -73.44740339
-28.08767227 10.4792454 -88.00009739
-28.70385227 183.2647334 -9.739266716e-05
-40.25064927 47.4056184 -54.02339739
-40.25064927 8.491005398 -80.97772639
37.74935073 208.5795954 2.024522607
-13.46472027 5.380540398 -9.739266716e-05
-40.25064927 28.6906184 -60.85889839
37.74935073 102.8767804 0.9525456073
27.18998873 220.1650873 -9.739266716e-05
13.49271573 -2.46020013e-05 -32.03455939
41.31185573 -2.46020013e-05 -17.36654639
-25.18743327 212.3548274 -9.739266716e-05
-21.55320527 23.4910614 -9.739266716e-05
3.812894728 -2.46020013e-05 -56.79986939
-12.88083727 251.815999 -9.739266716e-05
-8.156722272 85.6063854 -9.739266716e-05
9.907538728 -2.46020013e-05 -49.85354239
10.94890673 7.090010398 -94.00009739
-10.09380727 105.8236684 -9.739266716e-05
1.813696728 131.7593224 -9.739266716e-05
16.28775473 43.9003814 -88.00009739
-34.74675527 63.9362124 -88.00009739
-8.085980272 25.0950934 -88.00009739
2.533829728 34.8707354 -9.739266716e-05
-30.44986727 34.9132534 -9.739266716e-05
-22.80819127 -2.46020013e-05 -81.94434039
6.661225728 249.6893183 -9.739266716e-05
-40.25064927 48.7056214 -14.47549439
12.07440073 149.4059814 -9.739266716e-05
2.073689728 227.8767737 -9.739266716e-05
-40.25064927 41.8349834 -42.09784439
22.53010073 -2.46020013e-05 -25.58416339
-40.25064927 45.8658144 -32.56054339
39.65613073 9.205182398 -94.00009739
-40.25064927 74.2897944 -17.07380839
20.08284273 -2.46020013e-05 -8.854542393
-14.11186427 118.6441934 -9.739266716e-05
-22.43868127 67.9999754 -89.70484039
1.327598728 38.0765294 -88.00009739
41.70331073 44.0237044 -88.00009739
-11.44150427 200.4680784 -9.739266716e-05
9.993547728 217.5835932 1.400652607
-3.994139272 204.5199754 -9.739266716e-05
-40.25064927 83.9920364 -7.239050393
2.622611728 3.323594398 -9.739266716e-05
-17.31368827 33.7024314 -88.00009739
-23.74633127 161.9743694 -9.739266716e-05
40.67148873 29.8556054 -94.00009739
3.722967728 -2.46020013e-05 -21.96386139
-6.530157272 67.0337134 -94.00009739
31.20970773 -2.46020013e-05 -22.19770739
30.03861573 185.4716264 -9.739266716e-05
-40.25064927 21.7450044 -76.48324939
-27.46798727 -2.46020013e-05 -26.11455439
5.007903728 46.8220254 -88.00009739
2.581661728 3.654942398 -94.00009739
-14.33893227 55.1308014 -9.739266716e-05
-40.25064927 13.2064704 -3.396816393
-22.55859527 15.3593424 -94.00009739
-40.40269027 76.8299324 -42.41080739
-4.777153272 -2.46020013e-05 -7.872797393
-41.95914227 49.7094314 -88.00009739
-40.25064927 16.9856654 -64.37425039
-14.68422527 75.4405294 -9.739266716e-05
-11.18465427 183.3489984 -9.739266716e-05
-19.76287327 46.4537934 -88.00009739
32.77321373 52.5374794 -94.00009739
-40.25064927 4.272826398 -23.00462439
22.79754073 -2.46020013e-05 -51.28043539
22.73737273 96.8054914 -9.739266716e-05
-11.53682827 38.3690654 -9.739266716e-05
1.701863728 -2.46020013e-05 -38.53557839
0.7611097282 50.8256624 -94.00009739
32.89471873 168.6589554 -9.739266716e-05
33.63514873 20.7190094 -94.00009739
-40.25064927 57.9427884 -47.28096639
24.18931173 67.9380354 -94.00009739
28.65187573 49.2168434 -9.739266716e-05
24.55347773 7.454005398 -9.739266716e-05
-37.16037527 -2.46020013e-05 -69.78467139
10.08528573 -2.46020013e-05 -17.26152039
-38.84705127 13.2570894 -88.00009739
17.35877273 -2.46020013e-05 -64.15458539
-40.25064927 32.1516904 -4.016251393
32.66413973 -2.46020013e-05 -0.04491539267
-11.86124327 171.3484444 -9.739266716e-05
14.60427873 160.6175724 -9.739266716e-05
-32.69238827 77.6330894 0.04352260733
-11.13715327 -2.46020013e-05 -67.24829039
-40.25064927 21.1118204 1.954328607
-40.25064927 2.186239398 -53.39214939
9.860805728 87.5586974 -9.739266716e-05
-37.45529827 115.6256464 1.971339607
-35.57430927 4.943128398 -88.00009739
-40.25064927 72.0708624 -9.911995393
-40.25064927 62.0471414 -24.90844139
3.582794728 57.8730414 -9.739266716e-05
23.27021673 251.2038137 -9.739266716e-05
-40.25064927 30.6564714 -12.15816939
-34.10418727 39.4970064 -94.00009739
-31.88789427 106.2326564 -9.739266716e-05
-32.56403527 -2.46020013e-05 -13.87890339
-11.85476127 28.3724374 -94.00009739
-2.046687272 150.4461034 -9.739266716e-05
-27.56603727 144.7390344 -9.739266716e-05
18.42759473 153.7787044 -9.739266716e-05
-40.25064927 28.1308704 -52.92400539
28.19603373 34.4947754 -9.739266716e-05
32.06336373 18.3646174 1.520403607
35.66670973 -2.46020013e-05 -87.12534139
-15.21216527 52.9915824 -94.00009739
-40.25064927 47.9375674 -3.784700393
-34.54288227 -2.46020013e-05 -44.06842939
-40.25064927 80.7241424 -24.12445139
-40.25064927 6.842911398 -7.423208393
-35.98807927 -2.46020013e-05 -28.33911139
-41.86045427 -2.46020013e-05 -16.36494539
-16.41074527 134.2658704 -9.739266716e-05
-0.8420722718 54.5114084 -88.00009739
13.95498073 36.2283614 -94.00009739
-29.22354527 169.1765224 -9.739266716e-05
-21.28853227 221.6874411 -9.739266716e-05
3.103488728 19.5336534 -9.739266716e-05
7.878317728 9.613579398 -88.00009739
-5.848208272 5.680324398 -88.00009739
33.17074273 203.7432474 -9.739266716e-05
-40.25064927 59.9004764 -72.22516539
-40.25064927 67.4107754 -36.32910039
-34.86328727 60.5050304 0.4722866073
7.513370728 191.4306134 -9.739266716e-05
-40.25064927 44.2042204 -69.04709439
40.76779373 17.4467844 -88.00009739
-36.95397627 67.5906444 -94.00009739
22.25109173 11.5140274 -94.00009739
-31.53866927 10.1951154 -94.00009739
-22.32908927 192.7113394 -9.739266716e-05
13.37769073 29.3279384 -88.00009739
18.82551873 41.6940344 -9.739266716e-05
21.96638273 128.8237034 -9.739266716e-05
-5.380867272 15.8258034 -88.00009739
-40.67788827 -2.46020013e-05 -40.62913439
-40.25064927 9.368948398 -68.09046839
-1.775318272 119.5476774 -9.739266716e-05
8.917271728 -2.46020013e-05 -81.58767439
27.17886573 142.4321434 -9.739266716e-05
29.02903473 25.7030634 -94.00009739
32.21376773 -2.46020013e-05 -28.90039839
-27.19475027 241.1864941 -9.739266716e-05
-29.18194227 26.3818924 -9.739266716e-05
-28.06390027 29.2850844 -94.00009739
29.41442973 63.7593584 -94.00009739
-17.31598527 -2.46020013e-05 -22.76025139
-40.33863627 41.3518644 -85.00009739
-28.38472927 97.9813034 -9.739266716e-05
-10.44340427 159.9214174 -9.739266716e-05
-40.25064927 95.3165994 1.195936607
-43.35685627 54.7151264 -83.84840339
16.10666873 109.7533014 -9.739266716e-05
-17.57138927 96.2614614 -9.739266716e-05
-21.68873227 -2.46020013e-05 -49.15975839
-36.25619127 -2.46020013e-05 -1.706543393
11.15452473 -2.46020013e-05 -74.03092039
-40.25064927 50.0840104 -72.65495339
-42.57688127 65.8288524 -67.37262839
-30.69558027 67.9999754 -91.24713039
24.93817673 36.9155004 -94.00009739
23.46782073 56.3600744 -9.739266716e-05
26.57985973 75.4241174 -9.739266716e-05
3.641414728 205.0940244 -9.739266716e-05
-28.95093327 137.7944384 -9.739266716e-05
-0.1239132718 221.7327257 -9.739266716e-05
-22.26023627 -2.46020013e-05 -35.10853439
-0.6062312718 10.5500344 -88.00009739
7.503265728 12.6075104 -94.00009739
41.65156973 21.9031484 -94.00009739
-21.95604327 168.1891814 -9.739266716e-05
-17.19388427 14.4337874 -9.739266716e-05
-13.52460727 65.0358684 -94.00009739
26.59686073 -2.46020013e-05 -82.43637139
30.65566873 6.067431398 -88.00009739
22.10106173 -1.939612602 -94.00009739
-30.95998827 232.7089685 -9.739266716e-05
-2.789585272 35.6928964 -94.00009739
11.14402473 65.7440484 -88.00009739
10.05814473 184.8115704 -9.739266716e-05
-40.25064927 13.8517314 -41.07708239
-19.63520527 180.7397074 -9.739266716e-05
0.6318367282 251.7942682 -9.739266716e-05
24.38046873 90.1267124 -9.739266716e-05
-12.24708927 26.1749774 -9.739266716e-05
-4.465016272 132.7954944 -9.739266716e-05
-37.27017727 158.8197594 1.818088607
-2.431867272 59.9323724 -9.739266716e-05
-19.59329127 79.4740294 -9.739266716e-05
-18.92847027 2.364562398 1.106593607
-12.10027227 18.6120894 -94.00009739
12.04593373 57.3174114 -94.00009739
35.52291073 225.0182067 -9.739266716e-05
34.42868673 177.1146474 -9.739266716e-05
42.48433873 66.9839894 -94.00009739
25.83859073 63.0286954 -9.739266716e-05
-40.25064927 84.1366344 0.4034736073
-24.22917427 15.7305444 -9.739266716e-05
-2.486234272 43.2663704 -94.00009739
-17.62044427 60.7552124 -88.00009739
16.58179473 -2.46020013e-05 -52.05179539
-1.742432272 32.6320184 -88.00009739
17.20429273 22.3451244 -94.00009739
31.04461573 148.8422614 -9.739266716e-05
-7.225091272 -2.46020013e-05 -48.83892639
29.04259873 -0.679691602 -94.00009739
-1.892106272 165.3283444 -9.739266716e-05
4.842375728 55.5321444 -94.00009739
18.16656873 -2.46020013e-05 -0.3513453927
-0.3387922718 16.2083364 -94.00009739
8.116401728 31.7828414 -9.739266716e-05
-1.902586272 -2.46020013e-05 -53.12503139
25.00391273 156.8352504 -9.739266716e-05
29.17361273 9.859069398 -94.00009739
13.81219773 12.5684454 -94.00009739
30.77647673 107.2326834 -9.739266716e-05
-10.19952527 10.6022244 -9.739266716e-05
-9.800088272 151.3049974 -9.739266716e-05
29.62366473 43.7234884 -94.00009739
-30.61299927 49.0327744 -94.00009739
23.11052173 61.4072244 -88.00009739
-40.25064927 47.4828354 -60.29370639
13.32003973 4.753884398 -88.00009739
14.84373273 -1.618273602 -88.00009739
-40.25064927 20.3570944 -43.64887239
-0.2141612718 -1.966883602 -88.00009739
-22.90649127 9.325269398 -94.00009739
-18.13415427 36.9145594 -9.739266716e-05
-43.45113227 97.4521584 -12.00163439
7.327392728 67.5631234 -94.00009739
7.398136728 93.1251954 -9.739266716e-05
-13.82652827 0.066588398 -94.00009739
-34.70957227 26.8980754 -88.00009739
-40.25064927 41.2418584 -52.86262839
35.09786673 47.0270334 -94.00009739
6.773501728 8.830154398 -9.739266716e-05
-40.25064927 68.0434264 -51.08499339
-40.25064927 37.5204274 -17.51018539
-8.868446272 74.1757374 -9.739266716e-05
-34.80588227 -2.46020013e-05 -54.37688939
-2.183032272 25.5375804 -88.00009739
-13.06909727 214.3691024 -9.739266716e-05
6.787556728 -0.451240602 -94.00009739
33.17133573 -2.46020013e-05 -12.49788139
20.74934473 -2.46020013e-05 -43.58789639
9.301050728 17.2782574 -88.00009739
-40.25064927 71.4433444 -22.16130139
-40.25064927 25.1117734 -17.04223739
-42.53933827 -2.46020013e-05 -26.23573439
-38.76653327 59.7297134 -88.00009739
-17.67283027 41.0252994 -88.00009739
-37.41487327 21.2823604 -88.00009739
-19.66585127 45.3397304 -94.00009739
-3.266844272 -2.46020013e-05 -78.09315939
-40.25064927 18.3970544 -69.99356939
-32.55777627 14.1626864 -88.00009739
-40.25064927 14.6973914 -13.23510139
7.653838728 41.6804084 -88.00009739
24.67108973 5.761756398 -88.00009739
-40.25064927 53.0820974 -18.28460139
-40.25064927 20.7105274 -49.64075539
-40.25064927 32.0683924 -65.51411039
37.56674973 31.4837354 0.9769796073
37.74935073 77.2409494 0.5513666073
-40.25064927 25.0417444 -11.03771039
-8.655099272 -2.46020013e-05 -60.71139839
-23.75852527 -2.46020013e-05 -70.29690639
-40.25064927 101.1617664 -0.1242433927
28.74406273 62.5814964 -88.00009739
15.76041573 49.5563254 -88.00009739
-30.34617927 214.7323192 -9.739266716e-05
-40.25064927 57.9595204 -66.89422139
-5.913489272 102.0307964 -9.739266716e-05
-40.25064927 79.4828854 -37.43417439
43.38404173 4.970732398 -94.00009739
-40.25064927 51.0080884 0.9389966073
30.77290373 -2.46020013e-05 -54.82356239
-39.61781527 14.5201834 -94.00009739
-21.34010627 187.1643524 -9.739266716e-05
-40.25064927 39.1623274 -32.58637439
-40.25064927 25.2887484 -84.65092939
-40.25064927 61.7842944 -6.888652393
36.65976273 25.9465714 -94.00009739
-18.81344327 3.164545398 -94.00009739
-40.25064927 29.7468584 -36.89327439
6.891798728 24.8962714 -94.00009739
-21.21852827 43.8388264 -9.739266716e-05
-20.53911627 -2.46020013e-05 -87.03598639
-13.94067227 59.4777484 -94.00009739
-6.336545272 176.9459004 -9.739266716e-05
-40.25064927 17.2707634 -29.55559839
20.61934273 17.9837894 -94.00009739
-40.25064927 89.1756824 -12.23900439
-40.25064927 56.7206734 -27.68787739
27.66461373 32.0358784 -94.00009739
-40.25064927 48.3382264 -82.51089439
18.47035073 14.3390594 -9.739266716e-05
3.093141728 -2.46020013e-05 -8.414067393
-4.488251272 92.7885744 -9.739266716e-05
14.56702273 187.9919434 -9.739266716e-05
-40.25064927 15.1879574 -21.72743739
-38.00570627 35.6944784 -94.00009739
9.626510728 -2.46020013e-05 -41.85046439
-40.25064927 69.3988034 -3.099238393
-40.25064927 52.5027274 -36.84058339
-40.25064927 12.6050384 -52.02296739
-40.25064927 31.7797724 -44.49525139
37.49175373 241.9394744 -9.739266716e-05
-40.25064927 26.5816244 -23.39315039
13.50940973 241.6527383 -9.739266716e-05
-40.25064927 52.2153224 -67.69583039
-40.25064927 57.8649274 -1.574305393
-40.25064927 63.5397294 -59.57325139
-40.25064927 38.1970274 -11.79809139
-8.961641272 44.2540784 -88.00009739
-36.35503327 52.0907184 -94.00009739
-40.25064927 5.642160398 -58.62945039
-9.167188272 123.2489174 -9.739266716e-05
-5.952291272 241.6581586 -9.739266716e-05
-36.70674027 -0.285123602 -88.00009739
2.085517728 180.5412054 -9.739266716e-05
-28.43989227 176.2781394 -9.739266716e-05
-10.41742327 224.329269 -9.739266716e-05
16.33736773 66.5744224 -94.00009739
-31.02179527 54.3487064 -94.00009739
-40.25064927 62.8860774 -49.25940839
-40.25064927 26.5756904 -74.28142639
-40.25064927 23.2807394 -60.26737439
-10.17458527 33.2434174 -9.739266716e-05
-6.391745272 49.2380904 -88.00009739
-40.25064927 24.2622484 -34.22399039
-40.25064927 71.9848284 -38.99908339
-13.40897827 86.2542154 -9.739266716e-05
-40.25064927 41.8440844 -74.08128539
-21.11244727 -2.46020013e-05 -74.85928639
-26.99633927 -2.46020013e-05 -75.29983039
30.00747473 25.0929264 -9.739266716e-05
32.60183273 237.7250142 -9.739266716e-05
4.774897728 34.1169284 -88.00009739
-40.25064927 34.0825674 -31.28346039
32.46182973 102.2708964 -9.739266716e-05
-19.33383727 28.8707984 -88.00009739
23.63014973 115.2340114 -9.739266716e-05
-12.68237227 243.8856599 -9.739266716e-05
7.151758728 227.8186327 1.213159607
-32.16143727 250.208915 -9.739266716e-05
-20.10386927 -2.46020013e-05 -30.35862039
-18.23614827 146.5030374 -9.739266716e-05
2.110599728 162.0039924 -9.739266716e-05
-40.25064927 7.526499398 -1.698873393
-40.25064927 7.495195398 -41.78606039
-36.36323527 33.1882344 1.171500607
-40.25064927 73.1830004 -29.74730239
-40.25064927 37.0093474 2.144286607
-40.25064927 9.533983398 -11.92563639
-40.25064927 88.5961224 -21.27542239
-40.25064927 2.700423398 -3.419019393
-40.25064927 45.6822884 -38.72686839
2.898228728 151.6833704 -9.739266716e-05
10.64674273 119.9827764 -9.739266716e-05
2.374228728 77.8341274 -9.739266716e-05
-3.550454272 6.158606398 -9.739266716e-05
-33.07657727 -2.46020013e-05 -74.19697739
31.12020173 -2.46020013e-05 -41.38528139
35.33401873 47.4273834 -9.739266716e-05
-42.13327027 0.499975398 -69.03143539
-37.00558527 33.4639734 -88.00009739
-15.62500127 -2.46020013e-05 -55.63270039
4.253135728 39.6116584 -9.739266716e-05
-11.32966027 190.6571624 -9.739266716e-05
-11.92913727 63.5470864 -88.00009739
2.169733728 45.1702984 -94.00009739
-23.40285827 12.2938964 -88.00009739
33.47369773 83.6864094 -9.739266716e-05
4.710599728 83.7743054 -9.739266716e-05
-2.501683272 83.8655784 -9.739266716e-05
-38.29987727 -2.46020013e-05 -77.09941039
-40.25064927 98.5885484 -4.395782393
39.22355373 11.0619664 -88.00009739
10.05873473 26.6713494 -9.739266716e-05
4.123716728 -2.46020013e-05 -82.90413539
24.16728173 246.3160837 -9.739266716e-05
-40.25064927 58.0715674 -10.18799139
26.61475073 215.2317182 -9.739266716e-05
28.11895273 170.8641954 -9.739266716e-05
7.393861728 -2.46020013e-05 -25.30720839
-40.25064927 77.0200934 -4.013982393
22.87174273 179.2669094 -9.739266716e-05
-40.25064927 26.4608684 -79.84776239
-40.25064927 92.4972144 -3.930799393
-36.23394427 103.9520414 1.100450607
-21.12719027 128.9865804 -9.739266716e-05
-12.45452127 -2.46020013e-05 -40.95217239
4.778690728 -2.46020013e-05 -42.59207739
-40.25064927 25.4855294 -48.53825839
-40.25064927 34.9649414 -8.028857393
33.97675773 48.1084244 -88.00009739
-40.25064927 64.1232154 -32.36964339
-40.25064927 22.3308004 -65.06931339
-14.81545227 234.165643 -9.739266716e-05
24.11700773 137.2378254 -9.739266716e-05
-15.96786827 -2.46020013e-05 -67.95655339
23.01684373 233.2176578 -9.739266716e-05
-40.25064927 46.0958974 -49.33290539
-40.25064927 36.0530084 -78.52592539
-4.916390272 21.4088284 -88.00009739
10.86363973 -2.46020013e-05 -65.22543839
9.881030728 45.9877994 -88.00009739
-19.76544527 63.7264724 -9.739266716e-05
-0.1126912718 -2.46020013e-05 -24.92395139
-1.325881272 -2.46020013e-05 -4.474625393
-40.25064927 52.2427904 -54.03429139
11.18882773 -2.46020013e-05 -36.28356839
-31.33440627 43.4578784 -94.00009739
16.69510273 35.3320484 -9.739266716e-05
-40.25064927 17.8742494 -9.357940393
-37.83027227 73.9371454 2.280769607
-40.25064927 2.860358398 -80.81302139
12.52618073 82.2862614 -9.739266716e-05
-40.25064927 17.3067994 -78.31633439
34.91238273 -2.46020013e-05 -66.58321039
-40.25064927 51.0233644 -8.803884393
-40.25064927 33.8027344 -60.48811139
-40.25064927 18.5395324 -59.70539139
30.89470273 190.1662324 -9.739266716e-05
-40.25064927 35.3255454 -83.68904739
-40.25064927 67.7362514 -55.84347539
-30.04213027 46.6176514 -9.739266716e-05
-40.25064927 83.6517824 -20.36752139
-40.25064927 66.6126494 -23.61736439
-40.25064927 9.716200398 -76.39827939
17.71274873 3.485599398 -94.00009739
-7.786251272 155.5876844 -9.739266716e-05
-25.03677527 108.9181624 -9.739266716e-05
-22.86197027 144.5711464 -9.739266716e-05
-16.97950527 56.0960424 -88.00009739
36.89412773 141.7628334 -9.739266716e-05
-29.81796427 -2.46020013e-05 -18.78676339
-21.52364527 -2.46020013e-05 -24.83784539
-40.25064927 43.1571234 -62.10837639
21.60231573 33.1621494 -94.00009739
-11.49418927 165.7524194 -9.739266716e-05
25.90665173 204.1783334 -9.739266716e-05
-40.25064927 33.3360524 -72.68706439
-40.25064927 6.822331398 -52.74081039
15.11242473 -2.46020013e-05 -11.25350239
18.20099173 196.4323704 -9.739266716e-05
-3.454847272 63.5309514 -94.00009739
41.19170773 -2.46020013e-05 -87.21377139
-16.73361127 222.6726601 -9.739266716e-05
-17.15188127 -2.46020013e-05 -42.80037539
12.70651973 54.5287264 -88.00009739
15.48933073 60.4536994 -94.00009739
-6.130127272 48.0248124 -9.739266716e-05
-40.25064927 35.6764394 -41.31359839
-16.03572827 30.3839464 -94.00009739
-40.25064927 46.4545264 -27.96068939
21.06712573 220.6811907 -9.739266716e-05
28.90688173 92.5789914 -9.739266716e-05
-40.25064927 52.1124354 -49.40315739
-39.10160927 -2.46020013e-05 -57.29819039
-40.25064927 48.0229954 -19.04447139
-40.25064927 35.8155104 -55.61175439
-28.10170527 208.7733364 -9.739266716e-05
-14.53555827 7.631929398 -94.00009739
15.60727773 213.2299555 -9.739266716e-05
-6.239706272 4.043599398 -94.00009739
-8.831563272 39.3776554 -94.00009739
-40.25064927 23.8540244 -39.90278639
-40.25064927 52.3011164 -28.86404439
-15.55281427 22.7564074 -88.00009739
-24.59316227 -2.46020013e-05 -13.39136039
-34.00774127 156.0537744 0.2113726073
-18.92753627 40.7952874 -94.00009739
4.500553728 210.5618864 -9.739266716e-05
-40.25064927 14.0007624 -67.81675839
-21.90278627 197.2319814 -9.739266716e-05
-40.25064927 68.7704804 -13.60789839
23.81412773 196.1682824 -9.739266716e-05
-40.25064927 40.8200504 -46.49911239
32.37258573 133.0287524 -9.739266716e-05
15.21810173 31.1215844 -94.00009739
-9.187455272 3.826614398 -9.739266716e-05
-40.25064927 88.4742824 -6.815954393
-40.25064927 11.5860474 0.7936116073
-26.08412727 -2.46020013e-05 -21.84516939
-40.25064927 27.6910684 -4.491500393
-36.63825027 39.6567384 -88.00009739
-40.25064927 78.0819934 -32.88629839
41.73328473 -2.46020013e-05 -12.92069039
9.517542728 154.1394804 -9.739266716e-05
36.95086273 -2.46020013e-05 -55.82400039
33.54212873 -2.46020013e-05 -33.15142539
-9.650240272 248.7649796 -9.739266716e-05
-40.25064927 3.328297398 -63.12365739
-34.47984627 -2.46020013e-05 -59.73729139
31.37395273 45.4492304 -9.739266716e-05
10.42744973 -2.044624602 -88.00009739
-30.31877527 -2.46020013e-05 -45.92344139
-8.288327272 -2.46020013e-05 -16.09991239
-28.58093027 150.8645884 -9.739266716e-05
14.63811673 23.3970264 -88.00009739
-40.25064927 14.1776544 -32.68058739
22.48872773 -2.46020013e-05 -80.89645039
19.11171273 56.8740934 -9.739266716e-05
-22.02317827 41.5420534 -88.00009739
8.397703728 -2.46020013e-05 -2.259277393
33.17831073 212.0523954 -9.739266716e-05
-42.37900527 0.499975398 0.02122360733
-6.384448272 200.8642674 -9.739266716e-05
-5.757197272 30.8530274 -94.00009739
-25.46718627 140.4119794 -9.739266716e-05
12.74492573 51.6406224 -9.739266716e-05
-40.25064927 18.4028584 -39.13489239
-40.25064927 17.1890644 -53.80506839
-22.07903327 70.3177324 -9.739266716e-05
-40.25064927 72.2705604 -34.67915439
18.28018473 -2.46020013e-05 -47.11378939
-40.25064927 9.484469398 -63.16796339
-15.81699127 182.6865014 -9.739266716e-05
-40.25064927 1.866470398 -29.33864639
21.50084873 174.1306434 -9.739266716e-05
8.783022728 243.4288444 -9.739266716e-05
-41.84211827 67.5152864 -94.00009739
4.975447728 50.3284494 -94.00009739
23.41920773 48.1050214 -9.739266716e-05
-9.022320272 81.4700104 -9.739266716e-05
36.01127073 56.6718724 -9.739266716e-05
0.5515427282 144.1665674 -9.739266716e-05
-20.34680427 55.7183584 -9.739266716e-05
7.043526728 -2.46020013e-05 -6.996708393
-14.66855727 99.2778294 -9.739266716e-05
-42.37530627 15.5055634 -88.00009739
-14.63232227 43.8608434 -94.00009739
41.36337773 56.6361974 -94.00009739
-14.24321127 137.8346424 -9.739266716e-05
16.67290573 83.0124854 -9.739266716e-05
-37.41089827 67.1486064 -88.00009739
3.027327728 67.9392864 -88.00009739
19.12610673 40.8500424 -88.00009739
40.17683673 33.9731584 -94.00009739
-15.86585627 36.5349084 -94.00009739
-26.56109527 -2.46020013e-05 -36.83946339
1.350509728 -2.46020013e-05 -34.42547639
7.131840728 -2.46020013e-05 -72.23839939
26.75115073 2.227994398 -88.00009739
19.17269373 192.4634224 -9.739266716e-05
42.70194573 61.1548584 -94.00009739
-13.57672327 175.0454094 -9.739266716e-05
-27.23419427 -2.46020013e-05 2.263203607
35.98824473 32.0616664 -94.00009739
-40.25064927 3.636630398 -11.27157439
-42.95706127 0.499975398 -56.22556839
-37.21466627 225.4763666 1.770972607
-21.13359327 105.9735164 -9.739266716e-05
-10.31321027 -2.46020013e-05 -71.58013339
-27.81836427 -2.46020013e-05 -87.59142939
-36.62130727 22.6893664 1.309971607
18.09317473 25.3955484 -88.00009739
22.19677173 167.4520794 -9.739266716e-05
-34.71539527 -2.46020013e-05 -32.10132839
1.735151728 -2.46020013e-05 -49.77242839
27.07350673 9.721811398 2.057570607
-22.43899727 59.3412704 -94.00009739
28.71722773 -2.46020013e-05 -0.1929163927
26.81349973 237.2369283 -9.739266716e-05
-8.713564272 168.4638094 -9.739266716e-05
-9.820005272 5.524674398 -94.00009739
-26.85209227 159.6611914 -9.739266716e-05
34.92054673 44.3590184 -88.00009739
6.454325728 -2.46020013e-05 -15.96031039
6.265434728 19.6560934 -88.00009739
-16.69135227 171.6951994 -9.739266716e-05
-9.386609272 43.9128074 -9.739266716e-05
-31.20960027 143.5029884 -9.739266716e-05
16.15389373 99.4172854 -9.739266716e-05
-8.807148272 239.1202778 -9.739266716e-05
-22.92870327 77.6152034 -9.739266716e-05
-6.023795272 56.4891964 -9.739266716e-05
11.77914973 90.8560754 -9.739266716e-05
-38.24904327 -2.46020013e-05 -44.92489139
-30.15114927 30.0495484 -9.739266716e-05
-13.71181827 -2.46020013e-05 -63.94760039
7.421804728 204.8301274 -9.739266716e-05
3.276976728 7.030129398 -9.739266716e-05
7.513544728 -2.46020013e-05 -57.36884539
31.77971973 -2.46020013e-05 -58.40766639
8.083673728 5.361283398 -9.739266716e-05
27.40997973 16.3837614 -9.739266716e-05
-33.66981227 -2.46020013e-05 -68.59712439
33.06158473 63.2331184 -94.00009739
38.94031373 48.8915974 -94.00009739
-13.20355627 247.8304795 -9.739266716e-05
-2.348725272 -2.46020013e-05 -67.44837839
-21.01230527 65.0928424 -88.00009739
-2.918409272 -2.46020013e-05 -56.62431239
-20.53558527 -2.46020013e-05 -45.70892239
22.84650573 11.7261654 -9.739266716e-05
-3.459725272 -2.46020013e-05 -71.92447139
-0.6675552718 -2.46020013e-05 -80.60696939
-15.67434027 93.1834544 -9.739266716e-05
35.16787773 97.8237834 -9.739266716e-05
12.25591773 215.1451926 -9.739266716e-05
-42.95122127 -2.46020013e-05 -30.79181939
-40.72652427 13.7748794 -85.00009739
-1.120981272 156.3135944 -9.739266716e-05
14.20197673 55.5987774 -9.739266716e-05
26.34840773 -2.46020013e-05 -51.03685039
14.24915173 39.7663134 -94.00009739
4.355107728 247.024481 -9.739266716e-05
15.27526973 1.983987398 -9.739266716e-05
-14.71440827 21.1593444 -9.739266716e-05
-28.61081827 13.9970514 -94.00009739
25.67232373 9.904128398 -94.00009739
-0.1985832718 65.7213694 -94.00009739
-34.65482627 74.7625904 0.4088906073
33.81258973 55.8738054 -94.00009739
24.43994573 68.6130224 -9.739266716e-05
27.25584673 250.1270063 -9.739266716e-05
-0.8468782718 94.3803174 -9.739266716e-05
-27.22414927 54.9629304 -9.739266716e-05
22.61414373 132.2387274 -9.739266716e-05
33.56627573 55.0863164 -88.00009739
-15.90243727 11.8035634 -88.00009739
28.19264773 6.540510398 -94.00009739
6.468687728 194.7154404 -9.739266716e-05
18.05536273 45.0512634 -9.739266716e-05
-6.316965272 88.5082554 -9.739266716e-05
-26.15984727 45.5652574 -94.00009739
27.96817973 45.0289564 -9.739266716e-05
-12.99165727 149.5250454 -9.739266716e-05
1.007651728 51.6724404 -88.00009739
-35.55065327 153.0872144 0.7332786073
-14.87932127 36.0332874 -9.739266716e-05
33.53086273 -2.455107602 -88.00009739
-39.70519227 -2.46020013e-05 -24.43293239
42.70492673 7.499620398 -88.00009739
12.32576873 41.4973064 -9.739266716e-05
-3.546761272 193.5183494 -9.739266716e-05
4.056575728 -2.46020013e-05 -18.28684739
-40.25064927 1.857682398 -18.61075039
22.25386773 53.2605114 -9.739266716e-05
0.02330072818 56.4600164 -94.00009739
14.82297773 40.9754164 -88.00009739
-20.56938227 8.121135398 -9.739266716e-05
-29.23449627 -2.46020013e-05 -63.94339039
-2.462608272 174.5339054 -9.739266716e-05
-38.72338727 64.8621324 -94.00009739
-2.959746272 122.5652034 -9.739266716e-05
-19.34259527 15.7030184 -94.00009739
-2.512403272 41.6889564 -88.00009739
7.490752728 216.1075593 -9.739266716e-05
-15.34446027 154.3489104 -9.739266716e-05
15.87987973 65.8119504 -9.739266716e-05
25.03015873 162.4851734 -9.739266716e-05
-13.86250327 121.8325654 -9.739266716e-05
11.09673973 32.9406814 -9.739266716e-05
-41.19394427 42.0348474 -88.00009739
8.959561728 -2.46020013e-05 -67.91486439
-35.38217127 229.9862515 0.6410826073
4.282624728 158.5562174 -9.739266716e-05
-16.90629427 -2.46020013e-05 -30.70223039
-15.75922327 56.8888834 -94.00009739
20.86889573 237.9545983 -9.739266716e-05
20.10586573 21.0511694 -94.00009739
-24.21544027 242.0651018 -9.739266716e-05
-33.98874527 66.7103684 -94.00009739
-29.65594427 211.7185484 -9.739266716e-05
17.16070973 18.2416324 -88.00009739
-31.35875727 24.2006194 -9.739266716e-05
17.86781273 64.9369764 -88.00009739
3.439132728 -2.46020013e-05 -64.95336639
38.48601673 -2.46020013e-05 -51.62732239
-40.18307627 36.7408334 -88.00009739
-16.51123227 43.8374844 -88.00009739
31.56687473 176.1305664 -9.739266716e-05
16.86635873 117.9923314 -9.739266716e-05
6.498439728 -2.46020013e-05 -32.73547539
2.432246728 -2.46020013e-05 -59.46416139
-37.83876427 6.911439398 -88.00009739
32.77896973 20.8411724 -9.739266716e-05
-10.53864027 64.9433284 -94.00009739
33.40216273 58.9450304 -88.00009739
-16.18306527 4.156618398 -9.739266716e-05
17.83734773 -2.46020013e-05 -12.45132139
-40.97647227 66.1655514 -88.00009739
17.56308673 0.535796398 -94.00009739
12.38160273 86.0436384 -9.739266716e-05
-3.770053272 54.3325104 -88.00009739
0.4964407282 106.7932934 -9.739266716e-05
5.493144728 187.9429664 -9.739266716e-05
34.58682173 2.567413398 -94.00009739
14.78026073 -2.46020013e-05 -49.77311839
-19.37073127 169.4872454 -9.739266716e-05
36.42597673 -2.46020013e-05 -40.33090639
-9.748652272 30.3428994 -94.00009739
-15.41854827 166.7435184 -9.739266716e-05
-40.25064927 28.5008704 1.341713607
22.03312473 8.789715398 -9.739266716e-05
25.63702273 -2.46020013e-05 -0.7322723927
38.83591373 21.5634694 -94.00009739
-22.49214527 12.5310684 -94.00009739
9.263834728 23.9656924 -9.739266716e-05
40.09561873 65.4945484 -94.00009739
32.45691773 98.7513324 -9.739266716e-05
22.18658473 37.4510424 -94.00009739
35.37421073 18.5354784 -94.00009739
-31.60696627 62.6038484 -94.00009739
18.74736373 45.1964294 -88.00009739
26.37291573 139.7849204 -9.739266716e-05
-6.219941272 18.9734294 -88.00009739
-20.39212927 143.3683344 -9.739266716e-05
-40.25064927 42.1999144 0.9869756073
-4.644051272 128.5494714 -9.739266716e-05
-28.97977227 -2.46020013e-05 -23.85086039
5.768903728 19.0539594 -9.739266716e-05
-16.33922527 66.3112204 -88.00009739
-2.489369272 8.637653398 -9.739266716e-05
-19.73884627 185.0161434 -9.739266716e-05
-6.630869272 124.0963614 -9.739266716e-05
-20.98553727 -2.46020013e-05 -37.45697539
40.30711173 -2.46020013e-05 -27.73630139
-14.40712927 47.3370314 -9.739266716e-05
26.28298373 -2.46020013e-05 -15.44731039
-8.893274272 38.2600654 -9.739266716e-05
24.06584873 -2.46020013e-05 -73.61490039
19.74193973 18.7634394 -88.00009739
-23.24326827 102.0654274 -9.739266716e-05
8.020337728 37.5763624 -9.739266716e-05
-36.54135127 45.8124854 -88.00009739
7.032088728 48.4510854 -88.00009739
-4.503607272 -2.46020013e-05 -66.03361639
-32.25556227 64.5870754 -88.00009739
-27.84163927 -2.46020013e-05 -46.61888539
31.53302373 -2.46020013e-05 -10.52659539
17.53450773 7.598818398 -88.00009739
0.05120572818 226.3521924 -9.739266716e-05
-6.744788272 171.9411884 -9.739266716e-05
5.630529728 31.7490624 -88.00009739
8.180058728 1.867181398 -88.00009739
-30.76739427 98.5335624 -9.739266716e-05
7.505826728 -2.219306602 -88.00009739
-32.96884527 -2.46020013e-05 -52.81536739
5.452645728 238.1371643 -9.739266716e-05
-32.17324027 67.9999754 -89.38692939
37.74935073 155.5406164 0.5424376073
4.154018728 181.6307954 -9.739266716e-05
-3.409869272 231.5368836 -9.739266716e-05
16.00299373 197.1720584 -9.739266716e-05
37.74935073 179.9515294 1.125079607
-9.302402272 7.783577398 -94.00009739
-21.41661327 40.3494824 -94.00009739
-17.15042027 162.0257374 -9.739266716e-05
11.54889373 -2.46020013e-05 -56.05216839
22.85176673 175.9812264 -9.739266716e-05
-0.8039232718 67.9205204 -94.00009739
37.74935073 36.4307734 1.932605607
22.81826873 91.7849804 -9.739266716e-05
-6.086835272 50.2818164 -9.739266716e-05
-36.68093727 113.6160514 1.342589607
34.62203173 238.659077 -9.739266716e-05
-28.20426427 26.6456424 -88.00009739
17.34063073 31.7434364 -94.00009739
-6.461201272 -2.46020013e-05 -75.63917439
-4.286305272 3.087229398 -94.00009739
10.59623573 28.7397004 -9.739266716e-05
-20.73521327 88.5554854 -9.739266716e-05
-4.356979272 44.2776354 -94.00009739
-39.13473327 41.5072444 -88.00009739
37.58869673 -0.236286602 -88.00009739
7.143248728 10.5206884 -94.00009739
13.83674473 16.8200984 -9.739266716e-05
-0.002493271817 -2.46020013e-05 -39.74985239
6.897530728 -2.46020013e-05 -82.12679639
-32.36086827 35.7458554 0.01078660733
27.32576173 0.500780398 -94.00009739
-36.30411827 221.3460496 1.135020607
15.31547373 4.198603398 -88.00009739
15.68853173 186.2621404 -9.739266716e-05
-37.69579427 -2.46020013e-05 -9.085871393
-15.14676227 -2.46020013e-05 -42.39191239
28.36714573 45.5081264 -88.00009739
16.28843373 217.9211379 -9.739266716e-05
-28.36508527 214.357761 -9.739266716e-05
-34.83543227 -2.46020013e-05 -0.2956833927
-37.67707827 103.0561234 2.154092607
-14.03314327 -2.46020013e-05 -67.49359339
-29.84991727 33.1882494 -88.00009739
23.67797373 130.6189994 -9.739266716e-05
-8.045332272 -2.46020013e-05 -21.94765539
0.6861447282 -2.46020013e-05 -51.38136039
-27.95429027 219.0056178 -9.739266716e-05
35.30338573 -2.46020013e-05 -68.43324039
6.804045728 17.8535604 -88.00009739
-41.00001227 -2.46020013e-05 -35.53120139
24.75880273 202.7086414 -9.739266716e-05
-2.126456272 15.7150294 -94.00009739
5.986901728 -2.46020013e-05 -41.20428239
-9.594382272 -2.46020013e-05 -55.44616839
24.22816873 -2.46020013e-05 -78.04168439
32.54032873 67.9999754 -88.77064639
7.977592728 248.4293956 -9.739266716e-05
26.10146473 90.7073194 -9.739266716e-05
-8.827538272 34.4583434 -9.739266716e-05
23.00800473 59.6071634 -88.00009739
1.439854728 250.1853094 -9.739266716e-05
24.31290573 40.9084544 -9.739266716e-05
13.02494773 159.7695074 -9.739266716e-05
23.32001373 156.2320544 -9.739266716e-05
-26.09718927 103.0512544 -9.739266716e-05
-6.911084272 170.1742164 -9.739266716e-05
13.81521873 38.0459984 -94.00009739
-6.857541272 -1.003608602 -94.00009739
24.83771173 20.8054254 -94.00009739
-28.93961727 67.9999754 -91.41509739
-22.67984327 103.7293794 -9.739266716e-05
16.97404573 215.7814104 -9.739266716e-05
-33.71580227 -2.46020013e-05 -15.14364639
16.04021873 0.499975398 0.3270766073
37.74935073 147.1140714 0.2241226073
-5.462972272 22.9625564 -88.00009739
-14.40849527 148.6857164 -9.739266716e-05
34.98327273 49.0261734 -9.739266716e-05
-39.66075927 66.1937624 -94.00009739
-24.79587627 -2.46020013e-05 -18.07268839
-16.11600527 95.5606354 -9.739266716e-05
-4.822461272 19.7249334 -88.00009739
-29.79273427 24.4506014 -9.739266716e-05
-23.74433627 13.4999104 -94.00009739
-27.77621027 200.6880344 -9.739266716e-05
28.37198073 211.7915944 -9.739266716e-05
-11.11781627 31.0689394 -94.00009739
-18.39836827 -2.46020013e-05 -31.10871139
-37.98471527 230.9074546 2.425867607
9.627932728 80.6958684 -9.739266716e-05
-19.08366027 246.7101308 -9.739266716e-05
1.303821728 9.966217398 -9.739266716e-05
25.99706873 221.0815069 -9.739266716e-05
32.12427173 3.233971398 -94.00009739
21.83069173 -2.46020013e-05 -79.57696939
3.598683728 -2.46020013e-05 -16.89002639
33.20252673 33.0344934 -94.00009739
-28.93585627 99.3299734 -9.739266716e-05
12.06208973 65.9361974 -9.739266716e-05
1.297422728 -2.46020013e-05 -25.21752339
-30.04256827 28.6246044 -9.739266716e-05
-17.40056927 -2.46020013e-05 -41.40439039
19.71433973 55.6142584 -9.739266716e-05
-17.15902627 37.8788614 -9.739266716e-05
34.64171273 31.8195524 -94.00009739
12.13439273 28.8114974 -88.00009739
-11.31013127 160.9326214 -9.739266716e-05
16.17127173 48.2905294 -88.00009739
15.54205973 249.6787612 -9.739266716e-05
-20.73871727 222.8652524 -9.739266716e-05
-16.12462227 29.9090954 -9.739266716e-05
33.48382673 -2.46020013e-05 -1.034937393
-38.94110927 -2.46020013e-05 -8.507607393
-4.007852272 51.8138094 -9.739266716e-05
8.928983728 21.1027314 -94.00009739
-40.48830327 0.499975398 -41.77149439
9.608885728 -2.46020013e-05 -65.31311039
31.92601873 212.1017498 -9.739266716e-05
26.06137073 21.0723044 -94.00009739
-22.73766027 23.1048984 -9.739266716e-05
-4.572993272 43.9521884 -88.00009739
16.53823673 58.0273054 -88.00009739
11.66912073 124.3584684 -9.739266716e-05
3.470691728 35.5986024 -9.739266716e-05
-21.17747727 -2.46020013e-05 -23.72637139
-32.83977827 76.4872474 0.05807660733
17.79052973 -2.46020013e-05 0.7237816073
-31.62884527 14.8132244 -88.00009739
-28.77786227 -2.46020013e-05 -87.01018839
-18.49817227 26.6653464 -94.00009739
-41.03318927 67.9999754 -93.42681539
-13.44919827 87.3547874 -9.739266716e-05
-20.61420527 45.8991944 -94.00009739
9.972489728 -2.46020013e-05 -10.31471539
11.46942073 -1.785601602 -88.00009739
-18.44786227 87.0351934 -9.739266716e-05
-41.86012127 -2.46020013e-05 0.7971806073
14.46732273 22.3523514 -88.00009739
20.51144873 49.7761714 -9.739266716e-05
8.480399728 191.1124754 -9.739266716e-05
-0.5505192718 67.9999754 -93.06609839
21.93203373 97.3407484 -9.739266716e-05
-17.18460227 209.4084844 -9.739266716e-05
31.94028773 46.1809884 -9.739266716e-05
-27.15327827 83.3790404 -9.739266716e-05
18.05178373 240.8221347 -9.739266716e-05
17.25515873 82.4231994 -9.739266716e-05
33.71152673 111.7339474 -9.739266716e-05
11.27107373 54.9518064 -9.739266716e-05
-27.55411627 43.4815824 -9.739266716e-05
-2.773538272 -2.46020013e-05 -77.51152939
-9.278511272 38.7792514 -94.00009739
19.75991373 57.2105254 -9.739266716e-05
16.67018073 32.0287954 -94.00009739
23.73531973 155.6345634 -9.739266716e-05
-10.62678027 10.0415624 -9.739266716e-05
-38.99599027 -2.46020013e-05 -56.65981939
-17.17524127 -2.46020013e-05 -31.27537039
-36.26759427 220.7289554 1.115477607
-24.76931227 -2.46020013e-05 -17.49759639
4.304859728 158.0033684 -9.739266716e-05
-34.48450727 -2.46020013e-05 -31.60068939
-34.37782327 75.1634954 0.3250166073
1.863039728 11.2748064 -9.739266716e-05
-30.02439627 46.1389624 -9.739266716e-05
19.17291973 41.3219764 -88.00009739
-19.67213327 61.6290854 -94.00009739
-31.52357627 14.3800134 -88.00009739
-26.38710627 -2.46020013e-05 -21.54544539
-7.992941272 -2.46020013e-05 -21.66119539
-8.751427272 81.5343284 -9.739266716e-05
-2.663398272 174.3460984 -9.739266716e-05
-29.90842327 46.4347914 -9.739266716e-05
23.83027973 15.0785794 -9.739266716e-05
30.88253473 -2.46020013e-05 -54.83032239
-40.66223527 0.499975398 -33.76554539
-40.48830327 0.499975398 -41.77149439
-42.95706127 0.499975398 -56.22556839
-43.20839927 0.499975398 -77.84619039
-42.13327027 0.499975398 -69.03143539
-43.42595327 0.499975398 -61.83437239
-42.37900527 0.499975398 0.02122360733
-40.72652427 13.7748794 -85.00009739
-40.33863627 41.3518644 -85.00009739
-43.29691227 102.2012674 -6.470767393
-43.45113227 97.4521584 -12.00163439
-41.44831827 92.4974704 -18.16712939
-40.40269027 76.8299324 -42.41080739
-42.55908127 68.1369424 -61.19465039
-42.57688127 65.8288524 -67.37262839
-40.25064927 84.1366344 0.4034736073
-40.25064927 77.8596224 0.8695586073
-40.25064927 95.3165994 1.195936607
-40.25064927 92.4972144 -3.930799393
-40.25064927 93.4858244 -8.765470393
-40.25064927 88.4742824 -6.815954393
-40.25064927 88.5961224 -21.27542239
-40.25064927 77.0200934 -4.013982393
-40.25064927 82.4525614 -15.34239339
-40.25064927 83.9920364 -7.239050393
-40.25064927 89.1756824 -12.23900439
-40.25064927 69.3988034 -3.099238393
-40.25064927 82.2087614 -31.17667339
-40.25064927 72.0708624 -9.911995393
-40.25064927 74.2897944 -17.07380839
-40.25064927 64.8600254 -0.1207583927
-40.25064927 83.6517824 -20.36752139
-40.25064927 68.7704804 -13.60789839
-40.25064927 80.7241424 -24.12445139
-40.25064927 61.7842944 -6.888652393
-40.25064927 64.6594704 -11.70476739
-40.25064927 57.8649274 -1.574305393
-40.25064927 73.1830004 -29.74730239
-40.25064927 79.4828854 -37.43417439
-40.25064927 78.0819934 -32.88629839
-40.25064927 51.0080884 0.9389966073
-40.25064927 72.2705604 -34.67915439
-40.25064927 71.4433444 -22.16130139
-40.25064927 58.0715674 -10.18799139
-40.25064927 66.6126494 -23.61736439
-40.25064927 68.0138894 -29.39827739
-40.25064927 54.9996494 -6.147362393
-40.25064927 62.0471414 -24.90844139
-40.25064927 69.3298664 -45.26449939
-40.25064927 51.0233644 -8.803884393
-40.25064927 67.4107754 -36.32910039
-40.25064927 64.1232154 -32.36964339
-40.25064927 47.9375674 -3.784700393
-40.25064927 71.9848284 -38.99908339
-40.25064927 42.1999144 0.9869756073
-40.25064927 53.0820974 -18.28460139
-40.25064927 56.7206734 -27.68787739
-40.25064927 48.7056214 -14.47549439
-40.25064927 42.5359784 -8.604923393
-40.25064927 57.4223384 -39.12320239
-40.25064927 67.7362514 -55.84347539
-40.25064927 52.5776414 -24.02382539
-40.25064927 68.0434264 -51.08499339
-40.25064927 48.0229954 -19.04447139
-40.25064927 52.3011164 -28.86404439
-40.25064927 62.8860774 -49.25940839
-40.25064927 37.0093474 2.144286607
-40.25064927 27.6910684 -4.491500393
-40.25064927 28.5008704 1.341713607
-40.25064927 46.0958974 -49.33290539
-40.25064927 53.4300664 -61.69221339
-40.25064927 52.2153224 -67.69583039
-40.25064927 31.8939494 -19.47305739
-40.25064927 34.9649414 -8.028857393
-40.25064927 45.6822884 -38.72686839
-40.25064927 57.9595204 -66.89422139
-40.25064927 52.1124354 -49.40315739
-40.25064927 60.4217784 -54.65197239
-40.25064927 32.1516904 -4.016251393
-40.25064927 40.8200504 -46.49911239
-40.25064927 52.2427904 -54.03429139
-40.25064927 41.2418584 -52.86262839
-40.25064927 49.9080074 -45.22123139
-40.25064927 43.1571234 -62.10837639
-40.25064927 59.9004764 -72.22516539
-40.25064927 63.5397294 -59.57325139
-40.25064927 52.5027274 -36.84058339
-40.25064927 57.9427884 -47.28096639
-40.25064927 50.0840104 -72.65495339
-40.25064927 39.1623274 -32.58637439
-40.25064927 47.4056184 -54.02339739
-40.25064927 41.3356424 -25.45595439
-40.25064927 47.4828354 -60.29370639
-40.25064927 30.6564714 -12.15816939
-40.25064927 37.5204274 -17.51018539
-40.25064927 41.8349834 -42.09784439
-40.25064927 38.1970274 -11.79809139
-40.25064927 45.8658144 -32.56054339
-40.25064927 46.4545264 -27.96068939
-40.25064927 58.2816224 -78.99273339
-40.25064927 48.3382264 -82.51089439
-40.25064927 35.3230944 -36.67998639
-40.25064927 34.0825674 -31.28346039
-40.25064927 18.9977884 -34.83085339
-40.25064927 25.2887484 -84.65092939
-40.25064927 20.3570944 -43.64887239
-40.25064927 17.2707634 -29.55559839
-40.25064927 10.9810814 -59.14351639
-40.25064927 11.5860474 0.7936116073
-40.25064927 21.2370674 -55.36983539
-40.25064927 16.9856654 -64.37425039
-40.25064927 13.6648314 -73.40479339
-40.25064927 10.3096044 -17.00504939
-40.25064927 23.8540244 -39.90278639
-40.25064927 23.2807394 -60.26737439
-40.25064927 35.8155104 -55.61175439
-40.25064927 29.7468584 -36.89327439
-40.25064927 17.1890644 -53.80506839
-40.25064927 17.3067994 -78.31633439
-40.25064927 26.5816244 -23.39315039
-40.25064927 26.5756904 -74.28142639
-40.25064927 31.3242464 -77.38856639
-40.25064927 13.8517314 -41.07708239
-40.25064927 25.1117734 -17.04223739
-40.25064927 20.9348784 -5.633739393
-40.25064927 32.0683924 -65.51411039
-40.25064927 41.8440844 -74.08128539
-40.25064927 25.4855294 -48.53825839
-40.25064927 14.0007624 -67.81675839
-40.25064927 21.1118204 1.954328607
-40.25064927 44.2042204 -69.04709439
-40.25064927 45.7583854 -77.64200639
-40.25064927 10.3063834 -28.10491739
-40.25064927 28.1308704 -52.92400539
-40.25064927 35.6764394 -41.31359839
-40.25064927 24.2622484 -34.22399039
-40.25064927 12.6050384 -52.02296739
-40.25064927 36.0530084 -78.52592539
-40.25064927 26.4553354 -28.80143539
-40.25064927 22.3308004 -65.06931339
-40.25064927 13.2064704 -3.396816393
-40.25064927 18.4028584 -39.13489239
-40.25064927 20.7105274 -49.64075539
-40.25064927 9.368948398 -68.09046839
-40.25064927 33.3360524 -72.68706439
-40.25064927 37.4218364 -70.40119339
-40.25064927 25.0417444 -11.03771039
-40.25064927 9.484469398 -63.16796339
-40.25064927 28.6906184 -60.85889839
-40.25064927 35.3255454 -83.68904739
