# .PCD v0.7 - Point Cloud Data file format
VERSION 0.7
FIELDS x y z
SIZE 4 4 4
TYPE F F F
COUNT 1 1 1
WIDTH 1191
HEIGHT 1
VIEWPOINT 0 0 0 1 0 0 0
POINTS 1191
DATA ascii
-48.39115836 109.4785204 148.7499026
-218.6946944 -2.460780479e-05 16.60315061
-123.7155124 -2.460780479e-05 -8.520933386
-86.59885736 67.99997539 -145.1907714
-24.97324336 124.4805454 148.7499026
-108.0580304 -2.460780479e-05 -135.9797304
-63.52943736 56.17181839 -139.2500974
-182.2945674 -2.460780479e-05 33.54723961
0.0002636412009 47.62995939 56.33407261
-67.56810636 102.6090724 148.7499026
-206.1033874 32.88941139 148.7499026
-185.5619784 34.90130039 -145.2500974
-179.2342974 11.55702439 -139.2500974
0.0002636412009 20.24250039 -79.06518639
-196.7820214 56.15155939 -145.2500974
-220.7911454 -2.460780479e-05 43.59637861
0.0002636412009 15.86067239 -52.59115039
-201.8429054 -2.460780479e-05 67.36578461
-75.95119236 -2.460780479e-05 0.191082614
-124.8247864 -2.460780479e-05 104.6541206
0.0002636412009 33.42546839 87.28171661
1.790027641 -2.460780479e-05 -14.97171939
-36.39043836 32.77930539 148.7499026
-216.2063764 7.463666392 -145.2500974
-76.21695336 19.79126739 148.7499026
-173.4573254 -2.460780479e-05 104.2609616
-51.43645436 66.84330739 -139.2500974
-169.6954104 57.36833339 148.7499026
-12.21627236 105.3701854 148.7499026
0.2923636412 64.10772639 -46.76873039
-200.4132954 -2.460780479e-05 -43.80863739
-11.80472936 -2.460780479e-05 97.53102461
-149.2582234 -2.460780479e-05 -70.52586639
-122.2199274 -2.460780479e-05 133.0989356
-240.1651724 -2.460780479e-05 70.98403861
-135.3107094 -2.460780479e-05 34.87930861
-63.92453736 -2.460780479e-05 -89.35998839
0.0002636412009 43.84323839 99.04167761
-233.5672054 62.71097739 148.7499026
-150.2619324 -2.460780479e-05 98.77276561
-217.3882544 -2.460780479e-05 -115.9347974
-176.2021904 -2.460780479e-05 80.02549161
-25.96965236 42.32366239 150.5769216
-109.8432294 67.99997539 -140.3524824
0.0002636412009 47.90994039 -79.96036339
-40.59631636 11.63330139 -139.2500974
-83.02558136 -2.460780479e-05 112.3643796
-217.2793264 57.11684239 -145.2500974
0.0002636412009 17.34892939 35.01045561
-179.8193694 -2.460780479e-05 -43.69989639
-228.0712104 59.64769239 -139.2500974
-147.3509664 25.93121539 148.7499026
-73.37713936 112.7412864 148.7499026
-145.3779564 48.97959639 148.7499026
-56.53413536 88.09781439 148.7499026
-232.9856274 -2.460780479e-05 -56.23506539
0.0002636412009 35.53617539 131.9482786
-17.74518836 -2.460780479e-05 110.4768486
-181.5035864 5.822036392 148.7499026
-29.14532336 55.29592439 148.7499026
0.2823036412 30.54387439 147.2499026
-132.9648354 -2.460780479e-05 124.6318336
-151.0545734 -2.460780479e-05 110.5248196
-160.7067614 -2.460780479e-05 -21.87924439
-239.3559074 -2.460780479e-05 -79.86214439
-126.1665104 69.41821739 148.7499026
-69.05154336 8.760068392 -145.2500974
-0.4987593588 -1.118831608 -68.45217539
-177.4761964 -2.460780479e-05 131.0888566
-92.05724436 -2.460780479e-05 39.85095361
0.0002636412009 28.39753639 -29.56597139
-102.0224924 -2.460780479e-05 26.45845661
-128.2510614 -2.460780479e-05 53.39540461
-184.8265724 0.001582392195 -145.2500974
-66.45756736 130.2385434 148.7499026
-56.48417836 -2.460780479e-05 -33.16290339
-187.4491044 -2.460780479e-05 -91.19453139
0.0002636412009 69.73441739 112.2574696
-177.7823024 -2.460780479e-05 21.56614961
0.0002636412009 13.18803739 -134.2493604
-67.37072436 -2.460780479e-05 38.83308061
-28.53508936 -2.460780479e-05 139.5724746
0.0002636412009 31.29597739 22.22529661
-36.05174736 -2.460780479e-05 56.28162761
-195.9953514 14.35358639 -139.2500974
-16.37802136 -2.460780479e-05 -113.2850034
0.0002636412009 41.03968839 -112.6248264
-217.6633364 -2.460780479e-05 86.23548861
-105.7554744 31.24306139 148.7499026
-49.22687036 48.59810339 -145.2500974
-11.48965936 -2.460780479e-05 -64.00223239
0.0002636412009 85.64893639 95.93076861
-1.397185359 -1.393799608 -139.2500974
-128.5183374 -2.460780479e-05 -23.93356239
-219.8138364 40.29696339 -139.2500974
0.0002636412009 30.89356539 -119.0668194
0.0002636412009 61.05937839 87.94323261
-243.4587394 -2.460780479e-05 -94.87863139
-105.5071764 -2.460780479e-05 109.8941176
-27.28614136 -2.460780479e-05 65.23743261
0.0002636412009 81.72850939 27.66712261
0.0002636412009 7.257714392 102.4263106
-198.4776014 -2.460780479e-05 -24.82007039
1.154422641 76.43635139 6.779786614
-29.90051336 -2.460780479e-05 -67.69726939
-62.07478236 17.49008339 -139.2500974
-167.9683574 -2.460780479e-05 138.2069626
-80.37318236 -2.460780479e-05 -98.19926339
-213.6623874 -0.5800386078 152.4830836
-58.67178836 -2.460780479e-05 135.4244346
-241.3378164 -2.460780479e-05 -116.0208334
-84.99759836 -2.460780479e-05 -10.81455539
-245.6700584 -2.460780479e-05 148.0991336
-185.8154264 -2.460780479e-05 -2.535299386
0.0002636412009 26.62398339 -96.41571239
-165.1046624 -2.460780479e-05 116.2608686
-246.6480274 -2.460780479e-05 94.27708761
0.0002636412009 88.58757439 54.91954961
-3.570789359 -2.460780479e-05 50.04009761
-28.58766636 12.16602639 148.7499026
0.0002636412009 106.5327284 134.7541016
-192.1049624 30.31492639 148.7499026
0.0002636412009 69.89139139 29.57507661
-2.296093359 62.07530839 148.7499026
-167.9073724 0.7277503922 -145.2500974
-200.8796454 35.60636039 -145.2500974
0.0002636412009 58.68248039 -0.539517386
-75.81661636 67.99997539 -142.8154864
-157.9112304 -2.460780479e-05 91.22889961
-165.4734874 -2.460780479e-05 14.06911861
-151.2633914 33.44908139 -139.2500974
0.0002636412009 5.243280392 22.48656661
-218.9002154 18.04841539 -139.2500974
0.0002636412009 52.19654039 -32.92714639
-86.53219136 42.01765939 148.7499026
-47.28128036 -2.460780479e-05 25.29192761
-129.6950734 24.78718639 -139.2500974
0.0002636412009 72.87921939 54.31055661
0.8624936412 49.88861339 -139.2500974
-111.6937094 -2.460780479e-05 -53.84275039
-202.6724124 -2.460780479e-05 53.84431861
-190.4072124 51.48008639 148.7499026
1.584997641 22.96930239 -145.2500974
-70.16561936 -2.460780479e-05 71.97851861
-165.5302754 33.65937339 -139.2500974
-80.36818236 17.52661539 -139.2500974
-143.6603864 -2.460780479e-05 135.6940696
-181.1477934 -2.460780479e-05 -129.0357204
-242.4968334 10.23782639 -139.2500974
-107.7945784 -2.460780479e-05 89.29758961
-202.2151304 -2.460780479e-05 9.198212614
-123.8571374 -2.460780479e-05 -135.7586874
-212.7782334 -2.460780479e-05 116.5642596
-53.71946436 69.64950839 148.7499026
-229.5641214 -2.460780479e-05 71.06135761
0.0002636412009 41.86076539 -16.68598539
-193.3122404 -2.460780479e-05 111.0144996
-120.5943984 -2.460780479e-05 95.14918061
-241.2891404 36.19029039 -145.2500974
-116.1140804 84.21299939 148.7499026
0.0002636412009 24.20019939 54.06471161
0.0002636412009 33.62152839 48.95759961
-61.89878136 31.01158739 148.7499026
-69.86891236 -2.460780479e-05 -53.19457239
-197.1861024 -2.460780479e-05 139.2515956
-95.96304836 10.56248139 148.7499026
-133.3173014 57.44994739 -145.2500974
-156.6539344 33.99719139 148.7499026
-113.3346664 22.43507039 148.7499026
0.0002636412009 53.99800039 100.6114426
-252.3531934 19.19474739 148.7499026
-104.6364014 59.21882839 -139.2500974
-44.81537736 -2.460780479e-05 146.2965056
-59.47801036 7.569063392 -139.2500974
-171.2687224 -2.460780479e-05 -109.6736984
-27.97928836 -2.460780479e-05 28.18574661
0.0002636412009 103.7583574 97.12137861
-165.4112934 -2.460780479e-05 0.282855614
-143.8268594 -1.682788608 -139.2500974
-172.0117754 49.39538139 -145.2500974
-7.230842359 -2.460780479e-05 77.18975361
0.0002636412009 0.0256853922 -114.8347224
0.0002636412009 90.28664439 125.9107136
-154.1116224 -2.460780479e-05 122.3271916
-227.0649634 46.58493539 148.7499026
-153.0787564 -2.460780479e-05 35.89170161
-154.0400224 57.76188939 148.7499026
-56.89437336 -2.460780479e-05 -76.52137439
-26.29505836 -2.460780479e-05 39.93101461
-145.8819844 67.57337639 -139.2500974
-190.4094544 -2.460780479e-05 53.33456761
-13.20915636 38.18282339 148.7499026
-23.34241936 -2.460780479e-05 5.323085614
0.0002636412009 9.214641392 41.01591761
-42.64984836 40.21922939 -139.2500974
-131.0716054 -2.460780479e-05 -106.4955984
-150.8061654 -2.460780479e-05 -100.7462294
0.0002636412009 38.56133639 -3.463453386
-9.178042359 -2.460780479e-05 -132.7443174
-32.27155536 -2.460780479e-05 -4.015455386
-242.0425074 -0.4128946078 -139.2500974
-174.8359884 -2.460780479e-05 94.30041561
-6.822730359 127.7398864 148.7499026
-125.2740424 -2.460780479e-05 34.91133161
0.0002636412009 61.98063539 48.48649861
-151.8824504 11.05653139 148.7499026
-16.72958736 81.50939039 150.8463536
0.2267756412 -2.460780479e-05 120.4591676
-40.00951636 -2.460780479e-05 -113.0454094
-101.0119224 80.62465939 148.7499026
-29.15020536 39.50569439 -139.2500974
0.0002636412009 13.75326239 -62.73699339
-130.9507864 -0.7343236078 -145.2500974
-80.98509136 -1.321776608 -139.2500974
-25.95170936 -2.460780479e-05 -136.8566844
-21.75684136 -2.460780479e-05 80.15765761
-55.41535136 26.76151639 -139.2500974
-118.7074914 -2.460780479e-05 -73.09508039
0.5881956412 51.03151939 -129.1829244
-173.3248244 34.85052839 -145.2500974
-227.8226064 -2.460780479e-05 12.75619261
-89.32141036 -2.460780479e-05 -103.8455634
-180.4382554 -2.460780479e-05 70.42293461
-148.0209824 -2.460780479e-05 76.24005261
-155.4088904 -2.460780479e-05 18.16838961
-105.3452584 -2.460780479e-05 -69.45295339
0.0002636412009 10.37006739 -81.68291439
-173.6126154 11.68529639 148.7499026
-137.3463974 -2.460780479e-05 -77.99032839
-118.5673984 -2.460780479e-05 -30.54230539
-90.95062236 -2.460780479e-05 -40.06050539
-194.8030614 -2.460780479e-05 96.11216661
-160.3068164 -2.460780479e-05 144.2493856
-213.2655014 -2.460780479e-05 -39.12359039
-88.29060236 17.53003239 148.7499026
-185.5435634 -2.460780479e-05 15.71555061
-42.82903236 -2.460780479e-05 49.07675861
-251.6898284 -2.460780479e-05 -135.7133404
-105.3397524 -2.460780479e-05 78.55437161
-238.6209034 -2.460780479e-05 -23.81796339
-43.28801436 54.69899539 148.7499026
-201.6653784 -2.460780479e-05 31.75176861
-115.6970114 62.61620739 148.7499026
-133.2143964 58.97156539 148.7499026
-65.31542636 55.46743939 148.7499026
-48.18670736 -2.460780479e-05 -7.490907386
-78.95132536 97.49582239 148.7499026
-98.61443436 10.83767139 -139.2500974
0.0002636412009 14.45049639 -12.44796839
-211.5191404 63.06746239 148.7499026
-131.8849724 -2.460780479e-05 -96.90987739
-212.9865474 -2.460780479e-05 138.1897076
-48.08101036 -2.460780479e-05 99.18913761
-184.2310324 67.99997539 -142.3171244
-1.266126359 107.3268094 148.7499026
-189.3164974 -2.460780479e-05 -100.6077784
-95.64962836 31.66791039 148.7499026
0.0002636412009 16.64334339 -110.2603654
-96.48957036 -2.460780479e-05 -4.721150386
0.0002636412009 108.7371214 119.2060726
-154.5890874 7.721166392 -139.2500974
-52.80866736 -2.460780479e-05 73.32027761
-236.4914554 17.69383439 -139.2500974
-177.9355154 20.01015939 -145.2500974
-5.002241359 36.75721039 -139.2500974
-6.721154359 6.565662392 -139.2500974
-7.160823359 18.82340539 148.7499026
-23.12321836 33.32510039 -145.2500974
-187.7233034 -1.425201608 148.7499026
-69.42873836 36.93426539 -145.2500974
-57.35240236 -2.460780479e-05 -53.57337839
0.0002636412009 50.48743039 16.31666461
-97.25357436 95.47130739 148.7499026
-166.6411374 -2.460780479e-05 73.34456061
-155.1192154 -2.460780479e-05 -90.10149139
-142.6839334 -2.460780479e-05 -22.40961739
-111.1652794 6.594839392 148.7499026
0.0002636412009 55.31755939 30.80365961
0.0002636412009 98.43273639 113.1234096
-163.4326374 63.50443639 -139.2500974
-107.1660474 -2.460780479e-05 -88.94581139
-110.6704524 -2.460780479e-05 54.51606361
-40.99286236 -2.460780479e-05 -72.68940039
-100.5757564 -2.460780479e-05 5.778708614
-196.6721304 -2.460780479e-05 -7.482566386
-98.52655336 -2.460780479e-05 65.21662761
-239.3992774 -2.460780479e-05 27.09267361
0.0002636412009 51.30087339 -54.37483139
-232.6530954 -2.460780479e-05 108.9993196
-52.11448436 30.20632339 148.7499026
0.0002636412009 26.52599339 -43.64984539
-0.8911923588 -2.460780479e-05 69.96587961
-193.5085464 5.010254392 -145.2500974
-91.29138136 4.472289392 -145.2500974
-226.6454654 -2.460780479e-05 -97.29763739
-23.07441736 -2.460780479e-05 -120.0934614
-244.6208604 -2.460780479e-05 85.04771861
-54.26311336 54.44441739 -139.2500974
-174.3469184 58.50784939 -145.2500974
-50.58387336 124.2342264 148.7499026
-158.0421984 -2.460780479e-05 59.04989461
-50.80765136 -2.460780479e-05 84.83257961
0.0002636412009 81.43013439 108.0020916
-57.98031136 8.805054392 148.7499026
-189.7408504 -2.460780479e-05 -66.06582539
-15.30390136 -2.460780479e-05 -86.10900739
-6.127240359 17.03415139 -145.2500974
-128.0609054 19.20975439 148.7499026
0.0002636412009 3.166512392 4.529440614
-182.0445324 -2.460780479e-05 107.9316526
-157.5218264 18.16717839 -145.2500974
-206.4332834 28.11905039 -145.2500974
-15.66301936 124.2392194 148.7499026
2.358791641 118.7831204 147.2499026
-10.59764536 54.99333639 148.7499026
0.0002636412009 92.93820639 79.16313061
-217.6188074 24.48153439 148.7499026
-26.03549736 -2.460780479e-05 -50.75921939
-44.80137236 1.288533392 -139.2500974
-94.33349336 -2.460780479e-05 -49.90049139
0.0002636412009 44.53300539 65.05673061
-12.05071736 -2.460780479e-05 16.94344161
-96.96806136 -2.460780479e-05 -130.2452964
-33.27030036 8.182115392 -145.2500974
-221.5208284 -2.460780479e-05 3.272001614
-198.6355694 46.13324239 -139.2500974
0.0002636412009 63.01041139 136.7716886
-120.9678064 15.11746239 -139.2500974
-192.1015474 19.23754439 148.7499026
-173.5189684 -2.460780479e-05 -60.98399039
-11.97567236 2.650200392 148.7499026
-94.09267436 29.74299239 -145.2500974
-132.1098424 8.038242392 148.7499026
-68.27812736 120.6073044 148.7499026
-137.5028524 -2.460780479e-05 -46.91660239
-181.4620764 53.35745539 148.7499026
-226.3783114 2.853851392 -145.2500974
-241.6274514 -2.460780479e-05 5.069147614
-109.4632374 49.87129739 148.7499026
-130.0636324 49.39823839 148.7499026
-4.309467359 93.24306739 148.7499026
-1.907492359 -2.460780479e-05 84.57150961
-205.6789674 2.082800392 -139.2500974
-225.2123274 21.15358839 -145.2500974
-108.7030844 -2.460780479e-05 -111.2446844
-84.87673236 -2.460780479e-05 87.49112161
-224.0946664 0.7499753922 152.2651856
-247.1004254 63.66488039 -139.2500974
-45.43075636 -2.460780479e-05 -122.7615964
-44.65505736 -2.460780479e-05 59.17638461
-119.0067014 62.87184639 -145.2500974
-84.23558736 -2.460780479e-05 -72.55540739
-142.6364214 -2.460780479e-05 -125.7737414
0.0002636412009 21.90628739 91.99643061
-38.41582636 16.63721439 148.7499026
-75.05063736 -2.460780479e-05 -29.62515639
-33.51194436 -2.460780479e-05 148.2122986
-148.1715004 68.17737439 148.7830786
-59.18453136 104.7210824 151.3468846
-212.3336644 -2.460780479e-05 125.5793766
-69.92653236 -2.460780479e-05 -96.09864339
0.0002636412009 39.83766539 16.12061261
-26.27872336 61.12521339 -139.2500974
-248.6889304 -2.460780479e-05 139.0867336
-70.99731036 10.24069939 148.7499026
0.0002636412009 13.50308739 67.31666461
-97.57570636 -2.460780479e-05 105.6773356
-143.5063164 -2.460780479e-05 -90.64473739
-89.39506636 -2.460780479e-05 -61.96255039
-242.8738134 25.01036739 153.2652166
-37.64261236 -2.460780479e-05 19.88944561
-182.7388524 -2.460780479e-05 -19.48168139
-165.4944404 -2.460780479e-05 51.24253761
-64.09638036 -2.460780479e-05 -131.2957094
-202.0412314 8.436997392 148.7499026
-38.24866336 50.35887039 -145.2500974
0.0002636412009 63.43864339 121.1850756
-89.13874536 -2.460780479e-05 -92.26227539
-82.15182036 -2.460780479e-05 146.3000886
-223.0323704 -2.460780479e-05 -36.66035839
-35.23659036 -2.460780479e-05 -46.26403139
-41.30815536 -2.460780479e-05 78.68683361
0.0002636412009 3.341542392 -97.55071439
0.0002636412009 76.79399239 35.43144061
-162.9259964 -2.460780479e-05 -112.7922424
0.0002636412009 27.04318239 31.62364161
-105.4137894 -2.460780479e-05 147.1916566
-21.29502536 -2.460780479e-05 -19.41289839
-85.37646736 -2.460780479e-05 -83.14553539
-183.9693234 52.32298039 -139.2500974
0.0002636412009 73.18557539 82.21310661
-7.690818359 52.19189639 -139.2500974
-93.84537636 61.86381439 -145.2500974
-114.4036124 -2.460780479e-05 -10.79677739
-37.88844736 129.6504214 148.7499026
-32.98932636 24.63026439 148.7499026
-48.46624036 -2.460780479e-05 112.4341756
-196.0602024 -2.460780479e-05 74.01497661
0.0002636412009 66.52027939 64.14885661
-216.1573684 45.60362139 -145.2500974
-119.2376514 -2.460780479e-05 -49.31286739
-154.2154274 -2.460780479e-05 -78.35427639
-176.3792964 65.50199939 -139.2500974
1.570666641 9.904523392 132.8487376
-93.64703136 48.39445539 148.7499026
-154.3162154 -2.460780479e-05 -40.51650339
-131.1124814 -0.6695566078 148.7499026
-202.7291794 -2.460780479e-05 124.2033266
-80.95361836 49.55610039 -145.2500974
-190.9977394 -2.460780479e-05 32.64881861
-206.4533194 -2.460780479e-05 -4.307721386
-63.91874736 -2.460780479e-05 -108.2970784
-73.22598136 59.14075139 -139.2500974
0.0002636412009 20.00706139 0.563373614
-45.65581736 64.34356939 -145.2500974
-245.9533734 60.32075639 148.7499026
-38.80108736 63.06690439 -139.2500974
-124.1420874 -2.460780479e-05 -119.5518434
-8.189060359 29.56548539 148.7499026
-13.58691036 -2.460780479e-05 46.29675461
-246.6385674 -2.460780479e-05 -123.3806544
-204.6145934 65.77542839 -145.2500974
-27.38140136 116.1748394 148.7499026
-22.16013736 94.10697339 148.7499026
-140.3068104 14.34558039 -139.2500974
-251.4816224 -2.460780479e-05 34.09127661
-115.5473984 -2.460780479e-05 35.05841461
-80.88393636 -2.460780479e-05 53.28148261
-63.02743736 2.464822392 -145.2500974
-251.4398674 26.31489239 -139.2500974
-99.34825336 -0.8866596078 91.81550161
-222.8374394 -2.460780479e-05 65.51533761
-73.62202736 74.55178839 148.7499026
-233.8827724 -2.460780479e-05 49.05484261
-72.47683036 14.14240039 -139.2500974
-128.1636534 -2.460780479e-05 -80.98720139
-75.07105636 -2.460780479e-05 91.69114161
0.0002636412009 6.682700392 -47.75274039
-13.99640736 -2.460780479e-05 29.29908161
-138.3267104 -2.460780479e-05 117.9514436
-181.3355094 -2.460780479e-05 88.72939261
-193.9305864 38.99586239 -139.2500974
-79.64994336 -2.460780479e-05 -117.3931534
-181.6031304 41.60554839 148.7499026
-107.1677074 43.35474739 -145.2500974
-31.23324036 -2.460780479e-05 -98.80703839
0.0002636412009 30.62431839 73.25557661
-113.1000504 92.89888939 150.3627276
-7.768214359 -2.460780479e-05 104.9918566
-216.2678244 -2.460780479e-05 -15.29047039
1.806820641 -2.460780479e-05 43.49159661
0.0002636412009 88.42038339 117.6474126
-233.6573714 61.77798139 -145.2500974
-78.74529836 27.35889639 -145.2500974
-184.3957184 -2.460780479e-05 61.03312661
0.0002636412009 25.10393939 15.43586661
-227.2630264 8.749222392 -139.2500974
-96.43898936 46.82435339 -145.2500974
0.0002636412009 50.87159339 140.3364166
-171.7217324 -2.460780479e-05 -16.92172039
-215.4812394 -2.460780479e-05 105.5338466
0.0002636412009 48.38537639 109.7370296
-124.4561194 -2.460780479e-05 -42.70904839
-5.666697359 23.63309239 -139.2500974
-48.78342536 -2.460780479e-05 40.03061361
-215.6909074 -2.460780479e-05 -131.9002314
-74.01570636 -2.460780479e-05 122.2781936
-115.6808114 -2.460780479e-05 13.70154161
-240.1493184 65.39637939 153.2212776
-160.4443724 -2.460780479e-05 -120.8051434
-164.6964734 -2.460780479e-05 -60.28780839
0.0002636412009 75.70641739 46.43742461
-130.9057434 14.29244939 -139.2500974
-246.7734414 -2.460780479e-05 105.0276396
-8.299047359 -2.460780479e-05 129.9899206
-85.92643936 60.27081539 -139.2500974
-158.9369374 -2.460780479e-05 -30.45293839
-133.1295464 -2.460780479e-05 -57.32652739
-87.64410336 -2.460780479e-05 66.25684161
-135.0515584 42.70274739 148.7499026
-165.0318454 25.35261639 -139.2500974
-115.2058324 15.19088339 -145.2500974
-19.48567636 21.67837539 148.7499026
-66.40733436 -2.460780479e-05 105.7130176
0.0002636412009 43.40804739 -61.18559939
-19.10798436 -2.460780479e-05 -40.90598939
-207.9786714 11.26905439 -145.2500974
-89.97206436 -2.460780479e-05 10.49033861
-197.1271144 -2.460780479e-05 47.71684061
-9.895633359 -2.460780479e-05 -92.35440439
0.0002636412009 8.163587392 -17.79791739
-110.9197454 53.39284239 -145.2500974
-38.64380436 -2.460780479e-05 125.9881456
-146.5531814 20.50823939 -145.2500974
-240.9987594 32.68856439 150.8483876
-21.93017836 -2.460780479e-05 98.38142761
0.0002636412009 38.17355539 -124.9157104
-241.9987594 6.601399392 151.3328596
-225.4526564 54.84542739 148.7499026
-51.33709136 6.462172392 -139.2500974
1.185178641 -2.460780479e-05 -2.931593386
-61.32790436 47.63489639 -145.2500974
-119.0865674 49.94049139 -139.2500974
0.0002636412009 7.695215392 32.21409261
-68.68189036 47.60196039 -139.2500974
-13.95899536 -2.460780479e-05 -5.562373386
-50.85127736 -2.460780479e-05 -58.50247539
-102.8501124 -2.460780479e-05 -79.71282939
-142.7320614 -2.460780479e-05 -33.22601539
-36.34419736 28.82025739 -139.2500974
-185.3495694 -2.460780479e-05 129.0488346
-198.2138064 41.56544539 148.7499026
0.0002636412009 21.64409739 -117.7789484
-213.2508534 45.51821739 148.7499026
-231.5773144 32.91648439 148.7499026
0.0002636412009 20.22202139 115.6820686
-156.9559374 -2.460780479e-05 -52.57848539
-244.2324684 19.63592939 -145.2500974
-85.77146436 80.96788139 148.7499026
-107.6074354 -2.460780479e-05 -37.29237839
0.0002636412009 75.98904139 100.8454926
-32.42464736 -2.460780479e-05 -34.50396139
-111.0598074 32.31780339 -145.2500974
-159.6354544 -2.460780479e-05 -67.53028539
-6.150308359 -2.460780479e-05 40.47284761
-240.0775714 -2.460780479e-05 -31.73435439
-78.58967336 -2.460780479e-05 -19.80376039
-207.8391304 -2.460780479e-05 90.87172161
-212.7979084 -2.460780479e-05 68.63741861
-25.29010636 14.71045739 -139.2500974
-172.2980874 -2.460780479e-05 123.8048366
-218.8925114 -2.460780479e-05 -81.36256939
-122.5457984 39.67059139 -145.2500974
-108.9827364 -2.460780479e-05 117.1057606
-207.3519934 -2.460780479e-05 -92.43777039
0.0002636412009 14.73418739 59.41173661
0.0002636412009 -1.559703608 -78.19006239
-243.0765434 67.99997539 -144.6372144
-44.16519336 -2.460780479e-05 -88.47677639
-60.45422036 124.9862734 148.7499026
-105.6715214 -2.460780479e-05 -0.355079386
-128.1826484 55.55282339 -139.2500974
-178.3100994 -2.460780479e-05 -54.61554039
-65.84439936 -2.460780479e-05 -35.55230639
-227.6759964 67.99997539 149.6512816
-204.9720024 -2.460780479e-05 140.9444566
0.0002636412009 82.72290039 88.52199861
-18.83173636 -2.460780479e-05 128.1983276
-162.6928174 6.740430392 -145.2500974
-14.19298936 47.23308539 -139.2500974
0.0002636412009 37.70230039 5.197555614
-175.8893714 36.08649639 148.7499026
-57.20681736 -2.460780479e-05 10.59563561
-77.14812836 -2.460780479e-05 107.0221676
-192.7338704 30.12039039 -145.2500974
-203.4163824 -2.460780479e-05 20.04067261
-238.5096174 -2.460780479e-05 34.97184461
-9.341764359 59.94584439 -139.2500974
-32.98138936 -2.460780479e-05 81.93550861
-30.04969236 0.9500873922 -145.2500974
-84.53263636 -2.460780479e-05 104.0622586
-130.1904894 75.95112939 150.8096596
-196.6373914 -2.460780479e-05 39.83068161
0.0002636412009 19.11975239 -18.82204039
-75.20390636 -2.460780479e-05 137.8786376
-178.1707344 -2.460780479e-05 12.90508961
-22.57941636 -2.460780479e-05 13.17520261
0.0002636412009 35.14353539 -12.55942839
-122.3039424 -2.460780479e-05 78.44323261
-228.8695464 67.86842639 -139.2500974
2.005107641 15.74437339 139.7608856
-102.1362674 23.99942239 -145.2500974
-87.65479536 -2.460780479e-05 75.97995661
-229.7501204 -2.460780479e-05 -40.85462639
0.0002636412009 32.85633139 139.3365286
-196.0628894 -2.460780479e-05 128.9413556
-181.6043364 -2.460780479e-05 42.63032261
0.0002636412009 15.78108639 -99.26990439
-188.4772434 5.200595392 -139.2500974
-183.9787124 -2.460780479e-05 5.074980614
-11.26799636 8.694457392 -145.2500974
-142.4924644 -2.460780479e-05 6.310176614
-61.67058036 67.05333339 148.7499026
0.0002636412009 56.68312239 -82.90079839
-4.526102359 38.76892139 148.7499026
-98.37811436 -2.460780479e-05 -113.7575954
-158.6233214 46.73483339 -139.2500974
0.0002636412009 21.92960239 -71.48122339
-150.5981324 59.13294439 -139.2500974
-35.94403636 -2.460780479e-05 92.65560361
0.0002636412009 77.94643239 144.2379616
0.0002636412009 78.02784639 133.5614826
-137.3480544 -2.460780479e-05 65.44571561
0.0002636412009 35.11765639 -25.63271239
-38.02331536 58.08247239 -145.2500974
-4.222848359 48.06701839 148.7499026
-181.3470344 26.92661839 -145.2500974
-79.58586936 40.54498539 -145.2500974
-77.71618936 -2.460780479e-05 -59.78522839
-196.1193264 -2.460780479e-05 -115.8090124
-200.6362274 -2.460780479e-05 -14.60343739
-229.5764984 -2.460780479e-05 -68.64514339
-244.0844624 43.36125239 -139.2500974
-151.3562374 26.50842939 -145.2500974
-92.01460236 -2.460780479e-05 -16.31158839
-115.4732044 -2.460780479e-05 -89.07048839
0.0002636412009 60.08488639 108.4067826
0.0002636412009 70.01414339 14.41943461
-32.22677136 -2.460780479e-05 109.8907856
-146.5739764 34.38809539 -145.2500974
-138.0023774 23.38822239 148.7499026
1.242542641 1.634753392 129.9109956
-22.21809736 -2.460780479e-05 -99.85219039
0.0002636412009 49.99218139 -65.10189039
-211.2218004 -2.460780479e-05 14.93295161
1.520551641 21.47470439 -137.7500974
-181.3996984 -2.460780479e-05 -118.0897804
0.0002636412009 88.09298139 69.46347161
0.0002636412009 95.90536039 131.0815206
-234.4553834 -2.460780479e-05 8.697394614
-239.2749014 19.44457539 148.7499026
-0.1182223588 45.28699739 -145.2500974
-170.3556974 -2.460780479e-05 35.38617161
0.0002636412009 65.42459339 55.89740161
-172.4762034 -2.460780479e-05 87.06497261
-239.5666504 -2.460780479e-05 -2.970921386
-54.18536436 114.3952564 148.7499026
-3.375855359 -2.460780479e-05 26.82080561
0.0002636412009 113.1538784 142.7315846
-182.3400174 18.53266039 -139.2500974
-246.5057404 -2.460780479e-05 20.54201461
0.0002636412009 62.46783639 33.28807161
-247.9762994 -2.460780479e-05 124.3464386
0.0002636412009 38.70209839 -91.45998139
-62.16228036 -2.460780479e-05 142.1182086
0.0002636412009 9.674317392 -33.06964439
-167.9027234 23.89306039 148.7499026
-93.89458636 78.13637039 148.7499026
-56.02222236 -2.460780479e-05 56.69325661
-247.1976314 54.91021339 -139.2500974
-219.3260974 48.88367839 -139.2500974
-43.31568136 -2.460780479e-05 8.457818614
-198.7814684 -2.460780479e-05 60.29495061
0.0002636412009 42.93291839 91.31093261
-48.71878436 59.84444739 -139.2500974
-61.04951936 82.10599739 148.7499026
-214.0245864 15.70255539 -145.2500974
-229.0870934 -2.460780479e-05 123.7627606
-143.5871754 -2.460780479e-05 -10.84955339
-143.7165374 -2.460780479e-05 -42.73485039
-231.9847164 -2.460780479e-05 -130.2899914
-218.9082654 25.18299639 -145.2500974
0.0002636412009 72.13310539 69.85302061
-41.07325436 -2.460780479e-05 -25.21293439
-27.35334236 47.96820739 -145.2500974
-54.36094736 -2.460780479e-05 -11.66771239
-238.9035174 -2.460780479e-05 -14.25354939
-111.4439594 -2.460780479e-05 19.83287261
-143.5646004 -2.460780479e-05 -107.6783504
0.0002636412009 36.16344939 -47.73734239
-28.63215836 24.17747639 -145.2500974
-27.71570836 35.32139239 148.7499026
-82.11732436 -2.460780479e-05 27.07268161
-166.2171114 -2.460780479e-05 -34.24615839
0.0002636412009 37.13826239 -105.0941364
-217.5442424 -2.460780479e-05 50.28156861
0.0002636412009 69.07337939 1.855533614
-45.13722636 25.46837839 -139.2500974
-34.28976236 69.22008239 148.7499026
-69.43009636 -2.460780479e-05 25.40457161
-0.8836203588 -2.460780479e-05 -44.28786739
-109.0535604 21.35658439 -145.2500974
-174.3848844 -2.460780479e-05 -78.48037439
0.0002636412009 34.96886139 -59.43353839
0.0002636412009 58.81592439 73.12093761
0.0002636412009 64.63866239 -11.69516639
-232.2519874 18.49096339 -145.2500974
-114.5611184 4.440222392 -145.2500974
-212.5879754 -2.460780479e-05 -48.56374539
-113.3187094 -2.460780479e-05 42.15864461
-101.7263674 -1.877577608 -139.2500974
-71.40895736 -2.460780479e-05 -21.45145239
-91.22711436 4.919916392 148.7499026
0.0002636412009 23.67379639 -9.552206386
-205.4790874 20.82582639 -145.2500974
0.0002636412009 57.50401439 125.5231516
-185.7412834 30.66149839 -139.2500974
-20.70458936 50.62940539 -139.2500974
-145.3687244 14.94265339 148.7499026
-235.5170614 57.97930039 -139.2500974
-181.8338704 -2.460780479e-05 -95.91406939
-14.17897236 45.44732839 148.7499026
-210.7934404 61.84081439 -145.2500974
-84.40817436 51.94060039 -139.2500974
-23.58795736 -2.460780479e-05 134.1740156
-94.85578236 39.34315739 -139.2500974
-21.77494636 132.7266344 148.7499026
-17.47781036 74.54915739 148.7499026
-184.2841534 -2.460780479e-05 -135.6338954
-64.01934336 2.618563392 148.7499026
-97.03533336 17.95817639 -139.2500974
-82.88176336 -2.460780479e-05 -132.1447344
-240.1389164 -2.460780479e-05 109.1349066
-116.0267754 -2.460780479e-05 -103.0413284
-32.29081536 110.8019354 148.7499026
0.0002636412009 5.377245392 115.2899656
-4.703505359 -2.460780479e-05 95.95944161
-184.7689704 -2.460780479e-05 23.58575961
0.0002636412009 27.04461139 112.1465866
-101.8884614 -2.460780479e-05 58.78406961
-41.43268436 3.597396392 -145.2500974
-240.0335694 55.15125839 153.4217746
-93.42002536 -2.460780479e-05 -121.3465224
0.0002636412009 42.77705439 132.1395116
-175.2980824 27.05295739 148.7499026
-58.06189336 55.85056339 -145.2500974
-217.0086004 29.11235739 -139.2500974
-64.43306536 -2.460780479e-05 -67.82609839
-177.2346354 -2.460780479e-05 56.84577461
-151.4000424 -2.297042608 -139.2500974
-114.7558084 -2.460780479e-05 130.6283706
-140.2272894 53.92795839 -145.2500974
0.0002636412009 62.83092639 -25.21924539
0.0002636412009 51.88685539 49.80075561
-22.97157036 -2.460780479e-05 -34.81179639
-241.6628534 -2.460780479e-05 137.4586056
-125.4736224 -2.460780479e-05 -65.11171339
-166.4778584 66.13808639 148.7499026
0.0002636412009 30.64792939 -36.41508739
-160.8165724 41.92686739 148.7499026
-49.82698636 42.63920939 148.7499026
-152.2395034 42.45690539 148.7499026
0.0002636412009 97.66601039 105.2526006
-49.76479236 41.33815739 -139.2500974
-120.9625584 67.47428139 -139.2500974
0.0002636412009 13.34557039 96.43670861
-25.37261736 66.14235539 -145.2500974
-67.52880936 38.60132839 148.7499026
-8.957852359 36.51713539 -145.2500974
0.0002636412009 5.875109392 -119.0112234
-133.5195004 66.47741539 148.7499026
-192.3662404 61.82080939 -145.2500974
-65.27478936 25.73251239 -139.2500974
-83.65985836 32.59516939 -145.2500974
-88.91470336 12.29965339 -139.2500974
-239.4384754 4.902616392 -145.2500974
-50.29587036 4.116108392 148.7499026
-213.5563164 0.8007013922 -145.2500974
-61.93939136 21.40346439 -145.2500974
-125.3647504 -2.460780479e-05 -33.66259139
0.0002636412009 37.53716639 32.31803361
-140.4416034 -2.460780479e-05 49.77569061
-251.9488064 6.210408392 -139.2500974
-24.21931336 -2.460780479e-05 -85.27074039
-102.4289774 11.57059939 -145.2500974
-191.2759324 20.69747739 -139.2500974
-91.70630436 -2.460780479e-05 132.7832936
-5.989416359 -2.460780479e-05 -110.9568564
-148.0744564 -2.460780479e-05 48.65003761
-59.83685836 -2.460780479e-05 -24.45934239
-80.05375836 -2.460780479e-05 6.019364614
-235.9368844 -2.460780479e-05 -123.0906474
-141.0065894 45.17905439 -139.2500974
-226.8131484 41.57477439 -139.2500974
-224.2351884 -2.460780479e-05 102.0893136
-248.4444724 -2.460780479e-05 -116.1143574
-225.6562044 10.38729739 148.7499026
-190.7034334 -2.460780479e-05 104.4037646
0.0002636412009 24.74210639 143.1684036
-194.7223044 -2.460780479e-05 80.98184361
-90.74915636 48.02527339 -139.2500974
0.0002636412009 22.02329039 -86.60215139
-121.6988004 29.59132439 -145.2500974
-85.18586236 4.351066392 -139.2500974
-62.47996336 38.16824439 -145.2500974
-204.2611434 25.10428339 -139.2500974
-76.57659536 -2.460780479e-05 69.03702861
-29.40012636 48.57456639 150.8682026
-54.12195036 14.28577639 -145.2500974
-12.45049736 98.33151439 148.7499026
-14.14652136 -2.460780479e-05 78.51770761
-81.80867636 21.02810739 -145.2500974
2.233740641 71.86504339 148.7499026
-240.6093054 -2.460780479e-05 -86.78059139
0.0002636412009 38.15415639 103.1693736
-22.21858536 12.71915539 -145.2500974
-117.2095124 -2.460780479e-05 -133.2932214
-74.13017436 -2.460780479e-05 47.10454561
0.0002636412009 6.426685392 47.44522561
0.0002636412009 30.43017339 -131.9683614
0.0002636412009 27.63481039 60.16929461
-228.8411204 -2.460780479e-05 80.69716561
0.0002636412009 74.62895039 24.42487561
-240.6950744 44.56082639 -145.2500974
-13.59656336 5.385132392 -139.2500974
-203.0129724 -2.460780479e-05 74.55961961
-78.15227936 29.60457439 148.7499026
-194.6744374 -0.8763316078 148.7499026
-113.9830024 -2.460780479e-05 6.954922614
-120.0258344 6.611410392 148.7499026
-108.1533814 30.35770639 -139.2500974
-175.1317244 -2.460780479e-05 137.6303526
-16.50555836 64.06096339 -145.2500974
-246.5370254 -2.460780479e-05 -101.0997284
-95.36301836 55.11183539 148.7499026
-97.25516336 88.53964139 148.7499026
-33.58564636 11.63606439 -139.2500974
-35.62264336 -2.460780479e-05 103.5907896
-40.62679636 46.84416439 -139.2500974
-64.65357836 -2.460780479e-05 19.90272461
-79.00012236 -2.460780479e-05 38.41743661
-224.2810964 -2.460780479e-05 -22.28545239
0.0002636412009 60.32104639 14.79449061
-103.2103804 -2.460780479e-05 129.7201786
-244.0259744 -2.460780479e-05 -45.91112339
0.0002636412009 22.05075639 44.62320061
-196.2154704 -2.460780479e-05 89.35777161
-137.0116874 30.54578739 -145.2500974
-134.9311454 -2.460780479e-05 -26.47381739
-140.3637474 8.527908392 148.7499026
-116.0440704 -2.460780479e-05 -66.48824839
-46.94111136 116.3868224 148.7499026
-102.6262894 8.859365392 148.7499026
-185.7638374 61.78432339 -139.2500974
0.0002636412009 10.08275339 -91.74562839
-248.3090714 40.26028739 -145.2500974
-186.6127904 7.961379392 -145.2500974
-124.3054314 -1.537991608 148.7499026
-120.2893944 34.94904839 -139.2500974
-68.43227136 -2.460780479e-05 93.40933761
-168.7660674 -2.460780479e-05 -133.5291744
-213.0591044 -2.460780479e-05 -8.116026386
0.0002636412009 67.14226139 91.06831961
-183.7468954 67.99997539 150.6174936
-10.94359236 30.63228839 -139.2500974
0.0002636412009 25.80656239 -64.85843739
-5.235146359 -2.460780479e-05 -119.2215144
-112.5757854 30.88371739 148.7499026
-39.83093536 41.85476039 -145.2500974
-55.96895136 -2.460780479e-05 -112.5783184
-94.24693036 26.49733639 -139.2500974
-178.0335204 -2.460780479e-05 64.04153361
0.0002636412009 61.00267939 96.50022761
-48.77211736 -2.460780479e-05 -52.00855639
0.0002636412009 60.33448039 81.16609761
-109.2835784 -2.460780479e-05 -29.85485139
-210.9993354 -2.460780479e-05 84.82247161
-227.9773284 54.47975739 -145.2500974
-169.9005854 -2.460780479e-05 -86.10133939
-83.99668736 59.17499339 148.7499026
-244.2592794 -2.460780479e-05 13.56574861
-245.3483424 -2.460780479e-05 -76.67170839
0.0002636412009 41.56316839 82.00525861
-169.8409404 -2.460780479e-05 -8.655560386
-57.35049336 98.22748639 150.6843686
-154.3297494 -2.460780479e-05 -108.6797324
-75.22462336 -2.460780479e-05 -102.9590434
-244.1249944 54.24344039 -145.2500974
-188.1636544 24.80637039 148.7499026
-37.84794436 -2.460780479e-05 -100.2459104
-116.7798104 47.82363339 -145.2500974
-62.52862936 -2.460780479e-05 65.01128761
-190.6127734 -2.460780479e-05 -72.85807639
-83.84024436 23.38802739 -139.2500974
-78.03323436 -0.3375136078 -145.2500974
-103.3967314 -2.460780479e-05 42.83753261
0.0002636412009 46.20640139 -38.24899639
-14.06250136 60.78095139 148.7499026
-75.58739436 43.42542939 148.7499026
-238.9581434 -2.460780479e-05 148.7448876
-12.48279036 21.14242339 -145.2500974
-163.7526374 40.15615339 -139.2500974
-222.0063844 -2.460780479e-05 -69.84472939
-82.37403636 115.9818894 148.7499026
0.0002636412009 32.02915239 -53.15886139
-19.69075636 110.9029174 148.7499026
-215.3715724 -2.460780479e-05 -93.69738239
-90.91270936 -2.460780479e-05 101.5793296
-139.7973624 62.30643739 -139.2500974
-102.7234904 -2.460780479e-05 -51.02904639
-246.4030144 -2.460780479e-05 68.49972861
-85.72129036 95.12484139 148.7499026
-81.77472736 106.5460994 148.7499026
-57.72941536 33.04846539 -139.2500974
-108.2096524 -2.460780479e-05 29.02677961
-44.31609136 16.37963339 -145.2500974
-184.8026754 -2.460780479e-05 76.48657261
-174.4713834 16.25441939 -139.2500974
-125.2601684 -2.460780479e-05 140.6454756
-192.2215994 -2.460780479e-05 -49.34929539
0.0002636412009 31.68955839 -101.2415484
-35.40624536 -2.460780479e-05 -61.75836939
0.0002636412009 52.07192939 -12.64804639
-211.0782474 -1.836032608 -139.2500974
-140.9039744 -2.460780479e-05 29.41403361
-34.18133636 49.37533939 -139.2500974
-22.00226436 11.13524239 148.7499026
-104.9291254 -2.460780479e-05 -61.15125439
-129.3671134 -2.460780479e-05 -129.4303204
-227.5787224 17.66366439 148.7499026
-2.899896359 61.60397939 -139.2500974
-199.8587224 -2.390538608 -145.2500974
-179.3007544 -2.460780479e-05 124.6937826
-104.4286054 -2.460780479e-05 68.28067261
-135.6737484 -2.460780479e-05 -40.52856039
0.0002636412009 23.09676539 -102.0439054
-108.4039574 -2.460780479e-05 -44.58993439
-45.94304136 -2.460780479e-05 -62.97480639
0.0002636412009 18.47615339 27.58296161
-189.5895184 12.66712039 -139.2500974
-100.6135214 -2.460780479e-05 35.38775561
-60.80845136 -2.460780479e-05 101.5550036
-29.67076136 -2.460780479e-05 45.62228861
-212.1090844 33.55727139 -139.2500974
-48.95832936 87.71680439 148.7499026
0.0002636412009 28.68883439 105.7480866
0.0002636412009 13.71367839 75.99863361
-203.2609684 63.77299939 148.7499026
-60.81379236 -2.460780479e-05 27.64952761
-112.5097284 61.69647039 -145.2500974
-204.6569184 -2.460780479e-05 -73.36804439
-166.0516894 30.95740639 -145.2500974
-210.3458224 56.57349639 148.7499026
-196.8110684 53.04400139 148.7499026
0.0002636412009 11.25057439 -42.74612939
-132.8717794 2.590640392 -139.2500974
-208.2227904 50.59826439 -139.2500974
-242.6450044 -2.460780479e-05 77.08515561
-238.6272644 16.02825139 -145.2500974
-129.6163504 63.24571739 -145.2500974
-226.9275714 -2.460780479e-05 -89.62782539
0.0002636412009 96.80003839 98.73567361
-150.5420764 -2.460780479e-05 6.069449614
-127.7283934 43.84795239 -145.2500974
-203.0137784 -2.460780479e-05 1.283079614
-122.8211154 -2.460780479e-05 124.3954436
0.0002636412009 43.45523239 -119.1028654
-129.0642734 19.96334439 -145.2500974
-163.9277134 14.91885839 148.7499026
-156.0095274 46.44809639 -145.2500974
0.0002636412009 7.048900392 66.20196061
0.0002636412009 76.00163339 124.8133696
0.0002636412009 35.80958539 125.4106726
-232.7058884 -2.460780479e-05 -46.68492739
-172.9651304 19.39270039 148.7499026
-70.34896036 -0.0772096078 -145.2500974
-55.54732636 -2.460780479e-05 -68.43716539
-0.3963113588 -2.460780479e-05 -103.1403714
-146.1918834 -2.460780479e-05 106.1786766
-125.6622634 -2.460780479e-05 -98.84948539
-89.97844536 -2.460780479e-05 -4.772459386
-34.89112736 -2.460780479e-05 75.71445161
-150.5912054 3.907863392 148.7499026
-141.8188154 2.197784392 148.7499026
-73.08479936 50.93031039 148.7499026
-224.1052234 41.94803839 -145.2500974
-211.9724254 40.64989139 -145.2500974
-11.24469336 -2.460780479e-05 -72.71793039
-141.8736414 69.29570839 150.0616146
-53.20145936 -1.298920608 -139.2500974
-247.9847614 -2.460780479e-05 -23.31224639
-146.3223434 -2.460780479e-05 21.14138461
-216.1708014 -2.460780479e-05 99.01107161
0.0002636412009 21.28905639 -26.21399939
-117.8072724 -2.460780479e-05 -79.49974539
-62.87701136 92.06222139 148.7499026
0.0002636412009 41.55382239 -81.10965639
-90.20291136 -2.460780479e-05 -68.94127139
-87.40470436 109.6998374 148.7499026
-197.1401194 41.87223339 -145.2500974
-99.61757836 66.91843139 -145.2500974
-90.08598036 54.18123639 -145.2500974
0.0002636412009 43.95235739 -106.8719024
-136.1281474 24.41246239 -139.2500974
-41.00067736 -2.460780479e-05 -80.60036639
-192.8262414 48.91537039 -139.2500974
-46.07301736 31.83752839 -139.2500974
-166.1753014 49.10744939 148.7499026
-153.6493084 66.77653839 -139.2500974
-31.35478436 42.93703239 -145.2500974
-157.0410184 13.66342439 -139.2500974
-79.28654736 -2.460780479e-05 117.5897786
0.0002636412009 11.73026139 117.9007456
0.0002636412009 26.97710839 7.571713614
-155.0317424 -2.460780479e-05 24.57644761
0.0002636412009 2.554379392 -132.0938024
-171.4589604 -2.460780479e-05 -1.842872386
-113.8548194 2.298224392 -139.2500974
-152.3947264 7.215131392 -145.2500974
-229.4257464 40.62763839 148.7499026
-217.9228764 -2.460780479e-05 -32.79427439
-119.8516254 24.76054339 -139.2500974
-207.7684504 46.26665639 -145.2500974
0.6226766412 7.643107392 -137.3932294
-205.1546084 -2.460780479e-05 117.5138936
-213.0306854 59.73293339 -139.2500974
-19.70763936 -2.460780479e-05 64.48228761
-221.0190264 -2.460780479e-05 79.57367661
-152.0269424 -2.460780479e-05 42.19904161
-198.6271774 63.54122639 -145.2500974
-183.0851574 -2.460780479e-05 53.71858361
-81.55391836 -2.460780479e-05 -27.81969439
-95.49875936 -2.429165608 81.19528261
-22.91764036 -2.460780479e-05 105.7238186
-0.7794913588 31.31457039 -145.2500974
-18.91471936 -2.460780479e-05 144.1844916
-15.24142936 3.713286392 -145.2500974
-96.44132636 -2.460780479e-05 -36.83171439
-74.50834236 8.106484392 -139.2500974
-47.96117636 57.85017939 -145.2500974
0.0002636412009 52.70761639 83.31626661
-118.0239174 34.78257539 -145.2500974
-152.1318304 -2.460780479e-05 81.09279161
-102.6314764 -2.460780479e-05 117.3298356
-172.1377864 -2.460780479e-05 47.61058661
-74.72775436 45.30429439 -145.2500974
-239.1206424 -2.460780479e-05 -106.5677114
-17.72731036 86.67592839 154.3708086
-240.8967134 62.39421139 -139.2500974
-141.9333484 38.69486339 -145.2500974
1.502517641 -2.460780479e-05 53.82212761
0.0002636412009 43.01046939 46.47276561
0.0002636412009 45.55281739 3.249646614
-132.5889094 -2.460780479e-05 -9.066079386
-78.73364936 -2.460780479e-05 86.00352761
-138.1549524 -2.460780479e-05 -93.99351339
-32.63847636 -2.460780479e-05 -133.6960104
-67.71682036 -2.460780479e-05 122.4958806
-22.59464736 -2.460780479e-05 57.19640561
-191.9066534 -2.460780479e-05 135.5280286
-25.08314836 -2.460780479e-05 -26.50933939
-88.90673836 47.49535639 -145.2500974
-155.2507184 33.10067539 -145.2500974
-230.2383624 -2.460780479e-05 -105.9971634
-145.0710314 -2.460780479e-05 70.68378161
-68.13365136 -2.460780479e-05 -41.41165939
-85.11908336 11.88741639 148.7499026
0.0002636412009 5.073652392 -78.29098739
0.0002636412009 3.266292392 -9.173602386
-158.5767464 26.21453739 -139.2500974
-13.37624236 26.02838339 148.7499026
-78.45649236 84.87714839 148.7499026
-232.1953914 -2.460780479e-05 -62.94153639
-182.5741974 -2.460780479e-05 -12.04040139
-194.2561114 -2.460780479e-05 12.18034361
-90.69576836 -2.460780479e-05 -130.3558514
-227.7583584 -2.460780479e-05 -11.10108639
-82.98153136 -2.460780479e-05 -104.6562844
-228.8501334 28.90727439 -145.2500974
-6.088481359 -2.460780479e-05 66.46980361
-17.99973236 9.839415392 -139.2500974
1.635402641 -2.460780479e-05 -50.51379539
-37.14271036 -2.460780479e-05 7.415730614
-113.5553784 -0.2582296078 148.7499026
-207.0170704 -2.460780479e-05 -39.36515539
-86.47863636 -2.460780479e-05 16.67185561
-133.3800434 -2.460780479e-05 -20.00646639
-152.2344954 -2.460780479e-05 142.2429336
0.0002636412009 33.79289839 55.18558761
-237.7987814 4.708004392 -139.2500974
-101.1087134 -2.460780479e-05 -85.68583839
-96.94748436 48.53270139 -139.2500974
0.0002636412009 57.39511639 -39.40560439
-216.6819204 -2.460780479e-05 -1.800772386
0.0002636412009 33.44100539 -76.41796139
-72.46141136 22.02130239 -139.2500974
-69.91924536 67.70149539 148.7499026
-122.6462394 44.86559939 -139.2500974
0.0002636412009 47.03312639 41.62090561
-31.04564136 18.15843339 -139.2500974
-22.27897736 34.61949239 -139.2500974
-201.2130214 -2.460780479e-05 -101.9500824
0.0002636412009 51.83616239 -75.17413139
-97.02173436 19.48205939 -145.2500974
-210.1001164 6.413610392 -139.2500974
-9.530205359 132.9999754 153.2227926
-77.81862836 37.67739239 -139.2500974
-219.9377504 -2.460780479e-05 -43.97061639
-175.0372724 28.44300239 -145.2500974
-29.33106336 -2.460780479e-05 -119.7181924
-29.24946736 73.93733739 148.7499026
-240.8921254 37.59262139 -139.2500974
0.0002636412009 84.31945539 127.4838756
-48.54824436 52.12944139 -139.2500974
-210.8149764 67.99997539 152.3806166
0.0002636412009 92.77084839 139.8574726
0.0002636412009 53.93988539 67.54836961
-113.1865094 -2.460780479e-05 61.14437261
0.0002636412009 65.42224839 23.07543061
-176.3180444 40.99014139 -145.2500974
-208.3810084 -2.460780479e-05 79.26522361
-184.9069724 -2.460780479e-05 -47.29742339
-58.81321936 -2.460780479e-05 -122.4186314
-2.265953359 -2.460780479e-05 -37.37720039
-129.2458154 -2.460780479e-05 13.73364961
-207.9014754 -2.460780479e-05 57.77868261
-36.10160336 -2.460780479e-05 -85.36454139
-73.61195436 60.33399139 -145.2500974
-188.2230734 36.26600239 -139.2500974
-8.446648359 18.17319639 -139.2500974
0.0002636412009 46.45696239 118.3611876
-140.8689884 37.46739639 148.7499026
-199.6725764 35.49749239 -139.2500974
-127.9653484 -2.460780479e-05 0.936433614
-225.4101224 19.97120639 -139.2500974
-140.8609834 53.10679339 148.7499026
-160.9949814 -2.460780479e-05 -3.952347386
0.0002636412009 8.417551392 -53.61733439
-231.4267764 56.98289239 148.7499026
-105.0328954 -2.460780479e-05 21.13902861
-208.4437094 20.99481439 148.7499026
-84.09238436 121.9067044 150.9030436
0.0002636412009 15.68490239 -34.14442839
0.0002636412009 31.38499939 -92.59305039
0.0002636412009 32.56190539 35.83287161
-177.3500264 52.32914239 -145.2500974
-28.56024436 -2.460780479e-05 96.97657261
0.0002636412009 42.36022039 9.116634614
-200.2810524 47.08583739 -145.2500974
-4.485325359 23.39136539 -145.2500974
0.0002636412009 47.60244939 -18.69653939
-223.6246384 -2.460780479e-05 58.66473861
-164.1297274 1.453523392 148.7499026
-170.4152934 64.32984839 -139.2500974
-64.43400036 61.47968639 148.7499026
-237.4843994 -2.460780479e-05 96.06504261
-24.33075836 -2.460780479e-05 -114.1637434
-113.0721624 54.73940339 148.7499026
-94.94827436 -2.460780479e-05 -76.87355439
0.0002636412009 88.35449439 83.12326361
-67.70777836 -2.460780479e-05 138.5727756
-23.11299936 54.91176739 148.7499026
-95.27047136 -2.460780479e-05 17.99654461
-170.1639794 -1.350969608 -139.2500974
-37.81039936 -2.460780479e-05 -18.60060139
-8.024653359 45.67179439 -139.2500974
0.0002636412009 4.397640392 88.24484861
-134.2377934 -2.460780479e-05 54.13017561
-28.89989636 -2.460780479e-05 16.52343861
-139.7204094 46.51905439 148.7499026
-163.2246094 67.99997539 -143.2618584
-95.40605436 39.53388839 -145.2500974
-213.7212524 42.90608539 -139.2500974
0.0002636412009 50.48674139 -94.17075839
-76.83745236 57.77282939 148.7499026
-4.972338359 -2.460780479e-05 -97.13553439
-42.31117436 -2.460780479e-05 140.4298676
-104.6389814 38.27840539 -139.2500974
-142.9379834 -2.460780479e-05 141.6535156
-85.95391036 -2.460780479e-05 131.0727516
0.0002636412009 63.37700039 40.68800061
-179.5413454 31.58777039 -139.2500974
-229.0859534 13.02335839 -145.2500974
-32.79057436 55.17697039 -145.2500974
-36.26328736 -2.460780479e-05 43.19617161
0.0002636412009 35.80317439 70.27002661
0.0002636412009 35.61955939 81.37327161
-128.7180774 62.90187039 148.7499026
-111.8498754 -2.460780479e-05 -21.34368539
-50.24708836 -2.460780479e-05 55.17794861
0.0002636412009 70.61064139 98.25354061
-96.79665636 -2.460780479e-05 -90.14737439
-226.1800334 -2.460780479e-05 -138.0454004
0.0002636412009 60.72529739 -32.76416939
-128.1286404 -2.239168608 -139.2500974
-40.48240636 81.24081639 148.7499026
0.0002636412009 0.0308773922 -60.86848739
-162.2501484 14.55625439 -145.2500974
-245.7055974 -2.460780479e-05 32.68326761
-82.19701936 -2.460780479e-05 -39.81255239
-53.23545636 48.47793539 -139.2500974
-41.34529036 -2.460780479e-05 -66.73535839
-38.10942436 6.240184392 -139.2500974
-106.3179744 83.28916239 148.7499026
-80.29335836 -2.460780479e-05 13.81860361
0.0002636412009 22.49990439 -55.35842239
-46.59788036 102.3577844 150.7017026
0.0002636412009 48.40205439 102.8321826
-163.1749924 -2.460780479e-05 93.95577161
-67.70935936 -2.460780479e-05 -103.7440624
-224.7398244 -2.460780479e-05 39.18221361
-218.7485124 -2.460780479e-05 136.8283516
-68.21902036 -2.460780479e-05 63.39142961
-226.7861674 -2.460780479e-05 32.43656161
-168.1373894 37.21975739 148.7499026
-43.92010236 60.72175639 148.7499026
-207.1541654 -2.460780479e-05 -66.18273239
-149.4709154 -2.460780479e-05 -22.74067239
-5.179773359 74.52141739 148.7499026
-164.5153774 46.38543439 -139.2500974
-99.39850136 59.87870339 -145.2500974
