# .PCD v0.7 - Point Cloud Data file format
VERSION 0.7
FIELDS x y z
SIZE 4 4 4
TYPE F F F
COUNT 1 1 1
WIDTH 1233
HEIGHT 1
VIEWPOINT 0 0 0 1 0 0 0
POINTS 1233
DATA ascii
136.5460944 -2.460445194e-05 55.46833226
268.0038944 -2.460445194e-05 -81.75855274
109.4373444 3.095060396 52.67909826
181.5893244 -2.460445194e-05 31.30275526
90.85739444 -2.460445194e-05 -223.8289387
109.4373444 28.2524184 -63.98838574
114.4373444 27.7415614 -216.4285027
109.4373444 10.7062094 -195.3451567
34.92233444 -2.460445194e-05 -52.48031074
109.4373444 49.4109574 -78.86313874
-21.90113556 61.4241984 -22.28673274
114.4373444 35.9041384 95.45581826
109.4373444 1.803295396 -145.4371447
109.4373444 44.7776814 70.41877626
105.2994744 -2.493640604 107.1539943
109.4373444 10.9212294 92.35803526
50.78816444 24.3128694 51.68269026
30.25192444 59.4519564 30.78478926
2.488314442 -2.460445194e-05 -75.63974474
-53.10867556 -2.460445194e-05 -177.0508717
178.6919744 -2.460445194e-05 -56.91951674
109.4373444 35.4917354 54.92329226
-6.227575558 -2.460445194e-05 -28.70239874
114.4373444 22.0021214 -107.2780527
-42.37393556 57.8196944 -43.12007974
81.52433444 -2.460445194e-05 72.67646326
163.4658744 -2.460445194e-05 -191.0694447
142.8923344 -2.460445194e-05 8.424974264
176.2285644 -2.460445194e-05 48.74800226
16.56962444 -2.460445194e-05 -166.3660707
35.05168444 -2.460445194e-05 -117.0567467
74.78835444 -2.460445194e-05 -196.9680407
137.8470644 -2.460445194e-05 86.78580326
-65.23476556 -2.460445194e-05 -138.7878777
109.4814444 -2.460445194e-05 -5.250048736
83.50712444 -2.460445194e-05 -140.7346377
-35.60799556 14.1962574 -36.23498874
93.89686444 64.3605064 95.55056526
109.4373444 32.8501844 -7.121431736
141.4164244 -2.460445194e-05 -114.7515107
-10.68692556 230.7434767 -179.6667557
57.60466444 -2.460445194e-05 -218.5365307
28.63237444 -2.460445194e-05 -219.2119837
114.4373444 6.289910396 -122.6657787
97.90315444 -2.460445194e-05 92.30186326
-91.55740556 36.1001324 -93.16971774
193.2429444 -0.4178286045 -152.4023657
79.48050444 -2.460445194e-05 -13.59527374
14.32439444 48.4004474 14.57676126
61.22401444 48.2705614 62.30232326
25.87901444 -2.089172604 26.33467026
78.90931444 -2.460445194e-05 -165.6563987
90.41619444 -2.460445194e-05 -108.3975817
197.2468644 -2.460445194e-05 -9.589142736
142.9871844 -2.460445194e-05 -86.27013274
2.312654442 -2.460445194e-05 -236.4216807
257.9385444 -2.460445194e-05 -36.15697074
77.65441444 -2.460445194e-05 -233.7896277
158.8461644 -2.460445194e-05 -18.93630574
114.4373444 30.6367654 28.38715126
121.7467444 -2.460445194e-05 -36.28253774
75.89375444 32.1883884 -272.8899737
-48.48216556 -2.460445194e-05 -142.6905147
172.0789944 183.4033954 -182.8899737
131.8608844 -2.460445194e-05 -196.6357687
114.4373444 29.5198684 -40.85373374
60.36212444 -2.460445194e-05 -24.96915174
30.87781444 -2.460445194e-05 -77.74133874
145.1532144 -2.460445194e-05 -9.518419736
124.0116944 -2.460445194e-05 54.90676826
45.06634444 -2.460445194e-05 -242.6067167
40.33751444 -2.460445194e-05 -41.26511774
121.2741744 -2.460445194e-05 106.6383193
109.4373444 3.026145396 -207.8007887
70.48367444 -2.460445194e-05 -118.6478787
138.7682144 -2.460445194e-05 -184.5570007
157.9312644 -2.460445194e-05 -136.7016467
-57.54115556 52.8460014 -58.55441174
154.6615644 -2.460445194e-05 -202.0886787
-19.84574556 -2.460445194e-05 -122.8453217
-1.473695558 -2.460445194e-05 -178.6097497
109.4373444 8.792531396 -51.81621274
178.5393244 -2.460445194e-05 -7.105984736
109.4373444 26.7623024 -152.4428317
-72.53079556 39.7587954 -163.3983697
126.3589944 203.2496134 -182.8899737
63.26777444 -2.460445194e-05 -262.1709837
-87.36179556 49.9999754 -136.9461507
254.8819844 -2.460445194e-05 -49.69736374
-103.7129556 -2.460445194e-05 -122.7413847
51.51457444 67.9999754 -271.3241537
109.4373444 39.4404174 -226.4822277
113.3986344 45.6537824 117.1100263
91.87128444 237.5573102 -182.8899737
199.0020544 -2.460445194e-05 12.48241426
-96.30823556 38.8287244 -112.2144187
89.58056444 -2.460445194e-05 -82.40398874
109.4373444 33.5034824 81.12726426
74.23172444 229.1948694 -182.8899737
114.4373444 35.8638494 -243.3630327
110.4003944 -2.460445194e-05 -158.0870887
37.90861444 16.6352984 38.57631626
99.54902444 -2.460445194e-05 10.09105126
109.4373444 34.6583464 -122.9455547
97.78461444 -2.460445194e-05 -205.9220907
-97.72994556 23.0092844 -99.45096274
-31.76565556 -2.460445194e-05 -123.7088467
46.60886444 1.064868396 -272.8899737
124.1545844 55.8589544 111.1100263
72.39924444 48.8426084 -266.8899737
114.4373444 3.455238396 78.53231226
114.4373444 39.4884104 -133.5754327
-19.52750556 -2.460445194e-05 -108.1431207
10.80070444 -2.460445194e-05 -141.8156857
-23.97794556 -0.2426256045 -24.40011674
275.2023744 -2.460445194e-05 -60.33787274
-43.59427556 -2.460445194e-05 -117.9957337
-94.35870556 -0.8290606045 -96.02039474
112.7092344 49.9999754 14.62894526
81.49377444 212.6664638 -182.8899737
-82.18107556 67.9231954 -83.62826174
153.5975544 188.4268174 -178.8899737
60.39787444 15.9511954 -272.8899737
64.81299444 17.2575894 65.95450426
-81.12205556 8.257232396 -148.5171367
114.4373444 21.1681314 -239.0949007
196.2274344 -2.460445194e-05 -39.80367874
130.4736444 -2.460445194e-05 27.87424626
-9.321655558 33.5252544 -9.485717736
-60.78589556 11.9776574 -61.85629574
-7.825605558 -2.460445194e-05 -81.90473474
53.76631444 194.3874394 -178.8899737
114.4373444 32.9683914 -19.18120574
114.4373444 23.0301504 -194.4953347
113.5962144 172.1713094 -178.8899737
116.8512844 195.4765674 -182.8899737
39.43498444 223.5993881 -182.8899737
144.0739544 -2.460445194e-05 -143.3245897
73.54882444 -2.460445194e-05 -223.0316867
121.1452244 -2.460445194e-05 -167.6076557
5.505954442 -2.460445194e-05 -169.4542737
88.81383444 -2.460445194e-05 17.73327126
178.0387744 -2.460445194e-05 15.61222526
-69.77786556 -2.460445194e-05 -78.99418974
70.27914444 35.0530474 71.51692026
0.09655444227 -2.460445194e-05 -107.0084787
109.4373444 8.829728396 -24.29145474
51.67806444 -2.460445194e-05 -228.3399097
-16.62764556 -2.460445194e-05 -146.9418537
-31.14092556 41.6885294 -31.68924674
6.935244442 27.7485364 7.057472264
44.11571444 58.9222344 -272.8899737
80.47225444 54.0948324 81.88953726
148.6561144 -2.460445194e-05 48.57139526
-20.83681556 251.7821881 -182.8899737
242.8738944 -2.460445194e-05 -29.58310574
148.6916044 132.8599014 -178.8899737
20.94959444 23.6109404 21.31863026
-74.71715556 -2.460445194e-05 -90.05455174
88.06137444 -2.460445194e-05 -65.07203874
-72.90732556 67.9999754 -72.92316674
-88.53601556 -2.460445194e-05 -141.6412607
113.5644644 -2.460445194e-05 12.42491026
-23.34767556 -2.460445194e-05 -67.47200574
-56.87745556 37.2926244 -57.87902574
155.0462944 -2.460445194e-05 -159.7717227
109.4373444 22.7893904 43.50367926
103.7304844 210.5243854 -178.8899737
161.4943344 151.9691554 -182.8899737
7.951874442 -2.460445194e-05 -27.46304374
-80.80145556 46.5872794 -82.22434574
-33.13561556 -2.460445194e-05 -88.87006174
52.56241444 -2.460445194e-05 -164.9360087
-59.05861556 -2.460445194e-05 -116.3238697
71.34241444 58.4954994 -272.8899737
137.2802844 -2.460445194e-05 -1.639830736
78.08967444 13.1300664 79.46499826
88.98078444 -2.460445194e-05 -256.6103807
112.7202544 60.4916674 111.1100263
118.8221144 -2.460445194e-05 44.71275226
-5.499955558 -2.460445194e-05 -124.4298437
60.27397444 -2.460445194e-05 -192.2219277
109.4373444 21.8706204 67.99027726
170.6350044 -2.460445194e-05 34.07789326
109.4373444 12.6873234 -132.4532207
68.38447444 -2.460445194e-05 31.09847326
-75.71143556 -2.460445194e-05 -132.3503097
40.55155444 211.5728974 -178.8899737
-90.03182556 26.5096584 -133.0850477
47.01601444 34.5584564 -266.8899737
-93.51905556 64.0669814 -95.16591174
-69.36974556 31.0523834 -70.59131274
129.6536744 -2.460445194e-05 -174.5518137
109.2304144 -2.460445194e-05 -71.47987574
3.202634442 -2.460445194e-05 -88.16523974
51.04584444 -2.460445194e-05 3.172387264
54.21409444 -2.460445194e-05 -127.2895197
64.36604444 -2.460445194e-05 50.95628726
-100.5702556 37.6869844 -102.1995647
97.14103444 -2.460445194e-05 29.73068226
21.43521444 37.9039994 21.81280026
-94.35165556 49.9999754 -116.7215687
218.5805744 -2.460445194e-05 8.731734264
147.1923044 -2.460445194e-05 -24.88190674
113.5621144 8.206368396 111.1100263
47.28129444 -1.908327604 48.11383226
-49.93713556 56.0992714 -50.81647174
52.43380444 230.2124763 -178.8899737
-66.01755556 -1.204189604 -67.18008774
132.3740344 -2.460445194e-05 11.03643026
-91.57387556 7.465920396 -130.4141107
-8.004175558 -2.460445194e-05 -16.80672074
46.08840444 -2.460445194e-05 -110.7304007
131.7384844 -2.460445194e-05 -124.2270987
122.5596944 -2.460445194e-05 -25.54550774
114.4373444 12.0375164 -176.4311247
66.90638444 243.83544 -182.8899737
99.90639444 -2.460445194e-05 -13.95933874
37.95159444 -2.460445194e-05 22.14631326
114.4373444 13.2657444 13.35736026
-28.35319556 54.1684434 -28.85241974
82.06104444 38.7514794 -266.8899737
-7.010155558 -2.460445194e-05 -151.6283757
69.19635444 52.2694504 70.41505826
114.9373444 -1.932201604 -90.81513074
149.3699744 166.1183674 -182.8899737
104.9581344 -2.460445194e-05 -47.81837474
-19.01778556 -2.460445194e-05 -199.5363927
34.99652444 -2.460445194e-05 -92.51308174
147.9155644 -2.460445194e-05 81.91909026
159.2897444 -2.460445194e-05 30.58907326
114.4373444 36.3587364 13.71170826
132.2678844 153.6888424 -178.8899737
16.98115444 225.4514847 -182.8899737
187.4021344 -2.460445194e-05 -13.30469374
77.65093444 35.2121434 79.01853626
227.1178344 -2.460445194e-05 -3.440829736
112.4473444 49.9999754 28.59253826
78.36313444 187.5072134 -182.8899737
42.42832444 -2.460445194e-05 -145.8165127
109.4373444 10.9326924 -248.4454927
69.88382444 -2.460445194e-05 -240.8352307
55.24080444 5.635746396 -266.8899737
-73.52830556 15.5799604 -151.6697937
84.38523444 55.9355094 -266.8899737
27.65373444 -2.460445194e-05 -106.8157677
33.76133444 -2.216438604 -266.8899737
-92.81896556 11.6195214 -118.2572167
32.91974444 -2.460445194e-05 -128.3439107
10.46158444 -2.460445194e-05 -4.782163736
26.85242444 -2.460445194e-05 -59.02170774
-44.07277556 67.9999754 -44.26189974
176.9184344 132.7641404 -178.8899737
-27.34444556 -2.460445194e-05 -42.51163774
116.4314844 -2.460445194e-05 -49.47528974
80.10903444 23.7541614 -266.8899737
91.11792444 -2.460445194e-05 49.31500026
62.45202444 -2.460445194e-05 -67.44442274
32.38739444 -2.460445194e-05 -23.25483474
85.08363444 -2.460445194e-05 -247.0333137
59.00306444 -2.460445194e-05 14.90126126
19.83445444 215.5184626 -182.8899737
149.7635644 155.3504504 -182.8899737
114.4373444 9.985781396 -150.9415897
-40.55263556 -2.460445194e-05 -103.7311397
-97.02181556 46.9882804 -98.73035774
109.4373444 24.9313954 -31.97496574
134.4703944 -2.460445194e-05 -61.95681774
109.4373444 38.3965424 -65.59179674
109.4373444 1.197421396 -245.0841337
72.04571444 -2.441422604 -266.8899737
-8.898945558 -2.460445194e-05 -43.32160574
109.4373444 18.6853154 -229.7556217
105.6524744 -2.460445194e-05 64.93869626
126.8874344 -2.460445194e-05 90.58209626
89.81415444 202.0630304 -178.8899737
187.2273144 -1.365183604 -83.18163674
36.44601444 -2.460445194e-05 -0.3682887363
25.74539444 -2.460445194e-05 -175.5853907
114.4300244 27.4128174 117.1100263
67.56930444 201.5400824 -182.8899737
109.4373444 37.1763434 -45.22614874
-36.82163556 -2.460445194e-05 -158.6876407
97.95848444 -2.460445194e-05 -152.8470957
90.05053444 8.235666396 -266.8899737
13.92431444 -2.460445194e-05 -124.8321927
151.2915244 -2.460445194e-05 2.476679264
167.7431244 -2.460445194e-05 -98.43315174
-75.44468556 -1.000024604 -156.8784057
94.80873444 -2.460445194e-05 70.15336626
-6.483395558 67.9009384 -6.597476736
-72.84599556 -2.460445194e-05 -103.1533587
114.4373444 41.8028684 -102.0927047
100.3220544 47.3061844 102.0889123
153.6693544 -2.460445194e-05 -66.27846274
114.4906144 -2.460445194e-05 -114.5517117
-19.61737556 33.6053844 -19.96275774
-97.85964556 -2.460445194e-05 -110.7245047
61.48556444 -2.460445194e-05 -155.5086977
-54.89062556 -2.460445194e-05 -163.4166037
133.6268844 -2.460445194e-05 -82.04525674
188.8244644 -2.460445194e-05 -58.95233074
72.69244444 -2.460445194e-05 -65.70405674
149.4234844 -2.460445194e-05 -177.2960807
114.4373444 8.774462396 -12.33949274
90.18895444 182.2353744 -178.8899737
71.32346444 -2.460445194e-05 -81.22863174
165.9600044 -2.460445194e-05 -82.38985274
-70.86127556 54.0946174 -72.10910474
114.4373444 25.9146214 -121.7840247
122.4974144 -2.460445194e-05 -15.54146374
-18.27829556 53.0546784 -18.60010074
37.77801444 234.9126498 -178.8899737
-21.21404556 -2.460445194e-05 -181.4269047
109.4373444 41.1552034 103.6219203
200.3881344 -2.460445194e-05 22.51540326
73.32449444 178.9314624 -182.8899737
-64.16225556 37.9030444 -65.29211574
-2.100175558 -2.460445194e-05 -190.6618767
23.45856444 58.0205714 23.87178326
144.8148244 190.0761374 -182.8899737
140.1531544 169.3956454 -182.8899737
49.65860444 13.4914504 50.53323426
-86.57527556 13.7623894 -88.09984274
-33.49978556 25.4859264 -34.08965274
8.678654442 242.270302 -178.8899737
-76.98149556 -2.460445194e-05 -122.6595007
109.4373444 26.0184664 -142.6981427
114.4373444 12.7763734 66.71272926
109.4373444 13.9152934 -105.0451667
19.69314444 -2.460445194e-05 -250.6127467
114.4373444 23.6212044 -93.20946074
-16.30294556 -2.460445194e-05 -95.35420574
141.2823944 149.6287044 -182.8899737
-44.62118556 -2.460445194e-05 -57.35330974
109.4373444 38.2354404 -84.82751574
55.82647444 239.3947189 -182.8899737
257.1861444 -2.460445194e-05 -62.45163674
119.0969544 -2.460445194e-05 -139.9610657
70.42945444 -2.460445194e-05 -212.8318287
113.0953444 -2.460445194e-05 -27.74469074
114.4373444 9.093839396 -75.54131174
152.6871144 -2.460445194e-05 -47.02264574
89.87016444 8.162743396 91.45295426
-97.17011556 23.0049914 -120.7209317
-24.55118556 9.421389396 -24.98346074
44.87150444 47.5840234 -266.8899737
6.381844442 57.9886414 6.494335264
-106.3740256 18.3409694 -104.9997957
134.1740144 -2.460445194e-05 -108.3252867
109.4373444 49.8160254 47.47478326
195.7484144 -2.460445194e-05 35.45510526
168.1048144 125.8874344 -178.8899737
109.4373444 17.0960884 -216.1537427
127.3634244 214.2947437 -178.8899737
109.4373444 31.5306034 102.4967353
37.23717444 -2.460445194e-05 -156.2009877
0.1954744423 224.0176856 -182.1675407
114.4373444 39.7956164 -114.7155197
51.12898444 17.5823454 -266.8899737
128.1264744 144.9508134 -178.9472097
109.4373444 17.8189474 -60.88280774
109.4373444 0.2913613955 -225.4712067
51.28650444 36.4612384 52.18980526
-65.95247556 14.3135974 -164.7915717
94.11199444 222.1428272 -178.8899737
178.6514444 -2.460445194e-05 58.05523626
-31.82504556 251.5891507 -178.8899737
109.4373444 43.1797844 -3.655235736
144.6170544 -2.460445194e-05 -34.12862674
64.47837444 223.0008641 -178.8899737
83.30857444 -2.460445194e-05 -174.1659107
109.4373444 44.1627394 -175.9395787
99.80833444 -2.460445194e-05 -227.1802507
9.127964442 -2.460445194e-05 -111.5807737
122.8927244 -2.460445194e-05 -103.5385247
234.6704444 -2.460445194e-05 -34.45055374
-34.64539556 -2.460445194e-05 -134.1307597
114.4373444 0.4245563955 -235.2468887
114.4373444 42.1305254 62.76296626
114.4373444 11.3318094 -187.2894227
74.55677444 -2.460445194e-05 -137.5258287
114.4373444 42.6397674 -74.09382274
24.27435444 -2.460445194e-05 -84.63625274
109.4373444 41.1124644 31.65636426
26.65706444 -2.460445194e-05 -47.23465274
58.00841444 215.4704872 -178.8899737
114.4373444 27.7350884 52.80192526
126.6876444 -2.460445194e-05 -44.35759774
112.6054744 -2.460445194e-05 -216.1611777
66.56374444 26.3585494 67.73608626
-48.14524556 -2.460445194e-05 -186.2410257
25.66484444 234.7427606 -178.8899737
109.4373444 22.9763144 -172.0976187
111.6556044 -2.460445194e-05 -191.3676597
108.0319144 192.2690914 -182.8899737
181.4011444 -2.460445194e-05 -21.42380274
109.0779044 -2.460445194e-05 85.72004226
92.29930444 -2.460445194e-05 -191.4287697
173.5219244 -2.460445194e-05 -149.3071947
64.53545444 39.5751294 65.67208126
109.4373444 25.1163674 34.43959426
-52.96538556 -2.460445194e-05 -93.98073174
169.5306044 -2.460445194e-05 -125.0342647
126.3499144 191.1753874 -178.8899737
109.4373444 6.962363396 -169.3963067
109.4373444 29.2186204 -82.42371474
56.31726444 -2.460445194e-05 -14.75644974
101.8218344 174.6527144 -182.8899737
87.10275444 18.8731854 88.63680826
109.4373444 38.6139164 -168.4986777
109.4373444 38.6694214 5.339033264
167.5706244 171.9297964 -182.8899737
51.22165444 246.3766837 -178.8899737
114.4373444 22.7376374 76.32565626
109.4373444 25.5065244 -1.471188736
175.9797744 -2.460445194e-05 -105.0555707
114.4373444 49.9477124 -53.49340974
114.4373444 8.735765396 30.64342826
-3.295735558 -2.460445194e-05 -207.3334067
114.4373444 22.8692504 -164.3397497
70.03935444 -2.460445194e-05 -188.1802487
131.1003044 -2.460445194e-05 -208.0492657
114.4373444 49.4131554 -195.1820967
21.48707444 -2.460445194e-05 -158.5756737
151.5551844 -2.460445194e-05 -168.2966727
-83.96071556 42.1232884 -133.6012437
109.6868244 49.9999754 -128.4757507
-27.23314556 -2.460445194e-05 -58.47720274
75.76809444 67.3758484 -272.8899737
-6.767045558 240.8481939 -182.8899737
114.4373444 17.2164414 5.062707264
48.24005444 -2.460445194e-05 -94.77850374
37.63679444 -2.460445194e-05 -193.7564287
40.38841444 -1.235748604 41.09957726
38.40401444 243.2627648 -182.8899737
-76.47797556 40.0779934 -146.5617407
91.67410444 -2.460445194e-05 -128.1989617
109.4373444 28.2842814 -208.7764727
106.5133144 -2.460445194e-05 95.40957226
64.92161444 55.9706764 -266.8899737
109.4373444 10.4553484 -85.67621574
-64.04132556 19.9705114 -65.16905774
109.4373444 43.5313814 91.95078926
109.4373444 49.0938974 -19.76754674
77.37558444 -2.460445194e-05 -36.74590174
-46.12836556 -2.460445194e-05 -67.38351174
-14.38757556 39.9652014 -14.64085774
77.25470444 -2.460445194e-05 27.43495126
-70.10454556 46.4861894 -157.6008947
13.63297444 -2.460445194e-05 -62.51031274
18.65488444 -2.460445194e-05 -33.85634474
187.0643244 -2.460445194e-05 -47.76390574
-53.18105556 -2.460445194e-05 -82.89739374
-84.77769556 -2.460445194e-05 -132.2445517
62.50794444 3.562427396 63.60886226
-29.96571556 -2.460445194e-05 -179.1414887
-78.68684556 7.815356396 -80.07248974
-57.23224556 -2.460445194e-05 -65.52380874
-42.61924556 34.3497734 -43.36971274
35.80433444 -2.460445194e-05 -33.46958174
109.4373444 24.1042694 -16.15614074
26.36273444 -2.460445194e-05 -197.5279557
270.8530844 -2.460445194e-05 -73.01343774
-73.96596556 29.3405584 -160.9122437
89.23115444 -2.460445194e-05 77.28953826
59.20320444 -2.460445194e-05 -5.423351736
-60.95068556 12.3342684 -173.4550287
114.4373444 41.1988314 -189.0988057
141.4559444 203.7281294 -182.8899737
114.4373444 7.935025396 -32.31079074
95.43807444 -2.460445194e-05 -89.15791374
97.63872444 57.2231564 99.35833026
18.66137444 242.9467274 -182.8899737
127.9258944 -2.460445194e-05 -220.3101647
114.4373444 5.915584396 -58.57629674
114.4373444 33.9783424 -204.1449517
109.4373444 16.8797944 22.01943926
150.0251444 -2.460445194e-05 -112.5914817
114.4373444 20.7204684 -133.6341367
-11.60614556 251.3233277 -178.8899737
110.8286544 -2.460445194e-05 3.502818264
114.4373444 42.7800494 -36.89352674
114.1234144 10.8091234 99.83938826
-21.97026556 237.7170702 -180.5721447
70.45776444 15.5108374 -272.8899737
122.4264544 -2.460445194e-05 31.45088726
48.32649444 210.5455974 -182.8899737
9.293994442 -2.460445194e-05 -204.9692237
114.4373444 28.4035504 -113.3452097
114.4373444 47.4725844 77.22910326
6.091884442 -2.460445194e-05 -228.4799377
58.02731444 -2.460445194e-05 -51.26771974
47.42287444 -2.460445194e-05 -51.93571374
37.20361444 25.3663244 37.85890226
-0.8949255577 12.5416294 -0.9105937363
-9.278705558 59.1102104 -9.442017736
85.16890444 -2.460445194e-05 -42.72593674
-0.04278555773 -1.175543604 -0.04344473626
157.8113244 -2.460445194e-05 51.37035826
74.26098444 42.7672254 -272.8899737
-21.40684556 -2.460445194e-05 -172.0862927
17.37370444 -2.460445194e-05 -211.6922677
36.50273444 7.563200396 37.14567826
57.51605444 -2.460445194e-05 -107.4344017
42.94221444 21.5472254 43.69856626
109.4373444 10.7219264 -113.1119757
62.73064444 -2.460445194e-05 -137.7116277
113.3624644 -2.460445194e-05 103.1171133
18.00258444 -2.460445194e-05 -238.6150527
62.48562444 -2.460445194e-05 -100.3418197
109.4373444 3.424950396 41.33313126
-77.56036556 24.5200894 -154.6863337
30.56940444 67.9999754 32.08265926
86.77567444 -2.176059604 88.30396526
170.4580244 -2.460445194e-05 -173.0692987
36.10393444 -2.460445194e-05 -176.7823377
89.90911444 52.5499104 91.49258926
-81.10224556 31.2791574 -148.5518437
40.01589444 38.2369274 40.72070326
114.4373444 8.710424396 -41.75896174
109.7637044 216.6734507 -178.8899737
114.4373444 26.8200964 -183.7990007
9.451964442 -2.460445194e-05 -70.58398074
34.27972444 215.877162 -182.8899737
114.4373444 4.675091396 -96.75838674
58.75031444 66.6644684 -266.8899737
-65.00395556 56.0833814 -66.14863874
163.6370344 -2.460445194e-05 -27.27562774
109.4373444 35.3465244 -154.8700917
100.7976944 230.7297284 -182.8899737
108.6449844 67.9999754 110.4826943
266.6466444 -2.460445194e-05 -60.44781874
3.192024442 -2.460445194e-05 -159.1337327
114.4373444 43.8125464 -158.4623327
109.4373444 40.4578244 42.64657026
-81.30417556 28.2399064 -138.2019867
114.4373444 9.637615396 -205.7981047
-70.74366556 -1.000024604 -163.9915337
-10.29686556 9.118126396 -10.47810974
80.51265444 -2.460445194e-05 -259.9633527
81.96673444 -2.460445194e-05 -221.7741997
88.09514444 -2.460445194e-05 37.22798226
150.7088744 -2.460445194e-05 -125.2588347
52.50579444 11.0054294 -272.8899737
101.1636744 -2.460445194e-05 -37.19221474
130.9573844 -2.460445194e-05 -158.5291267
82.78746444 -2.460445194e-05 50.80955926
109.9069744 48.8805854 110.1100263
-36.23463556 -2.460445194e-05 -192.1786587
-56.77713556 -2.460445194e-05 -132.5056927
109.4373444 7.039879396 70.41007526
29.63550444 -2.460445194e-05 -244.3886237
109.4373444 22.7049154 -40.78804874
34.68726444 53.0681824 35.29823326
-29.89845556 32.1874024 -30.42489874
-16.80674556 -2.460445194e-05 -132.4716717
114.4373444 22.4299484 -72.50680074
117.7356544 -2.460445194e-05 -82.04867774
109.4373444 25.0789794 60.13533326
135.0718944 -2.460445194e-05 -53.55585174
-60.85000556 -2.460445194e-05 -79.42097374
109.4373444 15.9734824 -45.88361874
16.75619444 -2.460445194e-05 2.214875264
42.78865444 41.8213184 -272.8899737
94.47376444 -2.460445194e-05 -7.560848736
103.4518344 -2.460445194e-05 -124.7588927
109.4373444 8.011329396 59.47900326
114.4373444 39.5440684 84.09563726
179.0010244 -2.460445194e-05 -163.4468577
109.4373444 32.1386654 -51.92512474
114.4373444 28.0457484 -100.3244907
99.42903444 -2.394942604 101.1798843
84.19342444 6.399353396 -272.8899737
136.5973544 -2.460445194e-05 -40.55093374
-79.17934556 26.8487284 -80.57366474
51.82202444 -2.460445194e-05 -181.1348097
42.86405444 -2.460445194e-05 -26.13489674
35.43616444 -2.460445194e-05 -211.7174257
64.33922444 194.9357354 -178.8899737
-82.28097556 -2.460445194e-05 -116.1993857
234.3133444 -2.460445194e-05 -21.00012874
109.5288044 49.9999754 -99.53104874
78.24777444 -2.460445194e-05 -97.60810074
47.81922444 54.6036144 48.66145926
114.4373444 20.2078384 -153.5471257
60.97054444 32.3379084 -266.8899737
146.7107944 -2.460445194e-05 -78.85002374
64.84161444 211.7144884 -182.8899737
114.4373444 30.0058314 -168.7365567
109.4373444 38.5135634 -234.7145367
186.5022544 -2.460445194e-05 -4.835418736
94.89404444 -2.460445194e-05 -98.72723974
114.4373444 6.728669396 -1.302736736
74.43844444 55.8076564 75.74947026
-20.59883556 -2.460445194e-05 -213.5743637
83.50160444 -2.460445194e-05 -58.17565974
-37.34549556 50.9875394 -38.00308574
229.3301744 -2.460445194e-05 -11.39159274
-84.79465556 52.7221114 -86.28786674
-79.07290556 46.4923854 -142.0672537
131.9383144 168.7413104 -182.8899737
152.2401144 180.3053134 -178.8899737
-87.57557556 14.1959714 -137.3389347
114.4373444 13.7069064 -19.93761774
89.41347444 173.2939134 -178.8899737
114.4373444 11.7619604 82.64729826
21.86318444 251.5230357 -178.8899737
173.0582444 -2.460445194e-05 -86.50504874
167.1155144 -2.460445194e-05 -4.572153736
80.77977444 -2.460445194e-05 -82.24480874
109.4373444 43.9145764 -200.2843617
114.4373444 -1.231423604 -65.28443374
-96.78598556 -2.460445194e-05 -127.0997147
45.91539444 6.583506396 -266.8899737
190.4326344 -2.417645604 -144.2973917
114.4373444 41.8274684 -220.3549167
-99.50764556 -2.460445194e-05 -102.6573717
145.0694144 141.8227964 -178.8899737
-97.52970556 40.5615754 -120.0987837
-14.49992556 -2.460445194e-05 -162.7255787
157.9479744 195.0892004 -182.8899737
121.9067344 36.4729084 111.1100263
83.60132444 -2.460445194e-05 -103.7634187
-105.1028256 59.0063384 -104.7546107
144.8110344 -2.460445194e-05 64.60823326
32.74163444 203.9027564 -181.2119647
65.09600444 65.9658874 66.24249726
109.4373444 38.1428764 -14.36228374
2.394584442 -2.460445194e-05 -121.0404687
79.61662444 25.3262894 81.01884126
102.7504944 164.9318314 -178.8899737
128.8442944 -2.460445194e-05 -67.82465574
241.1504344 -2.460445194e-05 -4.429287736
8.265514442 5.018655396 8.411171264
225.0283644 -2.460445194e-05 -29.60443374
-89.55828556 36.2553644 -133.9056277
-59.27107556 44.6527704 -60.31479474
-88.30079556 6.031235396 -89.85575274
63.52442444 6.589150396 -266.8899737
25.26896444 -2.460445194e-05 13.14282126
135.2345244 -2.460445194e-05 63.43540626
109.4373444 18.3130724 86.41722426
210.0905544 -2.460445194e-05 -10.10824074
73.06253444 -2.460445194e-05 -8.526815736
63.97584444 -2.460445194e-05 -250.0605987
79.75889444 -1.629878604 -272.8899737
109.4373444 8.837202396 -141.5138037
132.0746544 161.7598134 -178.8899737
110.5731944 -2.460445194e-05 -173.2611917
114.4373444 1.808289396 26.05821326
155.3687644 170.8013144 -178.8899737
201.3393944 -1.114424604 -46.21392574
116.6266044 17.4587084 117.1100263
85.99216444 -2.460445194e-05 -8.937581736
58.55831444 40.3234504 -272.8899737
155.9862144 -2.460445194e-05 -193.9178057
29.84710444 33.1995054 30.37283626
-42.57812556 -0.3024746045 -43.32786874
78.08724444 2.438525396 79.46252526
114.4373444 21.7970704 -84.47275074
53.39685444 53.9553384 54.33732126
144.5840144 -2.460445194e-05 -192.0222467
81.72057444 234.2071731 -178.8899737
69.04391444 60.3266854 70.25993726
48.67291444 -2.460445194e-05 -251.0854227
109.4373444 24.1763204 10.06776126
109.4373444 21.0669164 -126.6275307
-39.61408556 8.357899396 -40.31162974
-6.457035558 26.5649784 -6.570651736
34.32238444 248.8030831 -178.8899737
17.81072444 -2.460445194e-05 -176.1501277
83.54596444 204.8887674 -182.8899737
-92.24003556 21.6474394 -93.86436974
99.81518444 -2.460445194e-05 -57.95407474
21.85351444 3.386295396 22.23847126
162.8266744 -2.460445194e-05 69.39554126
72.97626444 237.0146181 -182.8899737
106.3137444 -2.460445194e-05 -201.1902777
114.4373444 5.374018396 -163.4742347
29.40919444 -2.460445194e-05 -141.4041917
67.68387444 -2.460445194e-05 -21.99514374
47.55885444 -2.460445194e-05 -38.07881174
114.4373444 25.1089664 -58.75222174
-74.30900556 45.6008304 -75.61755474
166.9675244 -2.460445194e-05 -108.0952877
110.2493544 180.3020934 -182.8899737
7.599064442 -2.460445194e-05 -44.63159674
157.3644044 -2.460445194e-05 -102.5696817
34.55010444 -2.460445194e-05 -184.6787927
109.4373444 49.5208174 64.13739526
0.06717444227 39.3233844 0.06845926374
76.05023444 -2.460445194e-05 -109.5317717
45.71355444 226.0513375 -178.8899737
151.2050844 -2.460445194e-05 25.71058326
114.4373444 32.5472784 60.18482526
42.03817444 -2.460445194e-05 -69.52155274
109.4373444 13.8795504 38.72362126
101.7560844 -2.460445194e-05 -82.27004274
-49.50412556 22.7351974 -50.37584374
-11.43901556 -2.460445194e-05 -101.4756457
75.37239444 204.4231954 -178.8899737
160.9799844 -2.460445194e-05 -55.78471974
170.5227844 -2.460445194e-05 -156.5151647
17.47874444 66.9305584 17.78665526
-50.90612556 -2.460445194e-05 -120.7123657
33.87569444 -2.460445194e-05 -225.2316517
-19.66404556 -2.460445194e-05 -88.32210274
65.03408444 -2.460445194e-05 -198.3894967
184.6962044 -2.460445194e-05 -113.2407847
100.0730944 -2.460445194e-05 -161.1149037
109.4373444 17.3097314 49.03657926
157.0479244 134.8305604 -178.8899737
26.57095444 -2.460445194e-05 -229.3451907
170.3370344 -2.460445194e-05 14.51580026
114.4373444 27.6599454 97.97817926
84.08789444 192.7347134 -178.8899737
114.4373444 44.2502704 -147.7419757
128.6768444 -2.460445194e-05 -4.998060736
150.6460144 -2.460445194e-05 -55.75577374
-97.19064556 6.504560396 -98.90216174
70.72575444 -2.460445194e-05 -32.80446074
112.9263144 224.8795713 -179.9864597
138.6938444 -2.460445194e-05 -19.64935674
-15.53556556 -1.400812604 -15.80920974
114.7426844 -2.460445194e-05 -150.7537247
109.4373444 45.3422094 -241.2159197
201.8573144 -2.460445194e-05 -30.94881974
109.4373444 14.6796454 -169.5321267
175.3449944 -2.460445194e-05 -68.67533874
109.4373444 22.2259714 -221.9099317
42.94240444 -2.460445194e-05 -60.15728674
83.98452444 -2.460445194e-05 -22.79589574
114.4373444 7.678716396 -135.5002477
166.9011044 -2.460445194e-05 -34.25439074
114.4373444 37.7305304 75.68025926
-60.31751556 29.4976664 -174.5522647
109.4373444 32.8612184 -219.2533087
59.00142444 19.1853944 60.04058926
93.94981444 -2.460445194e-05 -174.7297927
177.5467744 -2.460445194e-05 -137.7313287
43.78353444 -2.460445194e-05 29.99632626
32.41951444 -2.460445194e-05 -85.27887074
109.4373444 29.3096854 -200.6568247
-86.22105556 37.0599934 -87.73938674
118.6833244 213.3382973 -182.8899737
109.4373444 44.1835174 -90.98835074
109.4373444 48.9856984 -9.944832736
23.37570444 -2.460445194e-05 -2.459178736
110.0583444 49.9999754 -35.43333174
67.07667444 -2.460445194e-05 -2.806571736
-67.46918556 33.1720114 -162.1652617
86.74955444 -2.460445194e-05 -230.2724647
109.4373444 13.2171274 -4.119268736
126.0253544 -2.460445194e-05 98.17237726
163.0137544 -2.460445194e-05 -11.01083174
189.5098344 -2.460445194e-05 9.634992264
-38.44656556 67.5827664 -39.12354974
136.0812944 186.5904254 -178.8899737
5.315574442 228.6224266 -178.8899737
-102.9860456 11.6066724 -103.8571627
85.49557444 -2.460445194e-05 -187.9896657
85.16051444 221.1971411 -182.8899737
-37.00580556 -2.460445194e-05 -57.67282074
114.4373444 7.732709396 -217.3521817
124.3998744 26.1760724 111.1100263
137.4676344 -2.460445194e-05 43.75286726
56.46120444 223.7721186 -178.8899737
163.0377344 145.0523314 -178.8899737
-109.3259356 -2.460445194e-05 -114.7714077
55.77184444 -2.460445194e-05 -258.0082277
121.3876944 158.9254474 -182.8899737
141.4866244 -2.460445194e-05 -176.7039367
-24.65884556 -2.460445194e-05 -147.2364297
-11.82934556 -2.460445194e-05 -88.33797674
11.18499444 21.4754004 11.38206626
114.0392644 15.6976114 110.1100263
55.51378444 45.4308154 56.49152426
-16.54951556 -2.460445194e-05 -45.56561474
113.4950244 -2.460445194e-05 -126.7347107
10.90748444 67.5093824 11.09967526
43.99146444 47.4517294 44.76628826
-11.28707556 -2.460445194e-05 -202.2442827
16.51978444 -2.460445194e-05 -89.03917774
84.10933444 31.7285604 -272.8899737
-20.16489556 26.1091044 -20.51991774
80.15191444 -2.460445194e-05 43.75275326
54.46625444 -2.460445194e-05 -73.50083374
82.24381444 -2.460445194e-05 -148.1480507
169.4500044 -2.460445194e-05 57.00286826
207.3866744 -2.460445194e-05 25.23672126
191.5693244 -1.153805604 -65.83582874
38.30641444 43.6482694 -266.8899737
25.99395444 -2.460445194e-05 -206.7124027
83.39077444 240.3073116 -182.8899737
176.0878144 125.3329404 -178.8899737
120.2583544 -2.460445194e-05 -96.34813774
79.79986444 65.8695494 81.20530726
44.04219444 67.7302864 -272.8899737
56.98960444 66.4041334 57.99334326
27.49074444 53.1298454 27.97498126
82.12735444 -2.460445194e-05 -131.0097317
149.8864744 173.8598294 -182.8899737
165.0222444 131.6340834 -182.8899737
48.41858444 201.7626034 -182.8899737
-52.59516556 -2.460445194e-05 -152.6863427
-45.85630556 42.5828714 -46.66377574
-79.75611556 -2.460445194e-05 -97.39704574
-8.076255558 42.5041784 -8.218388736
109.4373444 35.6524954 -189.8468067
-98.71582556 16.0995674 -118.0433867
109.4373444 26.3232194 -237.3029317
49.64358444 62.3787304 -266.8899737
18.68974444 -2.460445194e-05 9.757746264
114.4373444 20.7142164 14.76014626
-87.52172556 39.1767174 -127.4332287
204.6402344 -2.460445194e-05 7.712262264
-25.43533556 -2.460445194e-05 -33.51339274
114.4373444 38.8220964 -180.8353417
88.76098444 41.8294934 -266.8899737
109.4373444 29.5901274 -23.41209874
114.4373444 45.8319254 20.45524326
114.4373444 30.1439904 -30.56201374
114.4373444 33.0684934 -68.35237874
265.1874944 -2.460445194e-05 -34.93009374
109.4373444 17.7325524 -200.3281677
95.14548444 -2.460445194e-05 -198.2043897
51.05714444 -2.460445194e-05 -172.1245647
-66.11530556 -2.460445194e-05 -106.0837887
3.218474442 -2.460445194e-05 -6.512438736
-94.36049556 56.8275634 -96.02217274
109.4373444 35.0185424 -140.9289757
-96.11227556 6.671241396 -122.5532647
-74.12522556 7.700154396 -150.6361527
76.20856444 -2.460445194e-05 -123.2265457
-98.03931556 22.6942734 -109.2157107
114.4373444 16.4612954 -114.2037937
139.2638744 -2.460445194e-05 -137.8103907
-16.89801556 -2.460445194e-05 -62.27608574
150.9893344 138.5393544 -182.8899737
109.4373444 13.7994704 -237.0901257
109.4373444 44.0202354 -28.83456974
109.4373444 48.2237914 -115.8493047
112.5906244 154.5526394 -182.6828017
57.85200444 -2.460445194e-05 -39.88484974
17.51351444 -2.460445194e-05 -104.8622617
122.0362044 184.3710914 -182.8899737
-54.36833556 24.9706804 -55.32570974
54.94412444 -2.460445194e-05 46.66928226
-35.47516556 -2.460445194e-05 -95.77186174
-70.50099556 38.1587524 -71.74248674
115.6459144 23.0974244 111.1100263
-2.299885558 -2.460445194e-05 -63.59738374
97.96580444 -2.460445194e-05 -184.0758827
101.0723544 -2.460445194e-05 54.64404526
-38.32791556 -2.460445194e-05 -126.8580197
168.7077944 160.5417204 -182.8899737
149.3506644 -2.460445194e-05 -40.55935874
-10.83750556 -2.460445194e-05 -182.8035607
-3.495375558 230.0302601 -178.8899737
114.4373444 6.070025396 90.29938426
-63.76993556 21.5896384 -168.5721447
114.4373444 44.1895684 2.692165264
72.18877444 248.7851627 -182.8899737
133.9864844 -2.460445194e-05 -150.1703437
215.7599344 -2.460445194e-05 -20.04834874
13.67224444 -2.460445194e-05 -135.1971357
166.5967444 -2.460445194e-05 44.91196026
-16.87498556 62.0513194 -17.17206774
109.4373444 10.3079074 50.69933426
6.807914442 247.9516181 -182.8899737
77.97132444 15.0063554 -272.8899737
65.28324444 10.1004964 -272.8899737
27.31541444 218.6042011 -178.8899737
-103.1957056 33.8795754 -110.2847817
106.7131944 -2.460445194e-05 10.03398026
73.15763444 223.3519698 -178.8899737
59.06723444 230.1655946 -182.8899737
110.6883644 -2.460445194e-05 70.71486426
117.3173344 53.7658734 111.1100263
114.4373444 17.9259224 -29.16112374
-89.00018556 3.760682396 -124.8719717
126.2689744 173.0915614 -182.8899737
91.07827444 -2.460445194e-05 -71.54967474
-85.54779556 20.0731714 -140.8514097
58.58929444 -2.460445194e-05 32.94757326
109.4373444 11.9148104 -181.5163497
92.47440444 -2.460445194e-05 -27.47051374
71.85751444 193.0394294 -182.8899737
64.28309444 -2.460445194e-05 -122.1579537
98.33930444 188.5143084 -178.8899737
114.4373444 44.8632874 46.37610826
108.1876444 198.1603134 -178.8899737
63.97129444 64.2856714 -272.8899737
-64.56058556 5.595517396 -65.69745874
1.430404442 25.0428724 1.455688264
262.3269944 -2.460445194e-05 -46.12430474
167.2627644 153.0403914 -178.8899737
-83.49271556 22.6496544 -134.4110687
265.0792044 -2.460445194e-05 -68.89201674
286.8971244 -2.460445194e-05 -50.91371674
30.28962444 -2.460445194e-05 -3.989493736
176.4483444 -2.460445194e-05 -128.9072607
109.4373444 5.859242396 -153.7871247
109.4373444 44.8864754 -207.4411657
96.58931444 179.4199154 -182.8899737
114.4373444 29.0250354 -241.5971797
-12.46352556 -2.460445194e-05 -25.38788574
170.9612944 143.1517514 -178.8899737
-68.97089556 4.980609396 -159.5639407
158.1967644 -2.460445194e-05 3.938297264
-1.767975558 -2.460445194e-05 -168.6743127
14.73168444 218.2823327 -178.8899737
109.4373444 8.977191396 -99.23721774
-77.58209556 15.8927014 -144.6483837
56.16177444 53.7473164 -266.8899737
109.4373444 27.9325574 -105.2709897
116.8435144 5.904878396 117.1100263
114.4373444 15.1203954 -80.85534374
88.84222444 -2.460445194e-05 55.96319626
215.3400544 -2.460445194e-05 2.497357264
10.95826444 232.3335339 -182.8899737
114.4373444 30.4882214 -223.5714927
-79.72640556 -2.460445194e-05 -109.6748507
85.24358444 11.5288354 86.74489426
-23.53631556 52.8655374 -23.95071374
93.84136444 12.2590004 95.49409426
-42.38900556 -2.460445194e-05 -94.73713974
114.4373444 42.9350484 -126.6020307
49.60256444 -2.460445194e-05 -27.99115974
-90.91450556 -2.460445194e-05 -109.9869267
114.4373444 37.4481334 -96.63310874
135.5927044 204.0665004 -178.8899737
50.89033444 -2.460445194e-05 -67.14268374
-91.22668556 27.3472084 -121.0155397
108.2826944 -2.460445194e-05 18.44273926
49.37324444 4.391246396 50.24284526
85.16845444 50.8774154 86.66844426
65.75561444 -2.460445194e-05 16.59799926
-60.90698556 61.1642974 -61.97951274
136.9319344 -2.460445194e-05 25.28426926
105.7456144 -2.460445194e-05 -31.95549074
114.4373444 21.6266574 37.78981226
43.27234444 -2.460445194e-05 -134.2355697
-98.79163556 59.7239014 -100.5313427
120.1646544 -2.460445194e-05 -61.56091174
98.76870444 215.3771399 -178.8899737
77.94033444 -2.460445194e-05 34.34116826
11.64438444 -2.460445194e-05 -55.86215774
110.9264044 -2.460445194e-05 -166.3343717
82.87791444 180.2839404 -182.8899737
-75.68112556 17.6123134 -157.9410317
104.2788644 11.6109094 106.1154073
63.37065444 3.121008396 -272.8899737
105.5366544 -2.460445194e-05 -88.08019074
114.4373444 16.6718124 -124.7241377
-80.05564556 2.845110396 -140.3647427
109.4373444 18.0148724 -67.80126674
109.4373444 31.7458344 -184.1382767
39.94657444 -2.460445194e-05 -264.7438327
211.3095044 -2.460445194e-05 -29.88762674
160.1628544 -2.460445194e-05 -36.77098974
117.1235644 67.3564544 117.1100263
77.98783444 56.6181144 -272.8899737
114.4373444 13.0063584 -199.5084897
109.9083044 49.9999754 -159.0737567
109.4373444 26.0042594 -190.8060127
109.4373444 6.905074396 -67.36322874
109.4373444 18.8201104 -243.2050437
142.7475244 -2.460445194e-05 -53.89758174
106.2287944 -2.460445194e-05 -19.56671074
69.72683444 -2.460445194e-05 24.35400526
109.8003644 49.9999754 -146.2165667
10.73111444 -0.9854316045 10.92019526
114.4373444 0.05431639555 -203.4903337
171.8944944 177.4575354 -178.8899737
114.4373444 41.7119134 -44.05101774
65.90194444 -2.460445194e-05 43.53159326
26.48073444 -2.460445194e-05 -26.71491874
114.4373444 0.5340903955 -42.30456774
-89.86930556 59.2291384 -91.45188274
-10.27902556 2.283389396 -10.45995474
109.4373444 31.9427674 17.96761426
114.4373444 27.3910814 104.8016423
-75.73367556 37.4052044 -157.8507857
167.3814044 -2.460445194e-05 -91.62531774
109.4373444 26.6543574 78.79089026
109.4373444 3.691257396 -109.9713007
-20.18262556 243.9778427 -182.8899737
120.9600544 -2.460445194e-05 82.00997626
109.4373444 49.9318364 -225.0317857
27.27940444 250.0639169 -182.8899737
151.1374044 -2.460445194e-05 -136.8355497
109.4373444 43.1492834 78.78656426
175.7363544 -2.460445194e-05 9.223549264
168.7325144 119.9035594 -182.8899737
44.37494444 -2.460445194e-05 4.426129264
67.45175444 228.9268627 -182.8899737
109.4373444 33.9861934 48.30795626
250.8912244 -2.460445194e-05 -21.23048774
63.33510444 -2.460445194e-05 -207.9446617
109.4373444 32.6576114 32.49462426
114.4373444 43.0902024 -234.6267527
185.3964444 -2.460445194e-05 -119.9818547
111.3662444 49.9999754 91.35909026
140.7248044 -2.460445194e-05 50.14508026
109.4373444 38.4428324 68.05496026
109.4373444 20.5462924 -112.1982167
142.7063544 164.5819064 -178.8899737
109.4373444 46.1109484 -62.45959574
257.7484344 -2.460445194e-05 -28.52545674
-58.17492556 3.166370396 -59.19934074
114.4373444 21.6741714 -143.9598377
109.4373444 7.820054396 84.85692826
-69.04612556 17.8568254 -159.4333067
114.4373444 11.7713674 56.97675226
109.3596044 28.9355894 110.5764153
114.4373444 43.9119614 109.7113913
27.56327444 4.195773396 28.04878626
78.97162444 223.8345984 -182.8899737
55.27654444 -1.151308604 -266.8899737
-93.34545556 35.6562264 -117.3460197
114.4373444 12.4025274 21.75090326
109.4373444 26.3355884 -161.4959877
-60.32863556 2.722859396 -174.5330217
7.715414442 43.6673714 7.851382264
136.5630044 180.1939044 -182.8899737
112.5037844 -2.460445194e-05 47.57257826
109.4373444 32.0262984 -115.9774187
148.4112044 -2.460445194e-05 -96.43652874
114.4373444 24.3296254 -7.878393736
58.43244444 244.1000383 -178.8899737
57.32334444 188.7102024 -178.8982677
144.3000344 154.0690464 -178.8899737
97.09213444 -2.460445194e-05 -259.2504407
114.4373444 31.5752214 -126.1354507
125.3339044 -2.460445194e-05 -142.9920667
104.1310944 -2.460445194e-05 3.870377264
146.9910844 -2.460445194e-05 -118.5455607
83.68384444 12.1712304 -266.8899737
-50.66933556 -2.460445194e-05 -112.6480857
73.25353444 39.8849714 -266.8899737
114.4373444 4.238329396 -223.4765247
114.4373444 29.8307754 83.58755226
92.41077444 -2.460445194e-05 -137.4839967
114.4373444 27.9123574 21.38405026
-78.98128556 42.5386544 -152.2258217
109.4373444 4.789237396 -178.2699387
94.22574444 -2.460445194e-05 -211.5410077
114.4373444 42.7738504 -108.7696607
-45.98883556 -2.460445194e-05 -136.5256957
114.4373444 14.3200094 -230.0889707
114.4373444 15.0579444 90.94205826
116.5056044 30.5430514 111.1100263
114.4373444 36.4951294 -4.710865736
233.4286244 -2.460445194e-05 -5.499247736
58.16907444 17.7085694 -266.8899737
87.94471444 210.2914774 -178.8899737
-20.29411556 -2.460445194e-05 -206.9486027
114.4373444 5.291042396 -230.7424257
162.1514444 186.7227414 -178.8899737
-83.46598556 40.6118624 -144.4580557
95.60388444 37.0340914 97.28764726
-62.73175556 48.1430324 -170.3709557
124.5465044 -2.460445194e-05 13.05348026
-3.947015558 -2.460445194e-05 -130.8601457
50.11349444 40.5529964 -266.8899737
114.4373444 32.7004844 89.66841326
-59.78395556 -2.460445194e-05 -126.1549747
98.81235444 -2.460445194e-05 48.43068726
114.4373444 43.8488834 -138.5400207
146.2325344 -2.460445194e-05 30.05469426
156.0086444 -2.460445194e-05 -116.9455677
114.4373444 21.0670424 -46.52866174
154.5305144 157.5499114 -178.8899737
93.85484444 -2.460445194e-05 -61.14461974
-26.30841556 -2.460445194e-05 -103.9351457
177.0159644 -2.460445194e-05 -115.7390817
3.375364442 18.1093754 3.434909264
0.6669044423 243.8908213 -182.8899737
51.32383444 -2.460445194e-05 -146.7074857
90.18483444 -2.460445194e-05 -114.9863967
114.4373444 43.8612024 -80.57076274
109.4373444 16.3196504 -54.47807774
66.57692444 -2.460445194e-05 -143.0452537
109.4373444 49.8079634 -72.29992074
-29.55915556 -2.460445194e-05 -83.36285774
89.57473444 -2.460445194e-05 -162.0648257
127.8890644 -2.460445194e-05 6.152712264
114.4373444 43.1619964 -171.8152067
137.4886744 173.8574944 -178.8899737
102.8901044 21.4294774 104.7021843
177.1213844 -2.460445194e-05 -31.77010874
-14.74344556 -2.460445194e-05 -216.5138977
73.24120444 -2.460445194e-05 -58.88407874
109.4373444 31.7917094 94.51738926
114.4373444 4.764007396 -194.8692927
114.4373444 1.960635396 -9.024512736
181.9282644 -2.460445194e-05 42.84055226
6.900294442 34.2730364 7.021910264
140.1556644 -2.460445194e-05 -26.00673574
69.91934444 7.602765396 71.15078726
140.2006544 195.2738804 -182.8899737
114.4373444 22.0771164 47.61820026
161.1202544 170.3404714 -182.8899737
80.36523444 -2.460445194e-05 -154.3847187
27.43058444 -2.460445194e-05 -155.9148047
23.92010444 -2.460445194e-05 -169.1893747
131.3901244 -2.460445194e-05 85.87972026
192.8905244 -2.460445194e-05 27.38195126
-63.60790556 8.575755396 -168.8527727
42.49814444 60.8550184 -266.8899737
63.85180444 33.1410124 64.97638426
248.5251344 -0.06921360445 -48.33877574
109.4373444 12.4297374 -147.5892147
109.4373444 25.4920424 -227.5220917
-36.02007556 246.6406733 -178.8899737
114.4373444 38.7320354 -208.8545667
140.2360944 -2.460445194e-05 -106.0239027
-21.93639556 -2.460445194e-05 -114.1619797
91.28689444 227.3037134 -182.8899737
22.25406444 -2.460445194e-05 -15.93967074
-62.31466556 39.8453804 -171.0933187
19.58449444 -2.460445194e-05 -130.8958847
115.9372944 167.6487424 -182.8899737
-83.20404556 -1.675196604 -144.9117207
-74.55231556 49.9999754 -154.1106107
69.78862444 21.5814474 71.01776126
47.67631444 196.5627764 -178.8899737
-5.865945558 250.6057391 -182.8899737
24.39724444 -2.460445194e-05 -237.6941487
98.50309444 -2.460445194e-05 -47.72963374
114.4373444 14.6536904 -101.0333217
62.56241444 218.318558 -182.8899737
114.4373444 12.0804544 -166.3984147
171.8659944 167.1254414 -182.8899737
29.05229444 18.9134624 29.56403026
120.7167844 -2.460445194e-05 -236.5932577
114.4373444 41.2959904 -165.4611367
109.4373444 42.3289394 -57.26139974
-4.772735558 -2.460445194e-05 -34.96338574
54.29273444 -2.460445194e-05 -194.5681567
-4.864185558 34.4350504 -4.949751736
-27.49758556 -2.460445194e-05 -165.8905967
112.0449944 49.9999754 -176.5673617
58.77383444 31.6754684 -272.8899737
53.58816444 -2.460445194e-05 -88.47844974
-26.73643556 45.8502014 -27.20718574
3.851314442 -2.460445194e-05 -193.6820477
73.50927444 59.1192904 -266.8899737
115.2172744 -2.460445194e-05 -76.15534974
73.12213444 0.6764873955 74.40997426
109.4373444 40.9845204 -77.73685474
-31.85779556 17.7134074 -32.41874674
129.8422944 184.8722954 -178.8899737
-48.56447556 64.4754614 -49.41964374
212.9899744 -2.460445194e-05 -4.402409736
109.4373444 2.993302396 -101.5138167
109.4373444 43.3169564 -120.3920227
114.4373444 17.2660394 -184.9205457
120.9791344 198.2653404 -178.8899737
104.8981944 215.6271412 -182.8899737
-12.29183556 14.8284244 -12.50820574
-43.29754556 -2.460445194e-05 -152.1626517
128.1851144 -2.460445194e-05 -28.54110674
109.4373444 14.2983444 -27.60580874
50.89094444 239.8057889 -178.8899737
114.4373444 24.9331384 -175.5094167
114.4373444 28.2223194 -52.26232474
102.8811544 3.724313396 104.6930763
95.98306444 -2.460445194e-05 -235.7523987
114.4373444 0.3148043955 -133.0033737
144.3343844 -2.460445194e-05 42.33309126
7.896554442 -2.460445194e-05 -147.6149177
49.94282444 251.1259239 -182.8899737
210.8679644 -2.460445194e-05 15.39382426
66.69008444 -2.460445194e-05 -75.51083274
91.02370444 -2.460445194e-05 -243.5219477
-74.35555556 9.190526396 -75.66492274
109.4373444 11.1611974 -209.3667397
116.6606544 -2.460445194e-05 -120.4927397
109.4373444 45.6090494 -215.2830507
53.46787444 -2.460445194e-05 -8.077192736
15.73800444 -2.460445194e-05 -198.0434407
45.08279444 34.1229264 -272.8899737
47.59589444 -0.8175376045 -266.8899737
94.42772444 200.4409934 -182.8899737
135.4207644 -2.460445194e-05 -171.9735867
126.4599044 -2.460445194e-05 36.30899226
114.4373444 8.629906396 39.86606026
109.4373444 31.9600704 1.007047264
109.4373444 21.2090054 -137.4383507
102.7167244 205.7646484 -182.8899737
-93.24525556 36.5479024 -127.5195727
137.4114344 -2.460445194e-05 -126.9596497
-79.27901556 0.4737103955 -151.7100187
-67.35951556 43.4148404 -162.3554127
175.7378644 -2.460445194e-05 28.99646326
16.06263444 -2.460445194e-05 -117.7869457
186.3150544 -2.460445194e-05 35.44578526
18.25268444 -2.460445194e-05 -228.9069657
109.4373444 17.5056934 -19.80686574
52.05632444 67.9999754 54.44926026
-59.89697556 67.2722614 -60.95171674
285.8333044 -2.460445194e-05 -57.51886374
114.4373444 30.0822474 -10.37595474
109.4373444 21.3869614 55.06594026
88.00403444 -2.460445194e-05 -88.47352474
-16.76066556 234.6606183 -178.8899737
87.56827444 -2.460445194e-05 -15.00446374
-91.58674556 17.3815434 -120.3914967
65.85775444 19.7612424 -272.8899737
109.4373444 7.428289396 -190.0110167
19.23991444 -2.460445194e-05 17.06907226
109.4373444 25.9832554 49.47523026
114.4373444 21.8245404 -35.39676674
109.4373444 31.4770904 -58.62861574
173.6980844 -2.460445194e-05 -167.7229067
-16.59565556 -2.460445194e-05 -69.91513674
197.4156544 -2.460445194e-05 -22.04569674
-25.58899556 251.1982762 -178.8899737
45.82132444 21.8068134 -272.8899737
169.6562144 132.8211344 -178.8899737
117.4188544 -2.460445194e-05 -178.5663197
116.2468544 -2.460445194e-05 -160.8995237
114.4373444 44.0880414 100.6218403
104.6606044 -2.460445194e-05 -108.4484987
128.3573944 -2.460445194e-05 50.45107826
-72.53706556 2.071818396 -73.81441174
109.4373444 38.4293764 -149.0583117
88.77305444 58.5546344 90.33652326
181.3470444 -2.460445194e-05 -81.68853374
168.1037344 -2.460445194e-05 -44.67702674
