# .PCD v0.7 - Point Cloud Data file format
VERSION 0.7
FIELDS x y z
SIZE 4 4 4
TYPE F F F
COUNT 1 1 1
WIDTH 1190
HEIGHT 1
VIEWPOINT 0 0 0 1 0 0 0
POINTS 1190
DATA ascii
-174.734926 -2.460755104e-05 -32.72919239
-144.781385 -2.460755104e-05 -208.8104074
-170.984729 -2.460755104e-05 -97.97071139
223.467119 -2.460755104e-05 -90.12060239
-164.198479 -2.460755104e-05 -14.52421739
136.581709 -2.460755104e-05 -89.47063339
18.513568 -2.460755104e-05 -87.81012239
-47.425237 35.93178339 -9.738598146e-05
23.456887 -2.460755104e-05 -131.0392794
127.583884 -2.460755104e-05 -114.7080524
-228.499785 13.48890539 -184.6686794
-167.069586 -2.460755104e-05 -153.6688924
-55.822034 -2.460755104e-05 -141.7401204
-104.603107 -2.460755104e-05 -156.4495574
-182.768116 -2.460755104e-05 -185.0933994
101.976311 10.80960839 -9.738598146e-05
-130.573108 60.25144239 -9.738598146e-05
30.919611 -2.417834608 -9.738598146e-05
103.653225 -2.460755104e-05 -33.33461239
118.191059 -2.460755104e-05 -233.4665034
-152.03957 -2.460755104e-05 -137.8220444
17.314596 27.58599639 -9.738598146e-05
209.412021 -2.460755104e-05 -76.76035239
240.918985 18.82302039 -9.738598146e-05
-222.499785 35.02549739 -143.0135644
187.792161 50.75724439 -9.738598146e-05
-228.499785 4.877750392 -66.73521839
127.803776 -2.460755104e-05 -213.3586824
62.218117 -2.460755104e-05 -19.42728939
-222.499785 45.64612639 -170.3340284
-66.723079 -2.460755104e-05 -227.8213864
-74.572632 -2.460755104e-05 -104.7517494
-209.566538 -2.460755104e-05 -100.5422224
-228.499785 42.28107239 -111.6559574
-228.499785 -2.387067608 -157.2618014
-178.535272 -2.460755104e-05 -119.7506074
-210.346866 42.82461439 -9.738598146e-05
-100.77072 55.14346839 -9.738598146e-05
-24.283067 -2.460755104e-05 -184.5936594
68.49601 -2.460755104e-05 -91.51574339
-234.045457 49.07476839 -9.738598146e-05
13.282465 -2.460755104e-05 -197.4288794
93.591128 -2.460755104e-05 -12.67662739
131.988069 -2.460755104e-05 -52.88144639
54.936832 51.54057439 -9.738598146e-05
4.099647 -2.460755104e-05 -121.7035364
-173.052074 -2.460755104e-05 -62.38767839
-81.531905 -2.460755104e-05 -200.8533254
25.9122 -2.460755104e-05 -172.4026844
17.740448 59.33276039 -9.738598146e-05
-110.403095 -2.460755104e-05 -96.34918239
215.249111 -2.460755104e-05 -123.2566264
-66.998609 58.26773339 -9.738598146e-05
-80.005891 -2.460755104e-05 -86.24774639
69.838544 -2.460755104e-05 -232.9437454
-174.539163 65.51129239 -9.738598146e-05
-42.834385 -2.460755104e-05 -238.4289324
-138.564233 -1.202261608 -9.738598146e-05
198.357526 -2.460755104e-05 -138.2990434
-214.673813 -2.460755104e-05 -210.3896324
205.029169 -2.460755104e-05 -16.21802639
58.280468 -2.460755104e-05 -121.5493364
244.38602 -2.460755104e-05 -63.01998539
-228.499785 28.52604339 -219.6610434
-3.450758 -2.460755104e-05 -33.77268739
195.524424 -2.460755104e-05 -44.74926339
177.154429 -2.460755104e-05 -164.5354494
-167.623205 -2.460755104e-05 -232.4182784
160.197957 -2.460755104e-05 -45.07202039
-33.102698 -2.460755104e-05 -106.4845404
175.347001 -2.460755104e-05 -239.1467064
140.490985 -2.460755104e-05 -148.2052504
165.937783 -2.460755104e-05 -114.4380464
-124.121435 -2.460755104e-05 -12.45839939
143.505528 -2.460755104e-05 -122.9178394
-228.499785 37.66419439 -51.86285539
-55.372792 -2.460755104e-05 -16.52590339
-201.222952 -2.460755104e-05 -236.3633704
95.395203 -2.460755104e-05 -210.2025204
7.764241 -2.460755104e-05 -237.9808974
-14.020469 38.43642339 -9.738598146e-05
-118.107244 50.04580839 -9.738598146e-05
155.542548 11.96240539 -9.738598146e-05
-228.499785 25.39339139 -251.0667604
100.965615 -2.460755104e-05 -86.80333439
10.825834 -2.460755104e-05 -69.44253539
-228.499785 14.41332739 -168.6345314
-185.345553 -2.460755104e-05 -76.13076439
-138.676165 -2.460755104e-05 -106.7912474
-156.383167 50.55063539 -9.738598146e-05
-222.499785 12.24677639 -33.38085539
-185.550971 -2.460755104e-05 -144.6397354
57.330436 -2.460755104e-05 -148.5865814
37.739339 -2.460755104e-05 -24.41001039
78.045061 -2.460755104e-05 -247.1612034
136.758808 -2.460755104e-05 -183.1162144
-212.665664 -2.460755104e-05 -133.9536854
-37.250403 -2.460755104e-05 -161.7561584
-222.499785 17.29986839 -14.80965139
-228.499785 8.158559392 -121.8679774
-157.687658 -2.460755104e-05 -66.28911539
24.145423 -2.460755104e-05 -15.61403239
-121.512184 -2.460755104e-05 -58.93530739
-6.720492 -2.460755104e-05 -208.4260934
6.783157 -2.460755104e-05 -100.8776934
213.383061 -2.460755104e-05 -156.2483364
-222.499785 15.00295939 -134.9783924
48.971822 30.18086839 -9.738598146e-05
-156.323218 -0.2062156076 -9.738598146e-05
134.404396 -2.460755104e-05 -21.34921239
42.813107 -2.460755104e-05 -205.8962764
-71.977658 -2.460755104e-05 -172.4761734
-228.499785 25.23729739 -42.36991139
174.902272 38.32123139 -9.738598146e-05
212.945972 -2.460755104e-05 -209.7306564
199.678892 -2.460755104e-05 -167.0386374
156.122688 -2.460755104e-05 -216.3472224
-243.837405 -2.460755104e-05 -136.5817124
-68.685054 -2.460755104e-05 -209.6836844
-148.052799 -2.460755104e-05 -36.89680539
-121.416277 -2.460755104e-05 -186.9961174
178.453275 12.66651639 -9.738598146e-05
-243.142617 10.42859639 -9.738598146e-05
-246.355732 -2.460755104e-05 -197.6081654
217.066021 -2.460755104e-05 -251.1491034
165.898459 -2.460755104e-05 -96.36820139
-10.812655 14.08860339 -9.738598146e-05
-100.843264 -2.460755104e-05 -177.6641084
-113.983649 -1.662754608 -9.738598146e-05
113.443772 -2.460755104e-05 -120.9382464
-208.482438 13.12326539 -9.738598146e-05
23.235866 43.43511639 -9.738598146e-05
-66.660497 -2.460755104e-05 -28.09343939
-38.87708 -2.460755104e-05 -212.8752704
-228.499785 36.25716439 -157.6564324
193.276715 -2.460755104e-05 -61.49913139
246.707829 -2.460755104e-05 -105.1536214
-192.362543 7.699881392 -9.738598146e-05
-69.111778 -2.460755104e-05 -61.85535039
59.956236 -2.460755104e-05 -59.06801239
228.878071 -2.460755104e-05 -172.5679634
228.675854 -2.460755104e-05 -131.1153884
-120.743952 -2.460755104e-05 -129.3661034
126.326588 30.92885939 -9.738598146e-05
-137.345538 -2.460755104e-05 -167.3656894
0.9905370001 -2.460755104e-05 -10.14057839
231.54058 -2.460755104e-05 -230.4772234
-147.000802 28.87259339 -9.738598146e-05
71.12249 -2.460755104e-05 -32.91387339
-103.276256 -2.460755104e-05 -83.23886539
-114.773392 -2.460755104e-05 -208.6390744
-83.068342 3.883354392 -9.738598146e-05
75.630579 60.06417439 -9.738598146e-05
-98.798502 -2.460755104e-05 -233.7525034
196.926785 -2.460755104e-05 -108.3906044
-228.499785 19.25427539 -74.38705139
135.631274 -2.460755104e-05 -200.6284014
61.092935 4.239232392 -9.738598146e-05
-128.588181 -2.460755104e-05 -27.17856139
-228.387404 -2.460755104e-05 -92.35993939
207.061298 -2.460755104e-05 -35.60652939
-9.802669 -2.460755104e-05 -178.4835504
-182.685434 32.05217239 -9.738598146e-05
223.679069 65.49579439 -9.738598146e-05
-46.749859 -2.460755104e-05 -3.474042386
225.836121 -2.460755104e-05 -11.29139439
228.269866 -2.460755104e-05 -150.3447034
242.076928 53.66395939 -9.738598146e-05
-228.499785 14.49936239 -199.8431724
-23.868196 -2.460755104e-05 -204.7161084
-32.38866 -2.460755104e-05 -226.1605314
-228.386983 49.99997539 -26.49624439
-207.781917 -2.460755104e-05 -15.51895839
-228.499785 31.97540239 -9.948203386
-187.400421 -2.460755104e-05 -39.64270339
86.144349 -2.460755104e-05 -45.69651639
43.946181 -2.460755104e-05 -189.6665444
101.32451 -2.460755104e-05 -162.0244954
145.985298 42.22346539 -9.738598146e-05
132.111183 67.99997539 1.375149614
-31.84733 -2.460755104e-05 -66.74505539
-3.540362 -2.460755104e-05 -68.24590039
-100.777945 -2.460755104e-05 -110.1351874
-52.922348 -2.460755104e-05 -81.91147439
-136.22653 -2.460755104e-05 -149.2080794
-217.614571 -2.460755104e-05 -77.96960239
-15.219653 -2.460755104e-05 -14.26417739
154.689819 -2.460755104e-05 -143.0233914
107.791736 -2.460755104e-05 -243.1264844
-28.900206 -2.460755104e-05 -123.9202014
-240.491133 -2.460755104e-05 -166.7429514
-44.721886 54.17053739 -9.738598146e-05
-229.511282 -2.460755104e-05 -235.0324774
89.742305 -2.460755104e-05 -226.5171474
103.06878 67.99997539 0.395914614
-51.853258 -2.460755104e-05 -54.43765139
-93.097709 18.81160839 -9.738598146e-05
75.212261 13.44779139 -9.738598146e-05
175.637201 -2.460755104e-05 -71.01191639
233.616202 -2.460755104e-05 -99.69515739
-52.688165 -2.460755104e-05 -189.3824994
-59.763424 -2.460755104e-05 -116.0541884
152.809909 -2.460755104e-05 -237.3811594
183.174945 -2.460755104e-05 -37.43057239
72.72612 -2.460755104e-05 -122.2175564
-132.628812 -2.460755104e-05 -78.08503939
-228.499785 22.87276539 -112.1214264
205.612847 -2.460755104e-05 -194.8217544
117.782522 -2.460755104e-05 -203.8482294
241.951386 -2.460755104e-05 -122.0961994
177.035009 -2.460755104e-05 -12.00912039
-194.388828 -2.460755104e-05 -177.7017644
10.360967 -2.460755104e-05 -154.3948914
208.213134 -2.460755104e-05 -223.7592134
141.40288 -2.460755104e-05 -215.0395764
125.692411 -2.460755104e-05 -81.18301139
50.195317 -2.460755104e-05 -86.95253639
44.244337 10.58664939 -9.738598146e-05
-228.499785 45.64217539 -77.04898539
-177.83721 -2.460755104e-05 -15.14223039
75.20286 -2.460755104e-05 -175.2330974
80.889433 -2.460755104e-05 -110.7611734
69.704158 -2.460755104e-05 -189.9157504
164.343677 -2.460755104e-05 -191.7066104
217.191187 -2.460755104e-05 -107.0783644
89.181874 47.54254439 -9.738598146e-05
-107.987253 -2.460755104e-05 -59.30611539
-236.705856 -2.460755104e-05 -105.3295894
-15.766562 55.35962839 -9.738598146e-05
117.628132 54.61506439 -9.738598146e-05
72.950618 31.07316239 -9.738598146e-05
192.429214 63.70675439 -9.738598146e-05
45.623898 64.41538939 -9.738598146e-05
-188.971827 -2.460755104e-05 -91.61032239
-222.499785 3.845808392 -146.9747034
-234.485538 -1.222954608 -9.738598146e-05
87.893746 -0.06154560755 -9.738598146e-05
-228.499785 0.05453639245 -211.1662974
-27.798941 40.23891539 -9.738598146e-05
-56.047644 -2.460755104e-05 -236.3125434
148.850264 -2.460755104e-05 -80.00431039
184.966067 -2.460755104e-05 -219.3655704
135.387177 18.25223439 -9.738598146e-05
98.701993 -2.460755104e-05 -68.17641639
42.417783 -2.460755104e-05 -47.15682739
-86.242302 -2.460755104e-05 -175.9485814
234.513347 -2.460755104e-05 -204.9850654
-158.315598 -2.460755104e-05 -87.19122739
-145.085219 -2.460755104e-05 -49.77232239
155.221181 -2.460755104e-05 -32.34385739
22.391035 -2.460755104e-05 -49.89105139
1.069987 -2.460755104e-05 -251.6510984
-228.499785 21.47718439 -92.20135439
-94.78884 -2.460755104e-05 -140.5128214
87.565474 -2.460755104e-05 -161.6672724
-228.499785 33.67149539 -64.80418339
-60.93559 23.05507839 -9.738598146e-05
56.695966 -2.460755104e-05 -233.2296544
-233.980407 -2.460755104e-05 -36.24635639
-228.499785 8.154703392 -222.9947194
56.044288 -2.460755104e-05 -134.4695064
37.947827 -2.460755104e-05 -153.9254244
-144.690926 56.48005239 -9.738598146e-05
243.927237 -2.460755104e-05 -172.2231534
111.367378 -2.460755104e-05 -43.86325639
-196.93659 -2.460755104e-05 -70.13250939
-170.28847 -2.460755104e-05 -189.1253904
-121.84245 -2.460755104e-05 -232.9381164
78.713066 -2.460755104e-05 -12.18930339
-228.499785 48.56821539 -139.4488074
-30.397391 66.45597739 -9.738598146e-05
14.429122 -2.460755104e-05 -180.1572634
28.102236 -2.460755104e-05 -246.5106954
-185.35453 -2.460755104e-05 -215.5580834
-168.439025 25.99177339 -9.738598146e-05
-22.045011 -2.460755104e-05 -242.5919284
144.895118 -2.460755104e-05 -172.0344184
-234.193654 -2.460755104e-05 -49.54115839
-72.445021 -2.460755104e-05 -157.2424834
-246.130573 38.82487439 -9.738598146e-05
-190.283018 -2.460755104e-05 -10.06417539
-53.686846 -2.460755104e-05 -29.24372039
-228.499785 37.79477639 -93.00729639
108.88221 -2.460755104e-05 -184.4766174
-134.369605 -2.460755104e-05 -238.8938174
1.849646 12.39073139 -9.738598146e-05
-236.13827 -2.460755104e-05 -18.91999739
-152.823171 -2.460755104e-05 -193.6561294
-80.93395 -2.460755104e-05 -129.6671654
-175.854596 -2.460755104e-05 -163.4109014
-38.77716 -2.460755104e-05 -132.2174954
226.500215 -2.096927608 1.563814614
-228.499785 46.40275439 -200.0543294
-77.01128 -2.460755104e-05 -241.2270994
-228.499785 38.53850639 -131.8492754
57.834819 -2.460755104e-05 -163.5210234
154.733316 -2.460755104e-05 -3.734865386
-225.630545 49.99997539 -243.4870344
-196.240537 -2.460755104e-05 -224.8504384
-166.54838 7.705828392 -9.738598146e-05
6.843628 -2.460755104e-05 -40.91943239
-222.499785 8.106276392 -54.72496739
-222.499785 9.392135392 -158.8710814
-31.810959 -2.460755104e-05 -31.61932139
-76.663137 33.12991039 -9.738598146e-05
-212.003153 -2.460755104e-05 -182.8654474
100.207158 -1.993645608 -9.738598146e-05
127.064414 -2.460755104e-05 -3.929853386
-225.287934 -2.460755104e-05 -10.60742539
180.109181 -2.460755104e-05 -194.3989924
143.831147 -2.460755104e-05 -49.22066539
-222.379126 -2.460755104e-05 -103.1571954
154.287504 57.02329939 -9.738598146e-05
213.447496 53.01480139 -9.738598146e-05
246.314467 -2.460755104e-05 -149.4561264
-7.608834 -2.460755104e-05 -125.4180134
102.742984 -2.460755104e-05 -146.7766284
-80.670971 -2.460755104e-05 -36.62792339
-146.682685 -2.460755104e-05 -117.8008564
-175.003698 -2.460755104e-05 -242.2006404
-228.499785 29.10293939 -189.6613864
-2.550761 -2.460755104e-05 -168.4660264
-20.862571 -2.460755104e-05 -41.23750339
49.711185 -2.460755104e-05 -22.06178839
181.657056 -2.460755104e-05 -25.32714039
101.270939 -2.460755104e-05 -120.5927254
-7.948421 -2.460755104e-05 -231.2428494
185.681343 -2.460755104e-05 -90.92461539
-233.583671 36.95035839 -9.738598146e-05
86.159918 -2.460755104e-05 -85.18567339
-87.806904 53.99555739 -9.738598146e-05
-222.633727 49.99997539 -53.59345839
172.622778 -2.460755104e-05 -149.3144204
-222.499785 37.16270239 -25.74772039
145.565225 -2.460755104e-05 -62.71720539
-153.292667 -2.460755104e-05 -171.6471894
-179.950591 54.75007439 -9.738598146e-05
-3.245022 -2.460755104e-05 -47.47537439
91.827734 31.67503739 -9.738598146e-05
240.571403 -2.460755104e-05 -238.3778254
36.320387 -2.460755104e-05 -122.5194194
-78.470583 -2.460755104e-05 -69.35583539
244.464709 -2.460755104e-05 -197.3659364
-228.499785 29.01960539 -168.9617524
-161.204166 -2.460755104e-05 -128.6977654
-96.984051 -2.460755104e-05 -51.22082039
-135.542855 32.03149339 -9.738598146e-05
-35.197276 -2.460755104e-05 -179.8286324
-64.349546 11.64080039 -9.738598146e-05
-228.215027 -2.460755104e-05 -182.9785914
-107.556515 -2.460755104e-05 -32.55660339
190.336979 17.44942239 -9.738598146e-05
-133.411235 -2.460755104e-05 -212.1109644
-139.565331 19.67385439 -9.738598146e-05
-145.571562 67.99997539 2.494868614
-4.559611 -2.460755104e-05 -104.1376324
35.392702 -2.460755104e-05 -181.1612754
-228.499785 23.34486139 -140.7759224
-95.015109 -2.460755104e-05 -203.6706574
-214.096034 -2.460755104e-05 -53.20162439
93.77242 -2.460755104e-05 -133.0594274
-222.499785 30.81295239 -237.7480764
117.582346 -2.460755104e-05 -64.46275639
-60.229322 -2.460755104e-05 -172.2364474
-167.779648 -2.460755104e-05 -220.6859194
129.775621 -2.460755104e-05 -237.2743924
-221.136229 47.41694439 -9.738598146e-05
-145.107368 -2.460755104e-05 -9.650632386
147.654262 -2.460755104e-05 -157.4767694
230.014575 -2.460755104e-05 -52.68495739
143.836414 -2.460755104e-05 -134.5954424
2.851579 55.21183139 -9.738598146e-05
-177.942172 -2.460755104e-05 -108.1066474
169.751762 -2.460755104e-05 -125.8376064
-222.499785 38.44634439 -212.8878674
-98.702469 -2.460755104e-05 -22.02532339
-34.004138 -2.460755104e-05 -12.67220539
101.000196 -2.460755104e-05 -21.64307539
124.494451 42.50427139 -9.738598146e-05
-48.716096 -2.460755104e-05 -152.7594484
193.966946 -2.460755104e-05 -12.75764039
47.522781 -2.460755104e-05 -74.53158139
-200.839418 -2.460755104e-05 -112.2440134
225.046743 -2.460755104e-05 -161.4540324
44.953541 -2.460755104e-05 -144.7460344
-132.947479 -2.460755104e-05 -186.5900324
191.434349 39.83495639 -9.738598146e-05
-20.045379 -2.460755104e-05 -147.8498334
80.422237 -2.460755104e-05 -132.8599294
-226.283333 49.99997539 -223.1919344
-202.535271 -2.460755104e-05 -201.4620934
-224.856918 49.99997539 -104.0025424
113.6319 23.28101939 -9.738598146e-05
-73.748339 49.02142539 -9.738598146e-05
112.391244 -2.460755104e-05 -86.23907439
-80.626107 -2.460755104e-05 -252.0727004
47.511246 -2.460755104e-05 -216.3078424
21.8387 -2.460755104e-05 -98.73117339
-70.858425 -2.460755104e-05 -93.04940839
-159.948813 -2.460755104e-05 -184.3332974
174.321543 -2.460755104e-05 -44.60335739
-228.499785 39.77362839 -182.4795344
-116.939751 -2.460755104e-05 -38.96108539
-57.391086 -2.460755104e-05 -69.75382139
236.470253 3.063769392 -9.738598146e-05
-221.420319 -0.9127996076 -9.738598146e-05
-5.331525 27.47397439 -9.738598146e-05
-222.499785 32.44541039 -111.8579544
-228.499785 14.29098939 -24.06165739
164.012354 63.85173139 -9.738598146e-05
-228.499785 22.00492139 -4.719726386
-158.303191 -2.460755104e-05 -210.2301484
222.878114 -2.460755104e-05 -63.70228139
-197.825916 -2.460755104e-05 -98.48767639
-180.207519 43.54196039 -9.738598146e-05
-178.104521 -2.460755104e-05 -45.86256539
235.92166 32.91648439 -9.738598146e-05
19.593141 -2.460755104e-05 -160.6696334
83.665506 -2.460755104e-05 -203.8784934
243.817885 -2.460755104e-05 -34.73367039
-39.307641 12.47632939 -9.738598146e-05
-228.499785 37.62956839 -38.40352539
-246.437203 -0.5140256076 -9.738598146e-05
-175.834996 -2.460755104e-05 -209.8423804
-87.402907 30.48353639 -9.738598146e-05
-117.810758 17.64569939 -9.738598146e-05
-52.166589 45.89237239 -9.738598146e-05
-112.045814 -2.460755104e-05 -192.8148664
-137.36023 -2.460755104e-05 -89.85401439
-17.402132 -2.460755104e-05 -193.1996594
107.911539 -2.460755104e-05 -229.5005764
-126.804123 -2.460755104e-05 -103.8382604
-126.645545 -0.3371736076 -9.738598146e-05
11.318771 18.36385339 -9.738598146e-05
168.610758 -2.460755104e-05 -62.55317739
31.546006 -2.460755104e-05 -63.11300439
161.83947 -2.460755104e-05 -22.81441239
27.130414 -2.460755104e-05 -27.21185639
183.218613 -2.460755104e-05 -246.7879964
35.035002 54.02645339 -9.738598146e-05
-204.989523 -2.460755104e-05 -126.1630064
17.731411 -2.460755104e-05 -207.6002294
-159.506386 -2.460755104e-05 -38.38814439
202.675507 -2.460755104e-05 -234.2378114
-222.499785 8.461179392 -234.9498794
-115.298202 -2.460755104e-05 -175.8487754
76.03279 -2.460755104e-05 -64.68995639
-217.122543 -2.460755104e-05 -157.7707344
-228.499785 2.189290392 -112.1243124
242.148733 -2.460755104e-05 -73.62203739
-228.926707 -2.460755104e-05 -170.7590214
51.540626 -2.460755104e-05 -182.0068994
82.699417 -2.460755104e-05 -234.6757004
120.856687 -2.460755104e-05 -135.6377104
-35.963493 -2.460755104e-05 -76.70426639
-4.090307 -2.460755104e-05 -23.01552139
92.65753 -2.460755104e-05 -111.3655124
213.99058 -2.460755104e-05 -186.0438894
100.756461 37.66323539 -9.738598146e-05
-89.378897 -2.460755104e-05 -16.02320839
70.975357 -2.460755104e-05 -222.2551664
-235.437659 -2.460755104e-05 -122.7589704
33.869487 -2.460755104e-05 -11.04536039
12.436738 38.37708439 -9.738598146e-05
29.197271 -2.460755104e-05 -202.6245054
131.259683 -2.460755104e-05 -99.67754339
38.363817 31.78340639 -9.738598146e-05
-222.499785 20.17367539 -222.7146564
-210.254734 -2.460755104e-05 -89.84623039
-236.324118 -2.460755104e-05 -251.7622684
-28.603026 -2.460755104e-05 -135.6766454
-228.499785 4.273003392 -77.41894239
-224.348122 67.99997539 1.171962614
-200.99138 -2.460755104e-05 -139.8467064
-98.339809 -2.460755104e-05 -165.6425664
-28.047702 14.03002239 -9.738598146e-05
4.198771 -0.8237396076 -9.738598146e-05
195.196484 -2.460755104e-05 -85.91222339
-222.499785 23.37503539 -66.47995939
-110.567182 -2.460755104e-05 -146.3360024
33.850535 -2.460755104e-05 -163.7651194
-39.79082 -2.460755104e-05 -59.51840339
33.021382 -2.460755104e-05 -142.4212304
222.150632 -2.460755104e-05 -225.4217084
-129.680389 -2.460755104e-05 -135.1180234
106.050071 -2.460755104e-05 -96.13243539
206.48687 30.99722439 -9.738598146e-05
-149.546238 39.15729539 -9.738598146e-05
-207.80186 -2.460755104e-05 -169.2555744
-5.728512 -2.460755104e-05 -218.9731984
-72.876163 67.07780539 -9.738598146e-05
20.460184 -2.460755104e-05 -73.83017239
-70.238483 -2.460755104e-05 -117.5016084
129.474871 -2.460755104e-05 -34.87290039
-223.703136 -2.460755104e-05 -243.8265984
37.367394 -2.460755104e-05 -235.7404884
-181.997981 -2.460755104e-05 -133.9496864
-128.908695 49.86114239 -9.738598146e-05
116.482339 -2.460755104e-05 -19.37067539
121.860829 -2.460755104e-05 -177.7384504
-95.756922 43.20577539 -9.738598146e-05
-240.955604 59.40517539 -9.738598146e-05
-111.182173 -2.460755104e-05 -116.8126044
-222.499785 20.77047739 -191.7751664
-87.401128 -2.460755104e-05 -107.8562244
-49.874157 23.02463539 -9.738598146e-05
-222.499785 8.792560392 -96.79059739
61.656505 -2.460755104e-05 -42.70071339
-23.561775 -2.460755104e-05 -59.05291039
-118.389749 38.14690839 -9.738598146e-05
76.57372 -2.460755104e-05 -151.4823344
-228.499785 28.36526739 -208.8050044
-141.318853 -2.460755104e-05 -231.0960004
-188.952198 18.22687739 -9.738598146e-05
-51.018236 -2.460755104e-05 -108.7254494
125.50573 -2.460755104e-05 -223.4650894
-77.040749 -2.460755104e-05 -7.481480386
-158.613805 -2.460755104e-05 -244.5275254
-157.201476 27.39320239 -9.738598146e-05
122.889723 -2.460755104e-05 -147.2033124
-196.877473 39.28014539 -9.738598146e-05
-139.733358 -2.460755104e-05 -139.5310654
28.788197 -2.460755104e-05 -88.36699439
234.845879 -2.460755104e-05 -39.75068039
175.502331 -2.460755104e-05 -92.30900439
16.820678 -2.460755104e-05 -7.761122386
-99.823322 -2.460755104e-05 -222.5836174
224.040235 -2.460755104e-05 -243.6286314
-37.197451 -2.460755104e-05 -40.52722339
-154.313527 -2.460755104e-05 -28.78648639
-10.242018 -2.460755104e-05 -80.49290639
-178.76373 -2.460755104e-05 -90.96118039
179.687359 -2.460755104e-05 -0.285323386
-202.084291 -2.460755104e-05 -57.55875039
-228.499785 41.11123439 -148.6602674
-56.435445 -2.460755104e-05 -251.2227184
-59.854046 -2.460755104e-05 -220.2617884
-222.499785 48.20215039 -233.4343204
-177.064872 -2.460755104e-05 -176.6266494
-30.200228 -2.460755104e-05 -236.4552534
-28.540541 -2.460755104e-05 -21.95688039
-102.757128 -2.460755104e-05 -250.8450554
146.319869 -2.460755104e-05 -27.15906739
-3.301875 44.86386639 -9.738598146e-05
-58.928529 -2.460755104e-05 -2.153547386
1.296238 -2.460755104e-05 -202.1797254
44.411838 -2.460755104e-05 -32.07283839
234.660918 -2.460755104e-05 -142.4517434
221.09596 -2.460755104e-05 -80.25027139
-222.499785 17.23126339 -118.0543144
12.196572 -2.460755104e-05 -79.86970739
-240.585221 -2.460755104e-05 -232.1933244
145.509253 17.73922339 -9.738598146e-05
-15.454582 27.35981139 -9.738598146e-05
-222.499785 13.17824339 -68.97504939
-222.499785 16.82528639 -42.39370139
-176.529083 -2.460755104e-05 -197.3739504
147.137031 -2.460755104e-05 -228.5988484
237.153253 44.54457339 -9.738598146e-05
162.311991 -2.460755104e-05 -208.3873754
-59.969874 -2.460755104e-05 -198.0703134
-67.884873 -2.460755104e-05 -145.8154024
-80.382769 -2.460755104e-05 -190.5206474
-228.499785 49.38053639 -163.1641764
-176.511229 -2.460755104e-05 -149.0516484
-90.267877 -2.460755104e-05 -152.9889764
-211.092901 -2.460755104e-05 -238.2670054
-228.499785 9.905888392 -46.88260239
14.101183 -2.460755104e-05 -127.4130774
157.026188 -2.460755104e-05 -91.68565439
218.600373 22.43941039 -9.738598146e-05
243.552623 -2.460755104e-05 -212.1457504
-3.460702 -2.460755104e-05 -93.25153039
-222.499785 14.60592939 -176.7396144
48.466232 -2.460755104e-05 -124.8067174
137.02771 -2.460755104e-05 -79.17811139
200.524424 54.27430639 -9.738598146e-05
143.463472 -2.460755104e-05 -193.9445574
199.451823 -2.460755104e-05 -76.10750439
91.718194 -2.460755104e-05 -61.07654139
-222.499785 41.57137939 -119.5704764
183.435744 -2.460755104e-05 -64.83220639
215.718054 8.941865392 -9.738598146e-05
-121.414856 -2.460755104e-05 -47.92404939
69.679282 -2.460755104e-05 -81.68927339
127.883596 59.19066539 -9.738598146e-05
-147.850558 -2.460755104e-05 -65.57265239
-63.134881 -2.460755104e-05 -54.01876939
-198.757962 -2.460755104e-05 -165.3507314
167.214412 9.571041392 -9.738598146e-05
-124.611834 67.99997539 1.096009614
-5.671361 -2.460755104e-05 -135.7767174
-222.499785 20.41196939 -104.4869894
-222.499785 30.44622939 -54.79020339
222.167899 -2.460755104e-05 -204.4034684
133.228013 -2.460755104e-05 -173.9504634
51.901061 16.73665939 -9.738598146e-05
171.630651 -2.460755104e-05 -22.37885939
113.568806 -2.460755104e-05 -195.0078864
37.450305 -2.460755104e-05 -214.0861594
186.500162 -2.460755104e-05 -167.4259904
119.659019 -2.460755104e-05 -108.9734314
-184.551188 -0.6175816076 -9.738598146e-05
-14.768712 -2.460755104e-05 -65.65006539
-228.499785 18.77229239 -125.6176324
-112.468384 30.22164939 -9.738598146e-05
-234.087476 -2.460755104e-05 -143.0481854
100.754302 -2.460755104e-05 -249.8895664
-170.317116 -2.460755104e-05 -125.2133544
121.67459 -2.460755104e-05 -157.8234404
-107.044338 -2.460755104e-05 -170.1380104
-42.229474 -2.460755104e-05 -50.07690239
-222.499785 31.33526139 -34.00751339
-74.10075 7.688730392 -9.738598146e-05
-47.85526 -2.460755104e-05 -127.9150254
-233.161672 -2.460755104e-05 -225.4790274
3.274536 -2.460755104e-05 -224.2672924
-239.079957 -2.460755104e-05 -204.0198844
57.442767 -2.460755104e-05 -93.39230539
143.172348 -2.460755104e-05 -238.3434754
202.69378 -2.460755104e-05 -205.3513324
244.343873 -2.460755104e-05 -17.35279039
-165.922625 48.98120439 -9.738598146e-05
201.023673 12.28810039 -9.738598146e-05
37.240341 -2.460755104e-05 -197.2742704
-74.035538 -2.460755104e-05 -53.54757939
-222.499785 20.46913239 -164.1000854
183.691887 -2.460755104e-05 -113.7666344
187.265652 -2.460755104e-05 -187.9376954
-196.002768 -2.460755104e-05 -43.99322439
85.02835 38.85732439 -9.738598146e-05
-228.499785 15.29641839 -146.0387574
-197.018054 -2.460755104e-05 -252.2521274
-18.773156 -2.460755104e-05 -106.4213854
-243.036115 -2.460755104e-05 -41.61340839
-222.499785 38.23012439 -71.15350139
179.500805 -2.460755104e-05 -208.4477804
-222.499785 21.29657739 -81.55208439
-119.758134 -2.460755104e-05 -223.6047234
-2.181043 -2.460755104e-05 -113.4000724
65.994554 37.62773939 -9.738598146e-05
234.793086 -2.460755104e-05 -195.4349274
-222.499785 47.53647239 -180.7193744
-222.499785 34.26846139 -226.7215834
26.479234 -2.460755104e-05 -107.9103274
22.377824 19.49762939 -9.738598146e-05
-141.080832 -2.460755104e-05 -221.2740724
-222.499785 1.957211392 -34.36781539
208.968914 -2.460755104e-05 -136.0635544
91.857579 -2.460755104e-05 -185.6456674
8.445537 -2.460755104e-05 -110.6802414
15.858868 -2.460755104e-05 -30.56095439
-128.196353 38.08166239 -9.738598146e-05
112.628528 -2.460755104e-05 -142.6277464
158.18213 -2.460755104e-05 -101.9169774
-228.499785 25.83690339 -232.3265374
-222.499785 3.650211392 -127.6804664
17.951653 -2.460755104e-05 -188.9700884
177.016254 29.06913739 -9.738598146e-05
-72.644709 -2.460755104e-05 -218.3025014
-228.499785 19.56751339 -32.78781139
-184.521819 -2.460755104e-05 -154.1213274
-105.21172 -2.460755104e-05 -73.95887739
88.061317 11.15552139 -9.738598146e-05
175.281686 -2.460755104e-05 -118.1082424
4.08055 26.48586639 -9.738598146e-05
-222.499785 13.28470539 -245.0632304
-187.368704 -2.460755104e-05 -116.3685204
-110.681511 43.61642539 -9.738598146e-05
66.310248 -2.460755104e-05 -169.3697594
113.156413 46.29720239 -9.738598146e-05
-166.125087 -2.460755104e-05 -106.0522004
52.532625 -2.460755104e-05 -172.6501224
-213.107873 -2.460755104e-05 -195.9524334
-136.699199 -2.460755104e-05 -117.8216574
-228.499785 4.502126392 -24.61285439
-62.823437 66.66219739 -9.738598146e-05
-209.145042 52.12014939 -9.738598146e-05
156.862532 -2.460755104e-05 -120.1899074
-154.865426 -2.460755104e-05 -13.71272239
228.224073 19.44457539 -9.738598146e-05
-119.825741 59.79927139 -9.738598146e-05
-199.546175 -2.460755104e-05 -8.745910386
65.032751 -2.460755104e-05 -200.0215104
-228.499785 39.69868839 -193.5561354
220.850947 -2.460755104e-05 -54.47291239
-222.499785 27.82191939 -88.91858839
-246.012438 -2.460755104e-05 -105.8784094
-228.499785 40.68685739 -19.56052339
109.505719 -2.449819608 -9.738598146e-05
153.083422 31.57664439 -9.738598146e-05
-228.499785 36.46671339 -242.0485774
42.935918 -2.460755104e-05 -173.7326984
14.608294 -2.460755104e-05 -141.4574514
66.074762 -2.460755104e-05 -211.9864764
92.051726 59.99243139 -9.738598146e-05
-77.999154 -2.460755104e-05 -180.1964124
31.637008 -2.460755104e-05 -49.23723839
137.999973 60.97913939 -9.738598146e-05
-213.037023 -2.460755104e-05 -27.40384239
-157.163656 -2.460755104e-05 -152.9380474
-38.605079 62.18240639 -9.738598146e-05
166.123223 52.67463439 -9.738598146e-05
-228.499785 24.13423539 -181.6687154
-238.555471 -2.460755104e-05 -67.26924339
213.461048 43.05609539 -9.738598146e-05
-179.560309 -2.460755104e-05 -24.21186539
-107.239393 -2.460755104e-05 -203.3140524
-118.664371 -2.460755104e-05 -199.5434124
39.944008 -2.460755104e-05 -69.30102939
-91.441678 -2.460755104e-05 -43.87418639
-228.499785 29.42725739 -151.4979244
-222.499785 5.041746392 -216.7631804
179.641482 -2.460755104e-05 -226.8588054
-180.090018 -2.460755104e-05 -68.29106939
-98.79593 -2.460755104e-05 -92.09142439
-0.2148749999 -2.460755104e-05 -59.70837739
-205.05968 63.22347039 -9.738598146e-05
64.954823 12.65238039 -9.738598146e-05
203.707761 -2.460755104e-05 -178.9253544
-192.632682 -2.460755104e-05 -189.3906174
-55.959415 -2.460755104e-05 -91.90010539
-228.499785 0.8240253924 -56.60170839
-57.205281 -2.460755104e-05 -47.06287839
-36.35124 43.32608839 -9.738598146e-05
-84.826477 -2.460755104e-05 -75.85432939
-197.956686 14.86358539 -9.738598146e-05
-228.499785 29.55125839 -134.1387324
-41.423096 -2.460755104e-05 -229.4538304
-66.228358 -2.460755104e-05 -179.5095264
219.808229 -2.460755104e-05 -34.86694139
93.075272 -2.460755104e-05 -101.8554164
98.153245 -2.460755104e-05 -78.20131939
168.179508 -2.460755104e-05 -165.6287134
-61.586418 -2.460755104e-05 -187.7873964
58.798235 -2.460755104e-05 -83.79867539
-55.546474 -2.460755104e-05 -132.6238914
-222.499785 6.220972392 -137.0015734
-228.499785 7.226751392 -176.1170844
-92.029318 64.15846239 -9.738598146e-05
42.127588 -2.460755104e-05 -14.63735139
140.782005 -2.460755104e-05 -97.61705039
-38.542047 -2.460755104e-05 -98.03432539
-224.372129 49.99997539 -113.6062474
-228.499785 14.43526439 -58.84100439
164.294421 -2.460755104e-05 -72.65071339
-121.816528 -2.460755104e-05 -243.7138554
-222.499785 36.78305539 -45.29559039
43.198057 19.45856739 -9.738598146e-05
-243.596818 -2.460755104e-05 -175.2192234
238.097489 -2.460755104e-05 -179.1541624
199.20643 0.02442639245 -9.738598146e-05
40.432269 -2.460755104e-05 -5.005136386
-158.841685 37.67019239 -9.738598146e-05
-222.499785 39.52417739 -3.909740386
133.41335 6.856456392 -9.738598146e-05
194.46235 -2.460755104e-05 -99.83864239
-68.135633 -2.460755104e-05 -136.7731914
-183.92307 10.50626239 -9.738598146e-05
-197.749095 -2.460755104e-05 -120.5809464
45.327889 49.57850739 -9.738598146e-05
-15.141798 -2.460755104e-05 -236.7686824
63.776282 -2.460755104e-05 -112.0497264
-39.536213 31.87806639 -9.738598146e-05
182.232804 67.99997539 1.837412614
-222.499785 9.610004392 -19.52104939
140.02821 -2.460755104e-05 -9.447087386
214.008801 -2.460755104e-05 -69.20300139
-222.499785 41.04428039 -105.2951904
-222.499785 44.25929539 -83.37896539
196.85506 -2.460755104e-05 -195.9363264
146.362215 53.13454239 -9.738598146e-05
-228.499785 31.23914939 -118.2072144
154.989332 67.81374139 -9.738598146e-05
-70.741214 26.60797739 -9.738598146e-05
-128.534865 -2.460755104e-05 -70.30475539
-146.302415 2.967438392 -9.738598146e-05
-228.499785 39.30914639 -171.3739294
161.589055 -2.460755104e-05 -237.1542494
-236.303502 20.15331239 -9.738598146e-05
-90.015297 -2.460755104e-05 -60.07032939
99.526692 -2.460755104e-05 -217.9411814
186.376367 -2.460755104e-05 -200.5221274
205.388943 -2.460755104e-05 -27.02377839
189.118263 -2.460755104e-05 -240.3368834
-0.9363099999 -2.460755104e-05 -147.7048174
-11.771594 -2.460755104e-05 -45.62676439
110.262339 62.78439039 -9.738598146e-05
-228.499785 41.61819039 -207.4283394
-125.764165 -2.460755104e-05 -216.2782764
229.398361 -2.460755104e-05 -82.86916639
123.812639 -2.460755104e-05 -12.00029039
23.824133 9.960840392 -9.738598146e-05
-82.793423 -2.460755104e-05 -28.19607239
61.36085 -2.460755104e-05 -28.07802339
-222.499785 22.07664139 -208.7900014
35.758557 8.762585392 -9.738598146e-05
-222.499785 49.54897439 -194.3412904
66.983822 59.62778239 -9.738598146e-05
105.3812 -2.460755104e-05 -12.52485839
-139.837409 -2.460755104e-05 -73.19149839
78.079899 67.99997539 2.427107614
-166.012791 64.08534539 -9.738598146e-05
51.148824 38.54318739 -9.738598146e-05
-228.499785 31.11036539 -73.04927339
-156.320835 -2.460755104e-05 -163.5619864
131.88085 -2.460755104e-05 -148.7047154
-46.615322 -2.460755104e-05 -195.5016934
-90.683262 -2.460755104e-05 -217.7261824
143.401921 -2.460755104e-05 -114.3011564
27.931202 -2.460755104e-05 -156.7581604
-151.748156 -2.460755104e-05 -55.22631339
-130.453012 -2.460755104e-05 -111.8957644
213.74124 -2.460755104e-05 -18.02719139
83.386805 56.35620939 -9.738598146e-05
-222.499785 21.32796039 -22.39193339
-222.499785 4.556193392 -188.1868434
-228.499785 29.85171039 -1.237251386
-153.632473 -2.460755104e-05 -251.5183624
-194.247643 -2.460755104e-05 -199.2598504
1.969006 -2.460755104e-05 -131.8859974
-146.856907 -2.460755104e-05 -144.6473674
89.516039 -2.460755104e-05 -153.3305154
-246.725662 -2.460755104e-05 -189.0551094
53.057245 -2.460755104e-05 -156.4181174
192.598913 -2.460755104e-05 -146.4691014
150.794956 -2.460755104e-05 -209.6576094
17.741716 -2.460755104e-05 -64.42242639
-18.527879 -0.3545836076 -9.738598146e-05
-228.499785 45.12008039 -57.40477639
-118.736834 -2.460755104e-05 -98.16472139
-205.586264 26.51560439 -9.738598146e-05
85.760198 -2.460755104e-05 -175.0933184
56.915081 -2.460755104e-05 -12.76252639
-222.499785 43.15508039 -135.7296614
-217.578088 -2.460755104e-05 -249.7288844
143.05523 -2.460755104e-05 -205.3815954
-243.648059 -2.460755104e-05 -51.05792839
213.39018 -2.460755104e-05 -164.7397754
-205.102011 -2.460755104e-05 -72.46156139
241.84277 10.38729739 -9.738598146e-05
-209.856277 -2.460755104e-05 -109.0214194
-143.0413 -2.460755104e-05 -99.51828739
102.943672 -2.460755104e-05 -41.77892439
77.758395 -2.460755104e-05 -183.3105974
-105.213928 -2.460755104e-05 -5.076116386
47.733093 -2.460755104e-05 -96.89718539
-43.998937 -2.460755104e-05 -168.7885014
-108.596198 8.044841392 -9.738598146e-05
181.9426 -2.460755104e-05 -145.5599784
-228.499785 41.65744939 -217.9179334
183.054769 40.97214539 -9.738598146e-05
-61.679064 33.78220139 -9.738598146e-05
-165.606943 -0.6691686076 -9.738598146e-05
-29.022301 -2.460755104e-05 -94.53812539
68.662944 -2.460755104e-05 -60.61285039
102.209863 -2.460755104e-05 -170.3934164
-128.563254 23.06913039 -9.738598146e-05
-127.21108 -2.460755104e-05 -150.2179144
-213.905786 -2.460755104e-05 -3.666604386
-168.085557 -2.460755104e-05 -37.84610739
-228.499785 49.28846339 -175.1243544
-228.497049 49.99997539 -14.79715639
-180.48602 -2.460755104e-05 -58.53471239
-228.393539 49.99997539 -68.52278639
-47.052184 -2.460755104e-05 -215.6469794
-228.499785 0.4535153924 -202.8147334
77.05724 -2.460755104e-05 -20.37300739
-222.499785 29.52414739 -15.20306439
161.044146 -2.460755104e-05 -199.3554174
-124.89398 -2.460755104e-05 -81.16720339
-194.171377 -0.4261506076 -9.738598146e-05
-130.530522 -2.460755104e-05 -17.76995839
184.6942 -2.460755104e-05 -133.9708274
-26.144732 -2.460755104e-05 -175.0838024
194.513407 -2.460755104e-05 -130.9288244
-139.832574 -2.460755104e-05 -159.4357364
80.338761 -2.460755104e-05 -167.4541244
-95.030179 -2.460755104e-05 -241.1562154
-153.258575 -2.460755104e-05 -203.6369894
184.851231 60.33056739 -9.738598146e-05
-222.499785 42.10709339 -241.0522064
-90.243237 -1.102958608 -9.738598146e-05
235.084975 -2.460755104e-05 -108.1585614
117.182452 -2.460755104e-05 -37.95582539
-62.006063 -2.460755104e-05 -108.0756764
54.484913 -0.7577156076 -9.738598146e-05
-55.876765 -2.460755104e-05 -179.2719724
9.466099 -2.460755104e-05 -207.9163114
148.579758 -2.460755104e-05 -88.26293539
-36.497781 -2.460755104e-05 -114.0891544
136.038098 -2.460755104e-05 -61.75413439
-36.776668 -2.460755104e-05 -244.0368644
-137.172694 -2.460755104e-05 -53.36111139
203.234062 -2.460755104e-05 -144.9519964
-228.499785 5.940740392 -152.2306464
203.221704 -2.460755104e-05 -55.60833939
-102.695805 -2.460755104e-05 -142.8365754
-228.499785 35.47272939 -106.1568344
99.148166 45.73371739 -9.738598146e-05
26.400207 35.83935539 -9.738598146e-05
-222.713849 -2.460755104e-05 -63.53559239
53.192295 59.56558539 -9.738598146e-05
108.464275 -2.460755104e-05 -25.04305439
127.626076 -2.460755104e-05 -198.8667364
7.088471 -2.460755104e-05 -30.53839139
-18.44682 -2.460755104e-05 -178.8480684
-154.960658 -2.460755104e-05 -109.8555484
-80.243053 -2.460755104e-05 -159.7253554
52.61818 -2.460755104e-05 -62.67768239
-222.499785 12.82080639 -151.4487234
-217.113621 18.60381339 -9.738598146e-05
-228.499785 49.21203539 -44.41942539
-224.485256 -2.460755104e-05 -223.3948414
-52.473671 -2.460755104e-05 -63.06322239
-228.499785 17.64743839 -248.4636384
-178.023054 -2.460755104e-05 -225.8450094
-224.154757 -2.460755104e-05 -120.5805964
-12.075187 -2.460755104e-05 -149.5209974
-122.088521 -2.460755104e-05 -32.08239239
53.091746 -2.460755104e-05 -225.9440114
119.705319 -2.460755104e-05 -214.0070284
131.795686 -2.460755104e-05 -121.6393124
115.877148 -2.460755104e-05 -243.6479014
23.595145 64.90593339 -9.738598146e-05
16.342915 -2.460755104e-05 -244.1351404
-222.499785 40.66094839 -201.8320584
61.644139 -2.460755104e-05 -189.4957864
75.580274 21.50704339 -9.738598146e-05
-218.60231 55.52967439 -9.738598146e-05
-196.739817 -2.460755104e-05 -243.0682334
-197.326944 -2.460755104e-05 -147.0197114
31.069968 -2.460755104e-05 -134.6064474
-1.366954 -2.460755104e-05 -76.56071839
227.421403 -2.460755104e-05 -180.4843544
37.852662 -2.460755104e-05 -38.50702039
-161.024668 -2.460755104e-05 -226.0255494
-153.168801 -2.460755104e-05 -217.0897614
-134.09894 5.465352392 -9.738598146e-05
-228.499785 39.06572839 -84.53333839
-117.314182 -2.460755104e-05 -161.1760424
183.738784 -2.460755104e-05 -48.14431639
-222.499785 32.87777439 -161.7465134
-222.499785 41.47754839 -223.2456184
18.565588 -2.460755104e-05 -169.2350724
11.646515 -2.460755104e-05 -91.91068139
-222.499785 4.747241392 -89.52351239
-178.221584 -2.460755104e-05 -141.2517094
230.446113 -2.460755104e-05 -17.80916039
235.963553 -2.460755104e-05 -168.8956754
-69.717814 -2.460755104e-05 -164.8290664
154.133639 40.51901139 -9.738598146e-05
233.931769 62.71097739 -9.738598146e-05
233.883619 25.05005439 -9.738598146e-05
-161.957436 -2.460755104e-05 -22.16424839
141.560601 -2.460755104e-05 -164.8054874
-21.868577 -2.460755104e-05 -119.2478204
61.54287 -2.460755104e-05 -156.4906094
-222.499785 11.87882339 -226.6402274
87.651656 -2.460755104e-05 -214.1703724
113.03694 -2.460755104e-05 -100.6662484
27.716037 -2.460755104e-05 -221.0851624
-113.061671 -2.460755104e-05 -131.3616114
-152.76376 -2.460755104e-05 -129.9184034
69.411927 -2.460755104e-05 -41.03838639
228.099697 -2.460755104e-05 -121.6573264
169.603163 -2.460755104e-05 -78.68877639
70.82389 -2.460755104e-05 -130.2758014
-158.566167 9.433162392 -9.738598146e-05
-222.499785 19.29637339 -183.4732814
-222.499785 41.41452039 -157.7429154
203.532517 -2.460755104e-05 -69.32903339
10.064639 -2.460755104e-05 -188.3527294
18.958759 -2.460755104e-05 -121.1698544
-201.058068 7.591501392 -9.738598146e-05
-165.839418 -2.460755104e-05 -65.61797539
-44.828094 -2.460755104e-05 -207.6816954
-222.499785 5.486530392 -201.7961684
-222.499785 34.57062539 -193.3285554
-228.499785 23.60966139 -160.0572314
-228.499785 7.072358392 -34.32827639
112.798316 -2.460755104e-05 -131.9738454
-174.315229 9.013981392 -9.738598146e-05
-122.549698 -2.460755104e-05 -20.17174439
-129.965256 -2.460755104e-05 -7.121722386
103.463761 -2.460755104e-05 -235.9784774
136.74593 26.86005539 -9.738598146e-05
107.678945 28.59431739 -9.738598146e-05
90.681961 -2.460755104e-05 -21.82907339
195.160537 30.06522839 -9.738598146e-05
-222.499785 24.90390639 -132.1132884
-222.499785 22.64901439 -146.3072634
-107.333609 -2.460755104e-05 -238.0106224
-228.499785 34.04884139 -29.72077439
166.532525 -2.460755104e-05 -230.6558714
25.457382 -2.460755104e-05 -79.86437039
202.869196 -2.460755104e-05 -84.32779339
-64.170989 -2.460755104e-05 -7.975560386
-113.99895 -2.460755104e-05 -64.32426539
-148.124722 -2.460755104e-05 -164.1307124
-48.285348 -2.460755104e-05 -143.8151454
42.719729 -2.460755104e-05 -84.67119539
-228.499785 20.27278239 -51.21414839
-222.499785 6.039731392 -115.9254414
-228.499785 23.60592439 -243.4326954
-76.440125 -2.460755104e-05 -210.4026914
-12.806261 -2.460755104e-05 -225.1563264
-228.499785 46.50443139 -119.9933154
6.86163 -2.460755104e-05 -147.4333224
71.029589 -2.460755104e-05 -146.0303144
208.543375 -2.460755104e-05 -119.3224554
110.32355 -2.460755104e-05 -113.8196814
-233.994599 -2.460755104e-05 -177.7907514
-94.476058 -2.460755104e-05 -173.2205314
152.227834 -2.460755104e-05 -169.5086684
194.608953 46.90906839 -9.738598146e-05
-228.499785 29.41816239 -83.54064139
-33.167081 -2.460755104e-05 -151.8764134
-184.026678 64.48472139 -9.738598146e-05
163.299809 -2.460755104e-05 -149.3161894
-179.949827 -2.460755104e-05 -100.6274304
-59.483837 56.42802639 -9.738598146e-05
205.902285 -2.460755104e-05 -248.0686824
-228.499785 5.966101392 -242.7238934
-228.499785 9.903923392 -133.8416884
-228.499785 43.05385339 -7.234473386
-77.704899 -2.460755104e-05 -115.5720374
148.178172 -1.572822608 -9.738598146e-05
-105.489434 -2.460755104e-05 -123.4899624
-246.868615 -2.460755104e-05 -162.4190014
-185.411934 -2.460755104e-05 -194.9608214
152.009296 -2.460755104e-05 -151.1258234
237.922476 -2.460755104e-05 -217.3951434
-165.233244 -2.460755104e-05 -240.6001594
148.485947 8.908689392 -9.738598146e-05
-98.637723 -2.460755104e-05 -151.6021264
-202.028285 -2.460755104e-05 -156.9811254
-228.499785 22.82266939 -100.3452974
-222.499785 38.20786839 -177.5407334
240.853509 -2.460755104e-05 -246.0476374
-168.822371 -2.460755104e-05 -166.4810934
104.68051 17.98987939 -9.738598146e-05
216.017352 -2.460755104e-05 -114.6587234
10.496541 55.81437839 -9.738598146e-05
-188.166147 -2.460755104e-05 -173.2371844
236.246069 -2.460755104e-05 -90.76458439
195.48459 -2.460755104e-05 -36.01567139
-216.93103 5.979741392 -9.738598146e-05
127.18153 -2.460755104e-05 -23.82707539
-45.758054 6.726954392 -9.738598146e-05
172.793889 -2.460755104e-05 -192.2327504
-136.919124 -2.460755104e-05 -41.60523539
-228.499785 21.91255339 -13.95358439
-222.499785 32.72339539 -130.6856514
-32.400891 -2.460755104e-05 -186.9069804
59.673181 -2.460755104e-05 -141.1520044
153.300611 -2.460755104e-05 -41.87241339
-221.842165 -2.460755104e-05 -53.03130639
128.278518 20.93495339 -9.738598146e-05
-222.499785 19.39935439 -199.2467834
-18.35222 15.01157239 -9.738598146e-05
16.644804 -2.460755104e-05 -215.1167944
-143.797274 -2.460755104e-05 -133.1153154
176.528793 -2.460755104e-05 -215.4329004
-110.640228 51.39899939 -9.738598146e-05
-239.457487 -2.460755104e-05 -130.3866354
-37.149166 -2.460755104e-05 -5.769888386
-228.499785 36.22320839 -123.9235044
220.993234 -2.460755104e-05 -128.2079854
-107.357411 58.89994139 -9.738598146e-05
158.922741 -2.460755104e-05 -111.5673724
-222.499785 9.792505392 -168.3355364
-96.574191 -2.460755104e-05 -132.8120884
-208.54773 -2.460755104e-05 -140.3766594
53.215584 -2.460755104e-05 -42.49177239
119.506866 -2.460755104e-05 -128.1941714
-77.087735 -2.460755104e-05 -123.1100924
-236.508683 -2.460755104e-05 -238.6087814
-28.727127 -2.460755104e-05 -198.7102224
213.143053 -2.460755104e-05 -6.977047386
-111.529639 -2.460755104e-05 -231.3916344
-222.719773 -2.460755104e-05 -165.5206514
35.268954 -2.460755104e-05 -101.6747824
-45.766926 -2.460755104e-05 -17.21931839
-100.585978 -2.460755104e-05 -29.65681239
162.932329 -2.460755104e-05 -33.96986539
117.972277 -2.460755104e-05 -223.8841954
49.018175 -2.460755104e-05 -201.6157334
109.146336 -2.460755104e-05 -51.31869339
-228.499785 23.16358739 -195.6428604
-73.62209 -2.460755104e-05 -75.45297739
-222.499785 16.73942139 -97.91948139
-222.499785 25.93911039 -75.63324139
-182.926357 -2.460755104e-05 -243.3370514
-183.495161 -2.460755104e-05 -33.22779039
-227.081211 -2.460755104e-05 -252.4338564
-29.89709 -2.460755104e-05 -81.12859839
-238.989843 42.15731139 -9.738598146e-05
60.198815 -2.460755104e-05 -205.7573204
72.783226 51.78168039 -9.738598146e-05
-169.571255 -2.460755104e-05 -52.89054539
233.255253 -2.460755104e-05 -30.42572839
167.309986 -2.460755104e-05 -47.42772439
69.362229 -2.460755104e-05 -21.67307439
-228.499785 38.48269839 -139.3373624
-222.499785 26.75715739 -5.612142386
151.390017 -2.460755104e-05 -127.6203114
161.432625 -2.460755104e-05 -0.449680386
182.342773 -2.460755104e-05 -233.8116254
21.536773 -2.460755104e-05 -182.4318704
108.206891 4.891020392 -9.738598146e-05
239.786106 -2.460755104e-05 -57.15698039
-222.499785 14.70844039 -127.5340124
151.550727 22.09330139 -9.738598146e-05
-2.337691 -2.460755104e-05 -186.2871964
0.7888600001 -2.460755104e-05 -235.3981604
-228.499785 41.86182839 -99.23030439
-113.074449 -2.460755104e-05 -89.41502039
187.877965 -2.460755104e-05 -21.26707539
-216.799258 -2.460755104e-05 -15.77341139
63.087403 -2.460755104e-05 -99.40485439
-220.464181 -2.460755104e-05 -178.5786404
234.838645 52.10062139 -9.738598146e-05
192.391851 -2.460755104e-05 -161.7111144
229.109879 -2.460755104e-05 -237.4683764
-135.94373 -2.460755104e-05 -27.99986439
-228.499785 23.54636839 -203.1900594
63.60088 -2.460755104e-05 -35.13002739
-212.851621 -2.460755104e-05 -221.9112804
218.880677 32.05136339 -9.738598146e-05
31.558652 45.73684239 -9.738598146e-05
-228.499785 13.52569539 -207.1724794
173.136735 55.00391139 -9.738598146e-05
186.579342 -2.460755104e-05 -12.59477339
12.937344 -2.460755104e-05 -46.78964239
-186.990768 40.62988339 -9.738598146e-05
-228.499785 15.31972139 -110.9232624
58.645907 -2.460755104e-05 -67.41892439
2.684603 -2.460755104e-05 -163.2803774
45.242407 -2.460755104e-05 -152.9392244
-228.499785 7.919980392 -230.7212094
-195.001966 -2.460755104e-05 -36.70209639
-222.499785 8.269620392 -75.97422439
-82.882954 -2.460755104e-05 -151.0514554
10.092967 -2.460755104e-05 -231.0281774
97.206329 -2.460755104e-05 -190.6583724
-129.865828 -2.460755104e-05 -34.39592939
-222.499785 28.08065039 -244.5480174
-228.499785 17.43910939 -233.6786904
-137.98902 12.52685939 -9.738598146e-05
221.130008 -2.460755104e-05 -16.89385439
-165.219304 -2.460755104e-05 -89.61125839
126.620916 -2.460755104e-05 -105.3323504
-228.499785 28.14255839 -51.30712339
79.473089 3.614548392 -9.738598146e-05
-176.851124 -2.460755104e-05 -74.81914739
86.095487 -2.460755104e-05 -7.051682386
-189.297388 -2.460755104e-05 -222.6701194
-193.061063 -2.460755104e-05 -159.4568344
-226.957812 -2.199976608 -142.4403944
151.937157 -2.460755104e-05 -181.9430924
-36.713796 -2.460755104e-05 -220.3178504
32.087187 60.66243239 -9.738598146e-05
200.100797 35.54222439 -9.738598146e-05
-228.499785 44.33697639 -237.6480504
-123.266495 -2.460755104e-05 -251.1897144
-222.499785 23.61127739 -32.80690139
-197.298755 53.43483039 -9.738598146e-05
-49.91848 -2.460755104e-05 -115.8757884
166.927183 -2.460755104e-05 -184.9563494
-77.012377 -2.460755104e-05 -138.4387584
-71.88963 38.54019339 -9.738598146e-05
-16.981426 -2.460755104e-05 -35.00533639
187.490656 -2.460755104e-05 -70.79661239
-245.0873 -2.460755104e-05 -25.66871339
-156.854617 61.27670139 -9.738598146e-05
-191.179539 -2.460755104e-05 -140.1533784
-85.187333 -2.460755104e-05 -98.42397339
-22.613091 35.25289439 -9.738598146e-05
-4.732448 9.512833392 -9.738598146e-05
-144.394029 -2.460755104e-05 -59.27910739
-45.766751 -2.460755104e-05 -82.46118339
-72.882856 -2.460755104e-05 -43.25401839
-222.499785 25.04027639 -174.7176284
174.995163 -2.460755104e-05 -110.9508674
-228.499785 12.78289439 -77.45744639
-228.499785 23.58918339 -62.58960239
83.218961 -2.460755104e-05 -64.05688239
13.972233 -2.460755104e-05 -106.0483234
-228.499785 12.81477639 -240.6691084
