# .PCD v0.7 - Point Cloud Data file format
VERSION 0.7
FIELDS x y z
SIZE 4 4 4
TYPE F F F
COUNT 1 1 1
WIDTH 1433
HEIGHT 1
VIEWPOINT 0 0 0 1 0 0 0
POINTS 1433
DATA ascii
196.07062 68.1190004 36.9999026
5.28702 168.4375894 36.9999026
-0.0002699995184 40.7964834 -35.2509284
219.42873 79.0786944 32.9999026
-0.0002699995184 5.374018398 52.4156416
29.03487 41.1015044 -42.3586944
-0.0002699995184 41.8274684 -4.465040401
143.00888 117.2429804 36.9999026
35.15014 -0.6404306022 -40.5541804
114.71392 22.0829884 -17.0762314
142.30112 17.2480574 -8.935709401
143.33672 11.5399964 -14.8857274
176.47431 45.9637884 32.9999026
14.56404 196.6645444 36.9999026
48.60012 145.0523314 36.9999026
76.05478 155.3907194 36.9999026
238.3329 38.9778734 19.4016716
44.95166 43.3487754 -37.6619154
-0.0002699995184 8.995382398 -23.5328904
140.97066 46.0732254 -15.5839104
29.01705 178.7296054 36.9999026
200.12352 38.6909494 8.126718599
203.38235 85.6997484 32.9999026
208.34522 64.7238384 36.9999026
116.88004 41.9124344 -16.4370474
77.87168 -2.460220276e-05 4.463811599
159.37023 -2.460220276e-05 35.5310406
138.73211 -2.460220276e-05 28.9834116
88.90796 9.696958398 -30.9466984
226.7139 65.6115064 15.9730986
238.04786 3.437580398 13.0618646
228.04529 12.1996594 10.1102806
224.3016 -2.460220276e-05 17.8071846
130.52213 107.2975294 36.9999026
39.02458 64.1978584 -39.4108984
16.65427 143.1180664 33.9082966
151.316 70.3380604 32.9999026
217.57736 50.6986974 36.9999026
159.20359 65.4514524 -3.948071401
123.41486 147.6698414 33.9199746
155.10779 97.7529174 36.9999026
181.62352 -0.9644676022 -3.587966401
6.36033 50.7201664 -49.0495744
117.19546 108.9749624 32.9999026
209.25618 47.3974184 32.9999026
236.08287 78.0361684 33.3556866
101.90546 -2.460220276e-05 -14.7390894
16.28012 30.8141554 -52.3778974
228.68388 49.1041414 36.9999026
136.49345 24.0610334 -16.9050564
225.45048 36.8269254 15.6002856
175.14608 85.3979294 32.9999026
63.25894 39.6270264 -38.5152744
36.95346 -2.460220276e-05 -3.949596401
-0.0002699995184 48.5107264 -40.9161664
126.75975 -2.460220276e-05 15.0637156
223.59474 27.7861564 15.0526866
193.54701 4.411224398 -0.06955540105
126.71337 -0.1243536022 -13.5354164
144.70058 -2.460220276e-05 35.7452346
92.68983 157.7244854 32.9999026
224.50831 3.912767398 9.066580599
6.87072 -2.460220276e-05 0.718916599
165.00003 24.9020464 -8.493265401
6.62154 36.9330454 -48.9724964
97.00665 53.6969614 -22.3013544
4.50799 220.9960083 32.9999026
34.5539 158.6423874 36.9999026
188.27265 60.1147914 -1.625926401
63.98775 29.9048794 -38.3002144
232.62744 49.0258504 17.7180856
130.03887 43.4627194 -18.8096894
153.80598 43.0331984 -5.540817401
216.84677 62.3670964 13.0614736
155.47738 24.9032804 -5.047613401
40.93115 170.8013144 36.9999026
203.82191 79.1835414 36.9999026
238.91726 27.8639274 13.3184096
164.39415 -2.460220276e-05 21.6208576
222.80695 36.5737544 32.9999026
181.82953 96.1999364 32.9999026
52.08372 36.0399574 -35.5573644
156.72174 -2.460220276e-05 52.6187826
160.69093 6.289763398 -3.509180401
102.76299 41.4907574 -26.8583234
15.23992 214.4849038 32.9999026
102.878 3.349550398 -26.8243864
21.64368 186.5904254 36.9999026
230.76805 20.9440094 10.9137186
192.59532 -1.196561602 5.905272599
50.37449 22.2643544 -36.0617294
181.15644 -2.460220276e-05 29.5683696
216.88614 6.205043398 6.817412599
121.73449 96.4217764 36.9999026
167.42482 41.7959434 -7.777752401
20.41367 1.852261398 -51.1581584
99.0861 131.0845714 32.9999026
9.20684 27.3207104 -48.2096174
199.1183 -2.460220276e-05 32.6785256
136.27815 104.7248694 32.9999026
18.24067 56.6319994 -51.7993744
-0.0002699995184 7.732709398 -1.462305401
30.48099 163.4230414 32.9999026
37.10812 67.4264624 -46.2319214
42.2023 189.6904744 32.9999026
14.65929 3.834424398 -46.6006894
106.47855 64.9177774 -19.5063544
207.82359 53.5353204 4.143213599
4.96957 180.2932534 32.9999026
54.64147 2.914949398 -41.0581384
49.30384 8.549706398 -36.3776584
99.93548 141.0171204 36.9999026
84.64739 38.9863524 -25.9483664
105.81884 16.7328584 -25.9565934
72.21821 22.4635894 -35.8715504
208.84783 40.0427734 4.445447599
-0.0002699995184 25.2335094 -29.7287404
73.62311 59.9290594 -35.4569894
26.60757 37.2766944 -49.3304494
52.23453 -2.460220276e-05 23.2404656
7.92684 -2.460220276e-05 -13.5637124
191.46661 40.6264014 -0.683444401
24.52703 -2.460220276e-05 -13.9422884
194.02084 48.0568634 0.07026359895
176.17658 -2.460220276e-05 37.2580876
149.37034 92.5209674 32.9999026
-0.8807999995 -2.460220276e-05 -37.4505274
169.57095 44.9009804 -0.888836401
178.17619 40.1927234 1.650427599
206.35322 -2.460220276e-05 20.5236026
73.80519 47.2052974 -29.1477194
36.5018 194.0117704 36.9999026
217.60284 19.4997014 32.9999026
109.9861 138.4656424 36.9999026
177.31522 114.3571044 35.1793356
13.48828 -2.460220276e-05 -4.420288401
166.43604 22.2970514 -1.813894401
148.65236 61.6042554 -7.061562401
237.83165 -2.460220276e-05 22.0754176
164.32078 121.9593774 36.9999026
105.7556 101.1503184 32.9999026
41.08033 60.1621934 -45.0597914
121.57439 79.2714344 32.9999026
242.10869 25.5900064 36.9999026
164.2006 17.7262464 -8.729163401
232.33867 65.2850654 32.9999026
215.74727 42.6122714 36.9999026
82.72415 -2.460220276e-05 -2.553581401
40.79733 -2.460220276e-05 -22.0645674
40.22395 -2.460220276e-05 13.8011976
138.89022 -2.460220276e-05 16.3536716
-0.8413999995 172.1713094 36.9999026
90.11148 -2.460220276e-05 34.7174266
234.78207 58.0257894 12.0981866
20.75628 12.0908824 -44.8015714
98.08289 -2.460220276e-05 -3.773119401
20.59679 33.5403294 -44.8486314
171.5996 -0.7507206022 -6.545850401
88.66754 2.493310398 -24.7620854
-0.0002699995184 12.6748164 -7.254094401
138.42345 78.5354834 36.9999026
34.05604 21.2759944 -47.1325354
-0.0002699995184 43.0902024 -18.7368764
53.6672 125.8874344 36.9999026
-0.0002699995184 17.7553644 39.1448016
139.36734 63.0606774 -9.801419401
-0.0002699995184 45.9975244 -48.2075634
52.95411 -2.460220276e-05 50.8885526
14.2706 15.4775164 -52.9708704
184.28159 57.5875184 32.9999026
69.84477 12.3364334 -36.5719094
61.53607 14.3523914 -39.0236634
144.35067 64.1961834 33.6365966
-0.0002699995184 33.0987564 -38.9366604
245.32965 31.0771164 15.2105926
-0.0002699995184 4.238329398 -7.586648401
189.84176 -2.460220276e-05 56.5932786
74.01503 -2.460220276e-05 -11.2893834
125.82032 87.1004924 36.9999026
13.72084 53.3658394 -46.8776104
227.88863 12.7456724 32.9999026
186.0548 -2.460220276e-05 41.2070746
58.27416 -2.460220276e-05 12.7395416
244.73912 53.2835974 36.9999026
150.42058 37.0746934 -12.7954054
174.03576 -2.460220276e-05 26.0444926
7.49366 61.6722724 -54.9706274
243.68416 32.8587914 32.9999026
84.85921 29.4029564 -32.1414134
199.19654 58.1924334 36.9999026
126.39643 51.2514254 -19.8845114
88.41663 13.0013674 -24.8361254
40.66336 154.7073194 32.9999026
136.43613 12.9403274 -16.9219714
213.08818 81.8829354 32.9999026
232.36678 19.9696144 32.9999026
39.40468 28.1592804 -39.2987354
42.99499 144.4258954 32.9999026
120.81403 -2.460220276e-05 4.900566599
231.01894 50.9752064 10.9877526
162.52378 59.2719584 -9.223963401
126.04741 112.8728834 32.9999026
163.20728 85.0884374 32.9999026
-0.3616599995 14.6417894 -46.8211864
248.56535 66.7022464 22.4210976
125.42886 62.1219184 -20.1700234
-0.0002699995184 26.8200964 32.0908756
27.29727 206.7328924 36.9999026
133.58661 55.5155224 -11.5072154
204.39497 48.7583464 9.387154599
-0.0002699995184 0.0543163978 12.3995426
77.1094 -2.460220276e-05 32.0523416
57.50456 62.0266594 -40.2132904
226.14193 53.0130634 15.8043206
234.61944 56.4649684 32.9999026
32.0843 61.4959214 -47.7143624
30.12352 -2.460220276e-05 -26.5382114
83.44676 -2.460220276e-05 11.9816996
57.45154 10.3563674 -33.9734094
59.26833 116.7807354 36.4090686
192.31227 42.8330644 36.9999026
121.57717 125.5431584 36.9999026
35.37915 42.7846514 -46.7421094
-0.0002699995184 29.3155714 54.6392586
65.15055 -2.460220276e-05 16.4181966
246.04793 65.8388244 36.9999026
74.25181 133.7915814 36.9999026
-0.0002699995184 38.8337324 13.7967826
116.06153 43.5932164 -22.9341564
66.54492 35.9035174 -31.2901044
211.18361 46.3442064 5.134695599
-0.00763999952 49.9999754 45.6402776
-0.0002699995184 43.7158104 -29.1621374
118.5506 136.4126114 32.9999026
26.03041 16.6485814 -43.2452604
102.95734 39.1280794 -20.5454044
56.67611 52.0593154 -40.4577494
203.17068 48.7624004 36.9999026
30.2246 51.7312504 -42.0076254
242.6793 6.285695398 36.9999026
82.36458 18.0359674 -26.6219844
80.8973 109.6600324 36.9999026
198.23323 99.6835894 36.9999026
73.65026 36.3374234 -29.1934354
222.95339 56.8591834 32.9999026
251.71187 -2.460220276e-05 32.5024736
183.30747 110.6536344 34.3959876
196.75622 61.9471924 7.133086599
242.77176 67.9999754 17.3014346
170.78264 30.6275564 -0.531286401
212.43338 62.9052774 5.503482599
145.77611 82.9403824 36.9999026
125.57587 16.1085494 -13.8710514
124.28689 32.1260464 -14.2514094
158.29383 14.3818074 -10.4721494
80.63142 119.7411144 36.9999026
184.58133 40.6272214 3.540476599
62.78232 58.2501764 -32.4003844
116.69466 5.078487398 -22.7473314
248.72887 9.251454398 16.2136426
50.26112 192.8418314 36.9999026
38.51325 140.4169234 36.9999026
142.46312 126.5199914 36.9999026
-0.0002699995184 20.2912084 16.9424066
135.64917 61.4774974 -17.1541884
192.60069 36.0031084 5.906858599
226.78281 73.5603604 36.9999026
243.2392 -2.460220276e-05 45.4477856
20.33339 173.2166344 32.9999026
0.2112800005 1.502814398 -50.8449214
146.55219 67.9999754 -11.9498334
173.08138 54.3898754 0.147033599
86.0246 170.6762454 32.9999026
147.26917 3.437340398 -13.7253304
165.88923 58.2249844 -1.975249401
-0.9001399995 184.9327044 32.9999026
3.14406 4.732450398 -56.2541184
4.15777 49.5408144 -55.9549904
203.80325 4.930566398 9.212545599
86.49339 148.0914414 36.9999026
167.81057 95.4632194 32.9999026
-0.0002699995184 26.6202534 10.1203356
21.15509 204.0665004 36.9999026
210.30628 -1.309079602 11.1313436
138.66344 -2.460220276e-05 5.278154599
165.17359 114.1245464 36.9999026
159.78096 93.2051764 36.9999026
105.68948 51.5908684 -19.7391944
216.83493 89.9322234 36.2991516
46.68264 170.3404714 32.9999026
76.69856 25.8875174 -28.2939344
212.63474 -2.460220276e-05 17.7955076
183.01435 28.5191444 3.078087599
75.76836 143.5761274 36.9999026
66.56018 121.7752714 36.9999026
35.11707 -2.316432602 -46.8194454
115.78569 90.2386224 36.9999026
217.35241 38.1704584 13.2106796
23.33633 -2.460220276e-05 -21.1153564
173.09561 64.0799904 -6.104402401
87.4176 135.0842734 32.9999026
27.04901 -2.460220276e-05 39.1859396
-0.0002699995184 49.6924804 -10.8822104
204.92861 27.7038664 9.544621599
123.92315 -2.460220276e-05 28.1678096
244.2921 62.0420844 21.1601326
231.09669 -2.460220276e-05 46.5961006
57.42838 167.1254414 32.9999026
-0.0002699995184 43.8125464 57.4275436
4.31593 -2.460220276e-05 6.626488599
-0.0002699995184 0.4245563978 -19.3570124
40.25359 53.7944374 -45.3037484
98.16511 34.4487794 -21.9595114
123.87369 38.5264674 -14.3733354
46.72519 35.7555234 -43.3940924
22.17998 61.7567384 -50.6369524
188.59535 61.8300104 4.724948599
19.05521 48.8262924 -51.5590164
6.54152 198.2653404 36.9999026
172.77027 67.3326154 32.9999026
189.47717 4.292477398 4.985158599
158.83696 65.6655574 -10.3118804
148.41446 17.1848394 -7.131762401
246.44109 14.0441454 21.7942646
209.44677 76.2275364 36.9999026
73.69189 6.698289398 -29.1811514
108.2443 107.8366164 36.9999026
251.93933 9.809057398 32.9999026
101.89875 146.2717604 32.9999026
-0.0002699995184 14.1306914 53.8021296
111.9776 5.710142398 -17.8836764
-0.0002699995184 43.1476604 1.725969599
160.53966 32.0826094 -9.809443401
225.56887 59.3999634 15.6352196
122.83163 -2.460220276e-05 -8.322583401
15.23607 209.6012884 36.9999026
32.36358 148.3126034 32.9999026
59.26047 -2.460220276e-05 48.1669696
137.11655 31.8951794 -10.4655884
168.50362 1.627141398 -1.203787401
19.80177 40.9977444 -45.0832284
248.70158 23.3408624 32.9999026
19.3817 164.1283454 32.9999026
108.67306 28.0888234 -18.8587914
171.09099 18.3039984 -0.440295401
199.40914 42.5977834 32.9999026
242.5005 13.5869254 36.9999026
193.85019 72.4185434 32.9999026
92.7683 31.0867104 -23.5520214
119.9347 51.9735884 -21.7912524
146.20767 73.9769774 32.9999026
2.19544 17.5514244 -56.5297584
157.59212 -1.953683602 -4.423589401
88.51925 114.8462404 36.9999026
24.63324 192.2325234 36.9999026
101.11141 26.0171084 -27.3456744
94.3092 127.0694794 32.9999026
179.40657 46.1026464 -4.242148401
56.30022 67.9999754 -36.5253424
50.58463 131.6340834 32.9999026
56.3632 -2.460220276e-05 -17.4574244
-2.2321 -2.460220276e-05 33.9058256
99.09125 55.3717294 -27.9417894
131.58518 33.7225664 -18.3534004
101.42296 114.1382354 36.9999026
1.80924 -2.460220276e-05 54.9903526
152.74959 36.9062354 -5.852538401
207.59329 12.1509224 4.075254599
216.88171 47.0744394 13.0717846
33.34671 48.6323054 -47.3418474
109.74179 39.0164214 -18.5434264
10.56057 67.9999754 -49.4047584
-0.0002699995184 7.376201398 37.9534376
29.86242 154.0690464 36.9999026
108.44875 151.2160704 36.9999026
105.12687 2.882733398 -19.9052114
20.98315 -2.460220276e-05 43.9162896
176.81018 -2.460220276e-05 9.989926599
39.04577 21.9064814 -39.4046464
127.99034 144.8419974 36.9833896
75.55075 66.9090924 -34.8881764
170.31641 12.7040814 -6.924497401
105.78504 143.5973244 36.9999026
18.30259 -1.039209602 -45.5254834
182.78809 100.8050984 36.9999026
54.27018 160.5417204 32.9999026
173.37445 54.1610124 36.9999026
74.53127 168.4468074 32.9999026
236.25055 -2.431892602 12.5315086
190.35089 29.9082304 5.242980599
87.82378 53.3181344 -25.0110654
161.83666 51.7175734 -9.426720401
233.61291 10.2940154 18.0088826
211.82995 61.6454514 32.9999026
180.07469 52.3712034 36.9999026
136.37626 84.3134444 36.9999026
135.06107 67.9999754 -16.0831554
-0.0002699995184 38.8220964 35.0545346
124.9042 62.0648444 -14.0692494
139.56962 6.842653398 -15.9973324
-0.0002699995184 32.6792454 6.120760599
67.7705 59.0394114 -37.1839904
67.96248 -2.460220276e-05 2.264906599
-0.0002699995184 4.764007398 21.0205836
10.0394 -2.460220276e-05 16.1622746
43.68854 -2.460220276e-05 -15.4102844
201.67857 35.0123774 2.329925599
215.81434 13.2073924 12.7568196
153.99378 83.6664834 32.9999026
51.71383 65.0212414 -41.9220314
215.62118 20.3996644 6.444145599
236.19075 40.0627294 36.9999026
-2.03495 202.2995484 32.9999026
85.81716 106.0749144 36.9999026
192.48702 65.2531544 32.9999026
98.63288 25.4915534 -21.8214794
105.40875 30.7046074 -26.0776044
211.97277 33.8340314 11.6232356
129.85533 5.590883398 -12.6082534
192.88371 89.1812784 36.9999026
74.86033 116.6577244 36.9999026
112.90352 -2.460220276e-05 24.8869046
111.32668 130.3808314 32.9999026
199.3031 24.3876054 1.628965599
38.23053 -2.460220276e-05 -12.7617424
238.96623 49.9345034 36.9999026
124.564 135.8923414 32.9999026
61.59731 131.0509764 32.9999026
192.27875 55.7599664 -0.443795401
1.72803 -2.460220276e-05 -12.5263224
156.80657 -2.385838602 -10.9110114
15.40468 184.8722954 36.9999026
-0.0002699995184 20.6647874 -13.6371104
176.56341 75.2897294 32.9999026
160.39452 106.1086344 36.9999026
161.12781 38.9394394 -3.380266401
137.56796 39.1389034 -10.3323844
17.83027 153.6888424 36.9999026
40.23778 134.5161444 32.9999026
211.33874 68.0001494 32.9999026
10.86177 210.3024324 32.9999026
157.5895 -2.460220276e-05 59.9690526
14.57635 63.8380954 -46.6251644
168.85157 81.0170504 32.9999026
88.63209 165.2910464 32.9999026
111.95368 66.5565564 -17.8907324
84.57054 112.7256094 32.9999026
27.08628 146.4224994 36.9999026
219.16976 -2.460220276e-05 20.7818946
31.39187 28.1623064 -47.9186844
9.74072 217.4876506 36.9999026
100.20359 98.0404844 36.9999026
165.79147 -2.460220276e-05 28.5072166
8.64279 153.2531384 32.9999026
214.63062 30.1545174 36.9999026
59.31433 157.1470724 36.9999026
162.47914 71.1340104 32.9999026
16.66269 -2.460220276e-05 7.840610599
213.29352 4.263595398 12.0129676
195.11313 32.8227954 36.1511286
55.56288 -0.5661566022 -34.5307204
14.66765 148.5882834 32.9999026
187.40993 46.0942434 36.9999026
66.86494 149.2439694 36.9999026
117.83158 145.9285714 32.9999026
245.72575 43.6684724 36.9999026
68.29304 138.3484054 36.9999026
-0.0002699995184 39.7584804 -9.929669401
92.38072 19.7339514 -29.9219474
91.72448 144.9200214 32.9999026
131.42094 121.1047384 36.9999026
160.85524 57.6764624 36.9999026
230.06306 4.476288398 10.7056906
4.90512 35.4632204 -55.7344604
155.11108 65.9354204 32.9999026
156.97718 114.1156734 32.9999026
210.21801 28.4757514 32.9999026
250.47783 29.8237894 22.9854396
183.24349 62.4790554 36.9999026
158.76688 -2.460220276e-05 20.2178546
227.65277 42.4014724 36.9999026
228.70854 67.3914414 36.9999026
187.58311 -2.460220276e-05 18.7009226
157.3987 77.8645374 32.9999026
206.40113 52.8639014 32.9999026
13.02327 61.1237434 -53.3389364
-2.32738 49.9999754 5.916579599
-0.0002699995184 15.7755834 -30.7618544
210.15013 28.9018394 4.829733599
-0.0002699995184 22.8692504 51.5501266
202.92486 91.7859994 32.9999026
-0.0002699995184 17.2660394 30.9693306
99.07633 162.4655294 32.9999026
26.16542 -2.460220276e-05 8.683859599
70.82943 110.2672404 36.9999026
150.16022 -2.460220276e-05 19.4299686
227.67577 67.9030304 10.0012416
165.06357 60.0390714 32.9999026
3.79271 28.6596754 -56.0627114
229.41594 60.0570564 10.5147346
250.62012 54.4720954 32.9999026
221.67914 26.8960304 36.9999026
173.07431 73.1260754 36.9999026
52.27074 185.1668764 32.9999026
51.00361 139.0635894 32.9999026
204.84201 59.0869464 36.9999026
52.82515 153.0403914 36.9999026
182.71048 63.4423154 2.988419599
138.72391 89.5129614 36.9999026
177.10267 -2.460220276e-05 21.2389196
-0.0002699995184 44.5317314 13.6316056
58.70645 174.6235574 32.9999026
193.26444 67.9999754 5.421712599
82.87261 53.6193404 -32.7276224
-0.0002699995184 20.6050864 -0.112448401
44.07001 6.956779398 -37.9220754
37.76735 11.9090804 -46.0373924
184.74885 93.4187564 36.9999026
197.55502 -2.460220276e-05 9.319502599
1.941 161.5940494 32.9999026
44.4775 163.5991604 36.9999026
228.47748 33.7724444 10.2378116
24.93249 54.8789024 -43.5692404
107.11978 120.0972474 32.9999026
192.63546 50.1778664 32.9999026
97.22898 138.0584424 32.9999026
114.43133 96.5050564 36.9999026
180.62405 42.1122854 32.9999026
-0.0002699995184 43.7467744 32.2658806
132.28399 126.6978554 36.9999026
70.43613 125.8928594 36.9999026
61.84307 -2.460220276e-05 0.515085599
15.42015 179.8746604 32.9999026
228.99667 27.4299144 16.6467066
143.3143 110.8068844 32.9999026
64.83184 -2.460220276e-05 -8.492676401
133.03647 140.7028754 36.9999026
237.45224 67.9999754 15.2005186
137.97208 131.0849254 36.9999026
173.6087 104.2371954 32.9999026
151.83528 126.3610104 32.9999026
-0.0002699995184 13.0063584 16.3813866
24.18619 6.057442398 -50.0449534
57.64138 183.4033954 32.9999026
201.32947 64.9224124 8.482575599
128.62112 96.5795294 36.9999026
106.7584 -0.5417156022 -25.6793484
90.03831 154.8161394 36.9999026
68.13795 168.9491684 32.9999026
70.9525 145.6099794 32.9999026
84.85602 125.2621884 32.9999026
35.28794 -2.460220276e-05 52.8751606
65.12442 67.7842294 -31.7092704
42.00306 48.0154274 -38.5319994
111.93537 47.1592954 -24.1517134
2.99821 217.4048077 36.9999026
216.35436 27.4114024 6.660492599
241.30877 45.1887074 32.9999026
42.43131 179.4220444 36.9999026
80.51956 -2.460220276e-05 17.2330696
176.76447 19.6128134 -5.021787401
1.49968 167.6487424 32.9999026
186.95782 17.4408464 -2.013908401
-0.0002699995184 28.3917904 26.7558846
240.03822 -2.460220276e-05 29.6704206
240.13423 34.3798644 36.9999026
152.31637 118.7869074 36.9999026
240.65793 64.4995714 36.9999026
-0.0002699995184 30.4882214 -7.681616401
-0.0002699995184 22.5090724 -49.9108794
247.06063 36.7966144 36.9999026
32.11996 -2.460220276e-05 -13.1007784
212.53279 39.5655174 32.9999026
18.20913 197.8615794 32.9999026
144.45204 16.9555884 -14.5566184
124.91821 93.9310464 32.9999026
71.82081 160.1546254 36.9999026
77.50923 15.3126964 -28.0547174
213.09277 13.8635504 5.698055599
2.85578 151.6461274 33.0931156
162.53063 39.6687544 -9.221944401
7.8329 171.2801284 32.9999026
196.13431 12.7078294 6.949570599
88.06916 -2.460220276e-05 26.1643596
69.26871 9.731857398 -30.4863584
232.02147 75.3273984 36.9999026
62.83132 165.6842054 32.9999026
6.26146 162.6604474 36.9999026
-0.0002699995184 34.0532014 43.4082596
173.65556 58.7834454 32.9999026
191.17726 105.3466714 36.9999026
188.43614 45.1348604 -1.577682401
1.56103 175.0883554 32.9999026
79.73593 36.1568164 -27.3976574
219.16968 35.6857904 36.9999026
78.32552 150.1160334 32.9999026
48.24237 181.4701264 32.9999026
138.87463 115.4107364 32.9999026
186.94462 52.0898384 36.9999026
-0.0002699995184 41.5930094 -40.7909684
1.59982 189.7645014 32.9999026
165.87285 34.6080684 -8.235711401
110.88711 113.8058054 32.9999026
183.52223 32.1367484 -3.027689401
135.32249 69.7759914 35.4655856
94.17471 113.6874294 36.9999026
195.14783 -2.460220276e-05 54.4127226
124.25608 81.7769464 36.9999026
203.5473 15.5631754 2.881354599
45.8709 15.9975454 -43.6461774
52.0435 166.5333784 32.9999026
189.24754 79.6376004 32.9999026
233.50021 37.0044334 17.9756256
-0.0002699995184 35.7482724 -5.307460401
212.91798 35.2858754 36.9999026
36.9462 -2.460220276e-05 -34.4159174
61.47311 50.0137244 -39.0422404
168.65925 99.6342004 36.9999026
140.335 94.7651484 32.9999026
223.93969 4.699659398 15.1544766
74.21612 175.8036894 36.9999026
251.56228 67.9999754 17.7007296
-0.0002699995184 7.678057398 5.068278599
65.36307 154.5349694 36.9999026
85.91027 130.9464734 36.9999026
165.15873 51.3547694 36.9999026
225.29854 50.3438234 32.9999026
186.40509 74.9333004 36.9999026
104.84683 131.1884444 32.9999026
39.1118 130.5832424 36.9999026
116.08585 121.8213574 36.9999026
221.99012 64.1974024 32.9999026
77.2792 138.4335994 36.9999026
-0.0002699995184 27.7415614 -0.538626401
180.03176 45.8933804 36.9999026
210.43504 92.4022004 36.9999026
110.50074 -2.460220276e-05 -10.8889304
230.78462 70.4037534 32.9999026
-0.0002699995184 18.7194164 -41.6382464
134.67884 93.5805534 36.9999026
82.15159 62.6564954 -26.6848354
183.35886 83.2113544 32.9999026
154.70979 74.8570364 36.9999026
216.73959 76.7833584 36.9999026
35.44886 173.8598294 32.9999026
98.526 149.1786804 36.9999026
198.68946 58.0985204 1.447890599
141.64292 60.9698004 -15.3855404
105.48931 8.276050398 -19.7982604
97.05394 103.5748254 32.9999026
185.96369 2.205681398 -2.307258401
74.16164 58.9208044 -29.0425364
108.81591 123.1527244 36.9999026
149.0037 131.8548364 36.5466546
-0.0002699995184 4.998021398 -27.0238034
156.74928 108.2824434 32.9999026
-0.0002699995184 15.4688194 24.1959596
79.31646 156.5937024 32.9999026
246.88752 58.1280554 36.9999026
232.53369 -2.460220276e-05 22.0792756
28.59216 159.8063924 36.9999026
-0.0002699995184 29.0250354 -25.7073034
116.72613 81.2693434 33.7425576
1.46374 209.7438994 32.9999026
174.81004 88.8444424 36.9999026
88.55613 24.7314974 -24.7949604
161.16752 8.313686398 -9.624171401
171.20737 112.3597204 36.9999026
11.60777 194.8829284 32.9999026
161.0569 63.4808944 32.9999026
196.73535 55.7792934 32.9999026
143.45105 76.0412224 36.9999026
106.52173 87.5761014 33.2247896
99.41202 125.7269904 32.9999026
17.192 203.1208914 32.9999026
-0.0002699995184 33.9783424 11.7449246
186.07639 54.6615024 -2.274002401
168.51543 59.2392194 36.9999026
10.86337 15.2718894 -47.7208044
100.82232 135.8274164 36.9999026
51.29232 156.0943714 32.9999026
174.49745 29.3087144 -5.690744401
11.73571 33.2683094 -47.4633904
74.71234 130.4161594 32.9999026
-0.0002699995184 34.5394434 54.0900296
130.5303 112.5498334 36.9999026
140.27167 121.7221274 36.9999026
61.47509 154.4454964 32.9999026
114.93652 11.9725304 -17.0105484
8.55719 189.6202224 32.9999026
207.39659 26.5912164 36.9999026
54.11532 145.5394884 32.9999026
35.32595 155.3504504 32.9999026
138.82109 38.9957054 -16.2182104
186.14166 100.3977594 32.9999026
219.65636 55.5027564 36.9999026
137.47243 13.8474074 -10.3605754
177.22486 81.8535254 36.9999026
-0.0002699995184 23.0301504 21.3945416
45.08461 192.1197934 36.9999026
92.95345 135.0532404 32.9999026
18.40629 178.3288334 36.9999026
-0.0002699995184 32.0232634 -18.1287684
111.62505 141.3963804 32.9999026
135.26117 87.4775744 32.9999026
56.16887 139.8159784 32.9999026
105.19805 94.0724954 32.9999026
-0.0002699995184 9.330452398 -34.7327444
15.27346 168.2838324 36.9999026
238.16787 26.1822584 32.9999026
33.01051 47.1034304 -41.1855494
-0.0002699995184 39.7732834 -24.8607154
215.90439 24.8985394 32.9999026
175.37007 49.1110524 36.9999026
-0.0002699995184 45.3750834 39.3108326
119.74845 149.7109844 36.9999026
34.93236 166.1183674 32.9999026
136.17481 -2.460220276e-05 48.3433946
196.41202 94.0236634 36.9999026
170.89425 83.8871064 36.9999026
-0.0002699995184 47.6886984 -15.6912404
52.98753 23.0753664 -41.5461864
85.51971 159.9655844 32.9999026
25.09232 175.2803214 32.9999026
195.46989 18.5418134 0.497852599
39.15994 188.4268174 36.9999026
141.2608 129.5867354 32.9999026
-0.0002699995184 36.4094514 48.7233466
186.2449 -1.316846602 4.031370599
234.55389 29.9789404 32.9999026
214.37996 49.9784414 32.9999026
126.00724 122.8790894 36.9999026
109.88877 104.2547624 32.9999026
10.25771 185.3026334 36.9999026
26.15471 137.5586664 36.9999026
187.46003 89.0296624 36.9999026
134.807 120.1818504 32.9999026
158.51152 124.8061094 32.9999026
-0.0002699995184 25.5888794 -9.291089401
-0.0002699995184 44.7686244 -8.717615401
25.76304 195.2738804 32.9999026
200.40346 53.1900874 36.9999026
114.87931 99.9045684 32.9999026
184.84242 69.3760234 32.9999026
0.6038700005 40.4320034 -50.7482104
17.31042 190.3236494 36.9999026
147.47621 89.9133184 36.9999026
89.85805 151.0559884 32.9999026
226.82306 34.0727814 36.9999026
200.25844 86.4750034 36.9999026
87.40444 7.976981398 -25.1348054
58.72165 186.5170334 36.9999026
26.84478 149.6287044 32.9999026
220.80155 74.1345704 32.9999026
95.84925 45.5188834 -22.6428834
123.13765 43.6167504 -14.5905314
55.7416 169.8534134 36.9999026
-0.3993999995 49.9999754 0.681563599
21.32735 144.9996334 32.9999026
81.50209 44.5804244 -33.1320424
54.04683 28.8155124 -41.2336064
-0.0002699995184 39.5483464 18.8637846
65.58911 -2.239635602 -31.5721474
177.46573 -2.460220276e-05 50.7510056
-0.0002699995184 4.545780398 42.6929706
177.02195 8.621410398 1.309830599
65.09454 177.9136234 32.9999026
160.53357 116.2460764 36.9999026
-0.0002699995184 46.4342464 53.0516686
206.5612 83.4865934 36.9999026
167.85522 105.6825124 32.9999026
200.66256 79.0592414 32.9999026
136.79119 108.0111384 36.9999026
96.195 108.4430734 36.9999026
155.93206 5.128556398 -4.913444401
-0.0002699995184 25.4763614 -36.6170244
88.6928 102.0904314 32.9999026
-0.0002699995184 44.6744994 18.8712256
244.61743 60.6593664 15.0004266
159.4256 100.4310964 36.9999026
155.81386 61.6804974 -11.2039434
81.9443 -2.460220276e-05 45.1654936
67.33626 158.7310574 32.9999026
61.54019 141.0384964 32.9999026
61.62426 53.3258904 -32.7421084
23.87605 41.6918014 -50.1364724
-0.0002699995184 38.5655654 -14.8569054
56.80095 124.3101504 32.9999026
111.53541 118.8815984 36.9999026
136.97309 -2.460220276e-05 -0.288620401
227.68129 21.8828504 32.9999026
232.24809 25.0503194 32.9999026
57.45688 177.4575354 36.9999026
113.95521 108.0666514 36.9999026
128.10133 101.3838214 32.9999026
77.65733 120.5838404 32.9999026
24.3306 -2.460220276e-05 31.3328756
61.6502 125.3329404 36.9999026
166.97317 -2.460220276e-05 47.9569136
79.00417 159.9630504 36.9999026
-0.0002699995184 12.2250634 -19.6545384
109.31617 135.4618804 32.9999026
165.91122 80.1396304 36.9999026
47.82979 190.7506594 32.9999026
32.36827 137.5338784 36.9999026
143.48225 103.7106844 32.9999026
50.73909 50.0239974 -42.2096614
237.7217 65.3635474 32.9999026
161.4493 60.9928164 -3.285398401
11.9123 191.1753874 36.9999026
31.47065 194.0829224 36.9999026
202.07166 68.9279604 36.9999026
59.38862 -2.460220276e-05 6.146811599
120.06476 107.9592094 36.9999026
-1.43957 49.9159764 -51.0000974
67.00695 173.5338204 36.9999026
62.88401 -2.460220276e-05 -20.4842624
151.39589 108.8882484 32.9999026
231.71926 43.8114764 32.9999026
27.01833 203.7281294 32.9999026
130.8615 132.7426394 36.9999026
118.57981 125.1981844 32.9999026
106.59967 125.5029444 32.9999026
147.29561 105.6097944 36.9999026
113.92781 148.4397344 36.9999026
190.87284 35.4434824 35.6972806
137.67268 138.8578964 36.6056386
135.2624 28.8988544 -17.2683184
44.83038 158.6068814 36.9999026
201.93678 40.1130524 36.9999026
242.52045 55.2826294 32.9999026
215.69457 58.4885814 32.9999026
28.28844 171.1896614 36.9999026
121.12743 120.0417014 36.9999026
202.36822 28.9852534 36.9999026
247.01876 40.2663904 32.9999026
100.94981 110.6974124 32.9999026
178.55404 99.9426454 32.9999026
6.62243 31.4986854 -48.9722324
227.01287 32.1302884 16.0613186
164.92567 12.8130994 -8.515208401
130.91977 88.6283454 36.9999026
-0.0002699995184 28.5064684 -40.8365384
192.97684 83.0537864 32.9999026
17.63704 161.7598134 36.9999026
235.38765 22.1360514 12.2768826
248.80237 18.3098154 32.9999026
60.72399 35.4282584 -39.2632914
221.10826 21.9703854 36.9999026
240.44294 8.688665398 32.9999026
124.64721 142.9603394 32.9999026
230.37226 11.0311374 36.9223506
148.48789 95.2978574 36.9999026
56.02041 -2.460220276e-05 42.8205776
38.71361 175.2206664 36.9999026
129.15983 37.9696794 -19.0690784
73.97871 153.3675184 32.9999026
51.87628 150.3059054 32.9999026
125.94145 105.4552564 36.9999026
181.95464 80.4398414 36.9999026
218.52601 86.6733544 32.9999026
177.95272 109.4643464 32.9999026
156.74545 101.5090244 32.9999026
-0.0002699995184 19.7344074 43.6595706
160.01076 11.1898954 -3.709888401
46.89482 165.4172814 32.9999026
25.65837 189.5435054 32.9999026
190.1599 71.7427184 36.9999026
114.3981 48.7863554 -17.1694264
8.34364 166.3852434 32.9999026
150.58105 87.7553434 32.9999026
-0.0002699995184 9.624171398 -11.1087264
238.11176 74.4836144 36.9999026
-0.0002699995184 11.6792444 -27.6489734
70.6155 179.8846014 32.9999026
105.9332 152.5577104 32.9999026
33.57864 176.9098354 36.9999026
24.04342 182.3060154 36.9999026
125.05709 100.0373264 36.9999026
162.62754 -2.460220276e-05 41.7531296
143.04431 95.6327814 36.9999026
141.97472 100.6690044 36.9999026
25.79195 159.3235154 32.9999026
149.12329 42.5914534 -6.922600401
243.418 18.4029154 32.9999026
210.02698 34.5360704 32.9999026
121.14814 84.1529954 32.9999026
177.7693 71.7259244 36.9999026
219.00234 28.8227804 13.6975466
152.0366 59.8333764 32.9999026
106.64958 23.1230004 -25.7114574
-0.0002699995184 12.0375164 39.4587516
246.41341 21.6804224 36.9999026
79.971 124.9262134 32.9999026
130.15979 73.0621394 32.9999026
142.05219 12.3586754 -9.009163401
103.59715 150.5566044 36.9999026
104.08383 21.9291244 -20.2129954
244.51 62.7656284 32.9999026
233.66704 62.8119674 36.9999026
71.27327 170.3450074 36.9999026
58.22505 -2.460220276e-05 34.3695646
224.33539 46.8818194 36.9999026
97.77043 -2.460220276e-05 -8.646416401
56.80645 161.7194534 36.9999026
-0.0002699995184 20.1162094 5.583069599
192.19792 65.6693764 -0.467648401
65.23981 117.1738704 32.9999026
236.20236 15.8657934 36.9999026
147.62314 -2.460220276e-05 55.9714196
99.63501 118.3466494 32.9999026
41.5486 -2.460220276e-05 21.9720706
30.20371 176.2196344 32.9999026
63.58519 143.0783524 36.9999026
68.1593 124.0321824 32.9999026
233.43975 50.1173494 36.9999026
138.2857 75.7742474 32.9999026
228.41979 21.8213634 16.4764776
147.28494 129.0096924 32.9999026
206.96991 61.5767634 32.9999026
30.48593 185.4618614 32.9999026
40.0929 157.5499114 36.9999026
11.00315 207.2268534 36.9999026
185.92019 106.8096524 32.9999026
7.59859 184.3710914 32.9999026
171.0503 93.2275584 36.9999026
47.42209 124.1022274 35.3039466
62.12588 148.8081984 32.9999026
119.33123 95.1151224 32.9999026
234.85856 21.0963154 36.9999026
70.70529 142.5484614 36.9999026
117.83429 130.7201604 32.9999026
201.855 99.0090324 32.9999026
226.77062 64.9422344 32.9999026
147.73826 120.3508904 36.9999026
205.63605 92.9959574 36.9999026
214.43372 67.0344484 36.9999026
205.73207 30.2778624 32.9999026
53.55352 138.1345134 36.9999026
39.66111 164.6616274 36.9999026
-0.0002699995184 6.096939398 -19.6658254
248.93984 -2.460220276e-05 39.1292336
228.0204 37.9359904 32.9999026
128.02662 108.3390604 32.9999026
114.37179 55.3538704 -17.1771884
-0.0002699995184 35.8761644 -49.2684304
200.85321 50.5267484 32.9999026
222.86389 39.2698184 36.9999026
156.55265 33.4725544 -4.730320401
217.89748 63.6465964 7.115839599
190.68528 96.0899804 32.9999026
72.79781 114.7009394 32.9999026
133.69604 79.4608754 36.9999026
106.77318 -2.460220276e-05 20.8735696
131.44315 77.7787294 32.9999026
47.42499 57.3153034 -36.9320764
105.70494 106.9914854 32.9999026
245.17169 28.2818124 32.9999026
121.02057 87.4212824 36.9999026
202.15054 58.6687124 32.9999026
200.62863 37.7857084 32.9999026
-0.7942699995 -2.460220276e-05 50.9474976
159.70478 22.9810514 -3.800176401
59.6085 135.8581034 32.9999026
157.36219 87.0946294 32.9999026
207.78867 45.3860554 10.3885776
30.86743 201.2789984 36.9999026
49.65481 129.1420194 36.9999026
221.86064 17.0754594 32.9999026
145.57291 46.0610104 -14.2258664
191.19784 55.5316914 36.9999026
31.21468 169.4169474 32.9999026
6.67256 155.0171864 36.9999026
28.30734 144.0776444 32.9999026
143.72479 119.7858974 32.9999026
87.98826 168.9090704 36.9999026
212.676 59.1435504 36.9999026
96.94025 147.0770544 32.9999026
-0.0002699995184 4.842373398 12.3851846
173.62085 61.9643694 36.9999026
171.57423 -2.460220276e-05 56.6208836
244.03691 4.036480398 32.9999026
97.0037 97.9566724 32.9999026
205.99104 36.7119874 36.9999026
41.94507 195.7270994 36.9999026
133.99134 115.4740534 32.9999026
43.74756 184.0142824 36.9999026
102.52607 141.2322354 32.9999026
-0.0002699995184 34.6951834 -43.4306984
1.51466 183.9836694 36.9999026
126.9411 126.7112124 32.9999026
164.09039 119.3820664 32.9999026
248.63039 65.1545164 32.9999026
84.27188 135.4174454 36.9999026
229.1036 16.2191804 36.9999026
111.86929 144.1496914 36.9999026
240.27365 71.3093024 32.9999026
109.49669 155.8571174 36.9999026
123.99263 133.3820424 36.9999026
156.28481 110.8145884 36.9999026
7.46455 180.9269644 36.9999026
34.09485 189.5554314 36.9999026
148.82398 69.7070954 36.9999026
-0.0002699995184 44.4900444 -24.2737374
129.94688 135.1376324 32.9999026
88.03846 120.2542354 36.9999026
13.26655 158.0634394 36.9999026
209.50176 71.3237204 36.9999026
92.38805 104.5899334 36.9999026
95.54099 115.9479274 32.9999026
172.49397 -2.460220276e-05 6.473805599
-0.0002699995184 43.1619964 44.0746696
168.42068 69.5688664 32.9999026
90.72663 113.5713754 32.9999026
129.96026 17.3701484 -12.5772924
2.57158 66.6883844 -56.4230474
-0.0002699995184 30.4155494 -46.3964514
-0.0002699995184 4.177364398 33.9790166
91.6871 97.4075344 32.9999026
182.88932 60.4195104 -3.214452401
185.20076 43.3159794 32.9999026
193.25286 59.8117104 36.9999026
153.64851 94.5312204 32.9999026
146.37699 -2.460220276e-05 43.0342166
9.55772 199.1364634 32.9999026
188.03894 62.6861654 36.9999026
200.4582 -2.460220276e-05 57.8707646
141.37476 135.9011904 32.9999026
171.63395 109.8924514 32.9999026
28.26874 164.5819064 36.9999026
87.05788 108.7193714 32.9999026
145.86798 87.7647054 32.9999026
229.45626 52.5631834 32.9999026
37.8025 180.3053134 36.9999026
199.41334 94.9270394 32.9999026
23.05106 173.8574944 36.9999026
5.5262 202.8648384 36.9999026
170.65076 51.4345874 32.9999026
102.89921 158.5003494 36.9999026
-0.0002699995184 12.0804544 49.4914616
207.51253 74.6800244 32.9999026
109.95668 128.3176194 36.9999026
27.01638 154.3297264 32.9999026
76.1054 149.0292424 36.9999026
-0.0002699995184 35.8638494 -27.4731564
222.60875 31.5040144 36.9999026
222.5467 82.5965694 32.9999026
175.92294 63.8479064 32.9999026
175.55314 105.7518154 36.9999026
179.87623 87.5352524 32.9999026
208.85928 84.5768814 32.9999026
60.94907 119.5385074 32.9999026
2.1671 192.1577914 36.9999026
133.32684 108.3769994 32.9999026
185.0361 88.2629674 32.9999026
242.93007 47.7657164 14.5025176
82.88653 114.5108204 36.9999026
153.96906 -2.460220276e-05 42.4441416
214.41534 21.0268304 36.9999026
74.89514 125.0516114 32.9999026
27.46269 32.2143064 -42.8226194
83.81076 -1.537314602 -26.1952424
41.19492 127.9508874 33.3893336
82.3281 129.2098804 32.9999026
247.86806 12.1314714 32.9999026
118.62015 -2.460220276e-05 29.6651376
216.34714 70.6751754 32.9999026
241.84472 34.0352464 14.1822506
6.39721 55.4050114 -49.0386924
211.17733 56.3854654 32.9999026
111.16658 89.4652964 36.9999026
39.71068 -2.460220276e-05 32.1233636
22.01202 155.7917544 36.9999026
61.89487 181.4499884 32.9999026
92.95274 121.1527524 36.9999026
201.65572 75.0365644 36.9999026
215.55751 45.0306694 32.9999026
96.58648 144.2830014 36.9999026
105.04014 133.8049544 36.9999026
14.20356 202.4307074 36.9999026
36.55172 138.5393544 32.9999026
164.34924 101.4504794 36.9999026
167.02171 33.1766054 -1.641075401
127.23046 117.2109384 36.9999026
205.06844 -2.460220276e-05 50.8526136
149.95508 119.3800974 32.9999026
68.53472 164.1021404 32.9999026
111.15049 150.7524844 32.9999026
226.37798 78.5132904 36.9999026
169.48834 85.8506014 32.9999026
159.00617 122.4429884 36.9999026
181.6439 73.0485554 32.9999026
75.10576 163.7406814 36.9999026
8.56003 -2.460220276e-05 -43.6577874
201.30179 -2.460220276e-05 17.0315566
227.27599 53.5892354 36.9999026
46.52325 156.8953834 32.9999026
-0.0002699995184 18.1637854 -17.5760164
106.64177 114.2982694 36.9999026
182.70335 67.5351964 36.9999026
190.48272 93.4567404 36.9999026
45.46963 150.1778064 36.9999026
42.61031 134.8305604 36.9999026
174.64687 95.2399294 32.9999026
226.15895 84.0765054 36.9999026
-0.0002699995184 11.3318094 28.6004536
134.38596 82.9032364 32.9999026
71.61258 153.6646324 36.9999026
161.64901 104.0819584 32.9999026
139.08032 101.0071304 32.9999026
139.2557 69.1691614 32.9999026
147.94411 101.2186824 32.9999026
81.38865 147.7293034 36.9999026
125.37613 76.5900804 32.9999026
160.84518 77.0651264 36.9999026
114.92657 112.6135054 36.9999026
52.48959 -2.460220276e-05 2.649499599
166.90736 74.7094254 32.9999026
248.57581 6.608390398 32.9999026
201.22852 33.9777264 36.9999026
215.23151 82.8598394 36.9999026
44.67241 132.4729454 32.9999026
248.47747 70.2052264 36.9999026
30.1772 40.0433614 -48.2771124
134.81893 36.9725664 -17.3991784
249.49676 44.2066504 32.9999026
5.49735 150.0135184 36.8682796
115.98382 62.8057964 -16.7015074
162.15522 89.6026574 32.9999026
196.83438 46.4519134 32.9999026
249.60534 9.737197398 36.9999026
30.6318 141.8227964 36.9999026
8.81525 177.7213124 32.9999026
157.43272 65.9969704 36.9999026
203.75427 63.9679714 36.9999026
-0.0002699995184 21.1681314 -23.2050244
1.33604 212.0570384 36.9999026
13.68886 144.9508134 36.9426666
48.7403 140.4330264 36.9999026
3.18704 200.0309444 32.9999026
7.76146 38.9928884 -54.8916044
152.49879 75.5130304 32.9999026
-0.0002699995184 45.3968504 24.8703936
240.49523 21.2660104 36.9999026
47.51835 -2.460220276e-05 8.368653599
65.851 168.7290874 36.9999026
72.94452 -2.460220276e-05 10.4657376
35.95414 199.0028504 32.9999026
37.54281 17.4839254 -39.8481434
125.27571 138.0681214 36.9999026
71.49312 134.8639744 32.9999026
171.53106 77.1641134 32.9999026
92.25385 159.9637754 36.9999026
92.31482 125.7128484 36.9999026
47.28978 175.8657874 36.9999026
17.5007 168.7413104 32.9999026
81.95392 126.0368034 36.9999026
6.10526 -2.460220276e-05 22.0235166
22.31249 202.1137084 32.9999026
80.73613 107.3963814 32.9999026
-0.08080999952 221.2656485 32.9999026
97.2341 155.9606884 32.9999026
172.4673 99.3525024 32.9999026
242.681 47.1107714 36.9999026
-0.0002699995184 24.2437354 57.9160066
195.37788 39.4029474 32.9999026
151.24032 124.1893754 36.9999026
123.81108 123.3239084 32.9999026
73.91563 1.713037398 -29.1151304
11.04193 165.4366534 36.9999026
214.41842 33.2496824 32.9999026
119.14033 113.1126064 32.9999026
24.8049 141.9262434 36.9999026
235.38582 35.5635024 36.9999026
47.53927 143.1121434 32.9999026
29.20273 183.2958694 36.9999026
234.40067 73.1967354 32.9999026
162.61589 114.8583994 32.9999026
128.27547 88.4192284 32.9999026
152.81653 65.6104574 36.9999026
197.04268 64.4226024 32.9999026
26.95806 55.1253374 -49.2270254
148.21333 78.8352034 32.9999026
138.49279 73.3308444 36.9999026
241.21671 41.6706524 36.9999026
173.93633 44.7377704 0.399313599
-0.0002699995184 29.1085114 -14.6328464
168.53701 76.4224434 36.9999026
87.79571 32.7689484 -31.2749054
30.37721 190.0761374 32.9999026
40.6537 177.2952614 32.9999026
35.37482 67.9999754 -40.8117664
80.46255 165.4717464 32.9999026
196.92162 82.9965214 36.9999026
242.6742 59.8386384 36.9999026
238.01845 12.5346724 32.9999026
17.56355 184.9330244 32.9999026
4.24571 213.3382973 32.9999026
243.51956 70.4323304 36.9999026
16.18443 207.5498214 32.9999026
198.26134 73.4913444 32.9999026
219.86332 31.9953924 7.695926599
222.10729 67.9066464 36.9999026
46.8732 -2.460220276e-05 -11.9778474
2.97512 -2.460220276e-05 -47.3596074
53.63086 157.4975224 36.9999026
80.39584 168.8761754 36.9999026
190.18095 102.6830874 32.9999026
40.35662 168.7623054 32.9999026
223.31422 24.8606844 32.9999026
54.43282 190.3037024 36.7277836
86.71352 158.2326774 36.9999026
236.52235 45.7342734 36.9999026
113.94051 134.0606324 32.9999026
42.7026 153.8693654 36.9999026
74.22713 122.6640214 36.9999026
195.75418 99.3152144 32.9999026
165.77053 1.992492398 -8.265906401
12.92581 214.2947437 36.9999026
222.29125 62.1396904 36.9999026
63.17514 177.1141884 36.9999026
136.24286 92.2130624 32.9999026
127.31508 91.3513984 36.9999026
166.69312 91.0982904 32.9999026
-0.0002699995184 16.4134864 -37.1900524
142.22025 124.4630044 32.9999026
232.85637 55.3890814 36.9999026
179.46755 54.3420944 32.9999026
234.16295 15.5618304 32.9999026
131.29488 123.1532614 32.9999026
125.52811 131.5027314 32.9999026
232.65782 39.4172484 32.9999026
105.16701 138.3360504 36.9999026
85.20456 48.3917864 -32.0395074
39.34123 144.8320674 36.9999026
132.7582 128.6852734 32.9999026
2.10333 -2.460220276e-05 32.7435116
-0.6036999995 -2.460220276e-05 16.8465986
62.43058 159.8933414 32.9999026
22.08192 -2.460220276e-05 -6.459027401
185.66669 46.1950834 3.860749599
180.65275 35.6875864 2.381220599
250.70729 63.8003904 36.9999026
-0.1524999995 -2.460220276e-05 6.332796599
7.57836 204.3274154 32.9999026
217.08777 63.2812014 32.9999026
79.75829 151.8935744 36.9999026
177.52717 93.6910324 36.9999026
41.98126 139.5266864 32.9999026
17.6897 173.9182814 36.9999026
162.4184 86.9169514 36.9999026
242.11859 41.0714854 20.5187666
242.10059 64.8048134 14.2577546
-0.0002699995184 21.0199024 -28.2560964
206.93313 66.1096544 32.9999026
151.97804 105.9099834 36.9999026
1.75662 197.3422664 36.9999026
14.04003 150.4629144 36.9999026
87.79823 130.3626154 32.9999026
156.07498 61.2833434 36.9999026
81.17993 -2.460220276e-05 49.5606416
1.97847 222.3265385 36.9999026
169.15416 118.0447414 32.9999026
198.87489 62.6399524 36.9999026
180.1134 59.1712364 32.9999026
163.22353 54.7388034 -2.761852401
157.36732 85.1368504 36.9999026
212.59435 73.0707884 32.9999026
34.67673 187.6916024 32.9999026
84.7379 152.9853054 36.9999026
239.56884 29.9670004 36.9999026
177.46879 67.2883284 36.9999026
147.25075 127.0653234 36.9999026
-0.0002699995184 3.242421398 57.4384786
117.06309 120.1472584 32.9999026
13.08685 153.3325524 32.9999026
187.68695 53.8783214 32.9999026
158.80348 26.8978064 -10.3217594
62.48082 132.7641404 36.9999026
200.61845 20.3620424 8.272765599
119.3506 134.6634764 36.9999026
0.8776600005 67.9999754 -52.5394964
184.16989 64.1495724 32.9999026
85.19084 101.6870864 36.9999026
220.99543 51.4046554 32.9999026
95.73798 99.3809564 36.9999026
11.06541 -2.460220276e-05 -16.6894764
225.82695 41.8725674 32.9999026
42.27291 185.2117864 32.9999026
243.51157 67.8514654 32.9999026
201.59627 96.8161274 36.9999026
19.60863 199.9265334 36.9999026
140.98236 79.2746304 32.9999026
25.22875 6.464973398 -43.4818184
70.70335 115.1660174 36.9999026
133.99031 139.0950734 32.9999026
113.86608 1.234505398 -23.5819964
180.89132 108.0414724 36.9999026
90.69123 61.3500664 -30.4204874
93.86821 165.4195744 32.9999026
114.68566 91.7285424 32.9999026
100.57049 93.3818114 36.9999026
229.06868 57.6642424 32.9999026
208.86472 87.2411004 36.9999026
107.00402 103.6103604 36.9999026
180.52292 16.9531554 -3.912734401
135.04493 118.3553034 36.9999026
111.14973 134.2192624 36.9999026
20.25229 156.3152594 32.9999026
50.9134 134.6144694 36.9999026
231.64789 65.1253524 17.4290356
176.74412 80.0856874 32.9999026
104.59329 67.9999754 -24.4084264
71.37972 130.4612194 36.9999026
97.74017 122.8941854 36.9999026
99.58557 127.5459014 36.9999026
142.81847 -2.460220276e-05 3.844047599
140.38229 112.7913644 36.9999026
38.26006 194.4337204 32.9999026
11.83136 173.0915614 32.9999026
143.7451 -2.460220276e-05 -4.207314401
57.09049 122.5302704 36.9999026
-0.0002699995184 18.4896114 51.3138206
67.54759 180.3434794 36.9999026
80.05161 141.8263654 36.9999026
210.65522 48.5108554 36.9999026
192.36187 81.3792474 36.9999026
237.52759 64.2722594 12.9083406
57.32798 150.3964884 36.9999026
230.48074 25.1857124 36.9999026
184.43802 39.4204734 36.1311136
219.9293 80.7741194 36.9999026
118.81765 102.6009154 32.9999026
59.15223 139.6599164 36.9999026
175.79566 -2.460220276e-05 3.294960599
96.71117 153.1517284 36.9999026
181.48219 53.0015294 -3.629671401
157.91505 97.3064064 32.9999026
241.24505 51.1112244 32.9999026
227.60301 48.4000294 16.2354606
164.78622 53.0521714 32.9999026
231.78066 29.8011304 36.9999026
181.29494 78.8349784 32.9999026
158.55291 82.0682354 32.9999026
71.11604 18.2630804 -36.1967814
74.40368 157.7015554 32.9999026
207.94585 42.0420274 32.9999026
134.59646 97.3506144 32.9999026
19.61557 145.0476404 36.9999026
121.79509 113.3142214 36.9999026
104.38558 51.7377844 -26.3795254
20.7416 194.1643004 36.9999026
57.08282 -2.460220276e-05 17.7377206
43.51036 195.0892004 32.9999026
169.9598 57.3100654 -0.774092401
67.54055 -2.460220276e-05 20.0366526
151.2267 114.6178124 32.9999026
205.47493 56.1530854 9.705830599
93.00166 140.7979234 32.9999026
20.05849 -2.460220276e-05 -18.3094764
153.11369 82.3252004 36.9999026
137.41592 -2.460220276e-05 9.384527599
87.56232 141.7883124 32.9999026
184.75666 24.6427494 3.592213599
175.2378 1.231821398 -5.472279401
100.95067 50.3790014 -21.1375384
-2.42989 -2.460220276e-05 -27.2935074
88.67405 163.7870414 36.9999026
226.18447 21.9758094 36.9999026
201.75452 -0.1334886022 8.607875599
27.07174 -2.460220276e-05 34.5914256
29.282 45.3508214 -42.2857704
30.37698 12.8939954 -41.9626614
192.59565 41.7797984 5.905371599
206.36672 57.5012894 3.713315599
96.45437 66.5212144 -28.7198854
30.00908 -2.460220276e-05 6.905752599
126.8798 20.1295584 -13.4862844
49.68083 7.289777398 -42.5219344
235.04151 29.1070004 12.1747426
84.63579 43.2096774 -25.9517884
224.66471 35.1898694 9.112730599
99.34398 -2.460220276e-05 36.5794786
234.39052 1.309064398 11.9826476
202.7361 22.1683824 2.641984599
154.84821 67.9999754 -6.279099401
64.21528 -2.460220276e-05 -3.134845401
0.8068700005 -2.460220276e-05 20.7908136
85.94075 66.6281094 -25.5667184
174.62749 16.0855154 -5.652372401
180.55538 12.0757644 2.352486599
61.66808 -2.460220276e-05 10.0307506
55.5523 37.9893244 -34.5338424
119.05302 40.9223084 -22.0514224
236.60035 33.7632284 18.8904266
129.25995 65.4579134 -12.7839404
127.60608 12.6018314 -13.2719704
103.88164 67.9910404 -20.2726594
136.07826 65.2876424 -10.7719714
169.91467 26.6502824 -0.787408401
85.97923 -2.460220276e-05 -5.000701401
72.63272 26.5098664 -35.7492364
216.80679 36.5634184 6.793996599
10.08762 -1.339286602 -54.2051964
97.10101 59.5517934 -22.2735084
210.26549 -2.460220276e-05 48.5709096
25.40542 65.9257704 -49.6851804
162.45007 2.683118398 -2.990088401
98.89354 29.5269134 -21.7445644
122.93595 -2.460220276e-05 23.7523376
162.28823 63.6380534 -9.293470401
220.46454 -2.460220276e-05 48.6635926
153.71039 0.2543673978 -5.569022401
180.01007 8.873593398 -4.064068401
141.21557 -2.460220276e-05 52.8050296
149.06541 7.309019398 -6.939678401
249.76803 37.3767884 16.5202806
79.16678 6.732813398 -27.5656034
9.52634 64.3384884 -48.1153364
29.52556 49.1469684 -48.4694004
59.42298 39.7053334 -39.6471974
39.20415 32.1528264 -39.3579104
30.1464 -2.460220276e-05 23.8676296
222.86687 50.9503864 14.8379046
154.86314 45.3237374 -11.4844854
14.17463 67.9999754 -51.0884364
114.73044 26.0611694 -17.0713574
249.81862 12.2009564 22.7909166
43.02535 -2.460220276e-05 -5.360817401
30.51486 -2.460220276e-05 37.2714206
251.75488 63.1028274 17.1065656
175.10637 -2.460220276e-05 33.4537356
2.7179 22.6368074 -56.3798694
