# .PCD v0.7 - Point Cloud Data file format
VERSION 0.7
FIELDS x y z
SIZE 4 4 4
TYPE F F F
COUNT 1 1 1
WIDTH 1206
HEIGHT 1
VIEWPOINT 0 0 0 1 0 0 0
POINTS 1206
DATA ascii
-3.999784999 76.13975739 13.70039761
-251.02599 -2.460709447e-05 -58.19382039
-101.683104 -2.460709447e-05 41.78342761
-93.748945 -2.460709447e-05 -64.97888839
-14.401998 -2.460709447e-05 -11.88262539
-3.999784999 137.1052354 45.26538561
-62.332241 -2.460709447e-05 -71.56933739
-215.623295 -2.460709447e-05 -8.700071386
-8.732144999 -2.460709447e-05 72.44623461
-0.9093049988 25.49997539 18.10466261
0.0002150012178 236.2536675 60.18943461
-71.024977 -2.460709447e-05 -60.09305239
-0.3474779988 178.1228684 21.86061061
0.0002150012178 202.9756274 -35.61789739
-3.999784999 114.3796034 53.46238561
-0.5740429988 152.4619624 47.60324261
-28.888101 -2.460709447e-05 -2.985484386
0.0002150012178 230.1679475 28.47605161
-1.209374999 -2.460709447e-05 -53.94049339
-166.411564 -2.460709447e-05 -6.520995386
-26.749411 -2.460709447e-05 -59.03487439
-3.999784999 89.76060039 24.51497061
-140.581304 -2.460709447e-05 33.14435461
0.0002150012178 191.7265984 52.22885961
-157.084345 -2.460709447e-05 64.89535561
0.0002150012178 48.90442839 -60.98407739
-3.999784999 95.76645439 30.88096361
-3.999784999 168.3031644 9.395315614
0.0002150012178 117.1082324 -3.483275386
-121.661159 -2.460709447e-05 -58.44345739
0.0002150012178 45.47722839 -40.38524539
-3.999784999 126.5315094 43.35739161
0.0002150012178 155.4168354 -25.58663339
-24.214449 -2.460709447e-05 53.42046061
-3.999784999 38.32249439 4.190287614
0.0002150012178 61.05463039 -24.86263339
0.0002150012178 168.1345984 -53.05066839
0.0002150012178 30.62654139 0.8460486139
-57.360224 -2.460709447e-05 28.38977661
-182.725312 -2.460709447e-05 -17.55172439
0.0002150012178 64.28815339 -1.883972386
-3.999784999 121.2741814 30.01971261
0.0002150012178 11.62002039 23.75046261
-3.999784999 48.95772539 29.49065861
-226.79434 -2.460709447e-05 -5.284907386
0.0002150012178 115.1549344 -30.89314739
-3.968060999 155.8780584 10.36977261
0.0002150012178 171.8626224 -17.27721639
0.0002150012178 244.5955642 71.83607961
0.0002150012178 219.5854126 35.66083561
-77.128635 -2.460709447e-05 71.40905561
-3.999784999 83.33732139 -18.99138739
-3.999784999 133.3065964 -38.12669639
-3.999784999 147.5077774 29.55545061
-209.542398 -2.460709447e-05 71.70181761
-63.942445 -2.460709447e-05 -3.253585386
-128.910863 -2.460709447e-05 7.655566614
-3.999784999 162.8000914 -14.23211039
0.0002150012178 70.68653539 -53.38646739
0.0002150012178 109.8336694 -44.06895039
-69.059849 -2.460709447e-05 -23.93211439
0.0002150012178 153.6756524 -5.835695386
0.0002150012178 100.8061584 -43.57722739
-194.632102 -2.460709447e-05 20.10709561
-3.999784999 111.0212664 46.45119661
-3.999784999 88.17483139 -48.71988639
-223.698127 -2.460709447e-05 9.703283614
-93.922349 -2.460709447e-05 -17.52927239
-3.999784999 26.86826339 -66.23345339
0.0002150012178 88.80454539 41.57233561
0.0002150012178 251.1176357 59.76841661
-89.436065 -2.460709447e-05 45.85652161
0.0002150012178 184.6659624 69.60468161
0.0002150012178 56.76009539 -67.61596239
-136.505746 -2.460709447e-05 42.02106661
0.0002150012178 180.4096454 -43.22036839
-29.730659 -2.460709447e-05 -23.62049639
0.0002150012178 21.59999039 27.75574661
0.0002150012178 128.9555644 -22.41370839
-3.999784999 163.8011874 1.632555614
-195.885076 -2.460709447e-05 -70.13866339
-3.693433999 169.3213664 -35.32829439
-74.586281 -2.460709447e-05 -66.33754139
-232.893919 -2.460709447e-05 55.87301261
0.0002150012178 207.1286524 -63.32691639
-154.066465 -2.460709447e-05 -71.38469839
-200.298056 -2.460709447e-05 -27.71633639
-75.222511 -2.460709447e-05 6.927706614
0.0002150012178 24.55461339 -42.85080939
-38.009149 -2.460709447e-05 44.68866861
-10.578064 -2.460709447e-05 -66.80919639
-3.999784999 67.45138039 6.677904614
-242.007164 -2.460709447e-05 25.27063561
-185.278226 -2.460709447e-05 32.74252861
0.0002150012178 99.25107439 15.94135361
-3.999784999 123.6316424 -45.93412639
0.0002150012178 156.9222824 -56.11549439
0.0002150012178 195.2507004 -39.89077239
-3.999784999 41.05636239 -20.80916239
0.0002150012178 114.8010544 18.45634461
0.0002150012178 25.19702939 -54.53881339
0.0002150012178 222.1552791 -2.246323386
-146.748778 -2.460709447e-05 -16.06751839
-3.999784999 34.34804639 47.26277561
0.0002150012178 241.7039001 53.61048261
-3.999784999 177.1161614 -2.875414386
0.0002150012178 167.2538114 22.96287861
-210.899263 -2.460709447e-05 -38.05122639
0.0002150012178 245.9588339 27.00051561
-215.046152 -2.460709447e-05 1.824197614
-3.999784999 53.84626339 63.93708261
-6.894889999 -2.460709447e-05 -32.63494039
-174.737331 -2.460709447e-05 36.07881161
0.0002150012178 183.5272424 45.97284861
0.0002150012178 196.8553714 46.52255261
-3.999784999 117.0199874 -24.91019339
0.0002150012178 17.59183439 56.49740961
-187.884107 -2.460709447e-05 14.17776661
0.0002150012178 44.27128639 6.517781614
0.0002150012178 229.4101314 -29.74171539
0.0002150012178 244.1244254 46.07923361
-3.999784999 71.08727939 -13.28417539
0.0002150012178 193.3925614 2.037053614
0.0002150012178 194.7042624 -70.04959139
-156.711746 -2.460709447e-05 -18.34546639
-57.458626 -2.460709447e-05 -35.60825539
-243.838139 -2.460709447e-05 -11.25676939
-3.999784999 6.363654393 66.84592361
-86.669262 -2.460709447e-05 26.82646461
0.0002150012178 11.25013039 -50.94862239
-232.425777 -2.460709447e-05 -58.23231339
-128.377329 -2.460709447e-05 44.48777861
-124.698485 -2.460709447e-05 33.43466961
-3.999784999 77.76371239 -54.96127539
0.0002150012178 53.08072839 24.57128861
-3.999784999 40.06190039 42.62510961
-3.999784999 159.6468404 40.95167261
0.0002150012178 112.0272994 65.23212861
-151.530026 -2.460709447e-05 56.48440361
0.0002150012178 212.7320592 35.43248461
-3.999784999 33.48879139 36.58570861
0.0002150012178 126.3468894 21.10344061
-159.200027 -2.460709447e-05 -11.97848239
-243.834669 -2.460709447e-05 37.14694661
0.0002150012178 126.8082194 -51.77379139
-154.169584 -2.460709447e-05 23.24867561
0.0002150012178 89.77719439 10.17472661
-65.244951 -2.460709447e-05 -50.74428139
-3.999784999 146.4272564 -40.64664439
-116.129527 -2.460709447e-05 -39.30020839
-228.678841 -2.460709447e-05 29.91365261
0.0002150012178 31.42710739 31.15420161
0.0002150012178 98.28424239 55.94010161
0.0002150012178 41.32767739 57.84521861
-54.90173 -2.460709447e-05 -14.39807239
-202.651175 -2.460709447e-05 -43.53001639
0.0002150012178 91.56907539 -65.77142139
0.0002150012178 78.69284639 21.74802761
-3.999784999 37.61550639 -32.03150839
-123.431683 -2.460709447e-05 -36.04132239
-3.999784999 100.7685024 -0.8211723861
-12.096638 -2.460709447e-05 59.47713561
-64.17341 -2.460709447e-05 -41.96592539
-207.75154 -2.460709447e-05 37.94394961
-5.185732999 -2.460709447e-05 4.317608614
-3.999784999 76.47474039 -29.57616739
0.0002150012178 57.06130039 0.3859396139
0.0002150012178 44.40553439 -72.93971739
0.0002150012178 75.42064739 -68.67057639
-182.609739 -2.460709447e-05 48.69325761
-3.999784999 123.7275624 -37.53747239
-68.765011 -2.460709447e-05 -69.88254539
0.0002150012178 147.0986574 14.32160661
-145.356873 -2.460709447e-05 -46.20299839
0.0002150012178 32.65611339 -50.67153539
-164.44104 -2.460709447e-05 -42.57647239
0.0002150012178 34.42197339 -63.23490539
-60.415818 -2.460709447e-05 22.55591361
-2.913116999 157.6856494 3.793906614
-3.999784999 23.98507239 54.74112461
0.0002150012178 113.5687924 -13.60268339
-125.342343 -2.460709447e-05 -16.69940039
0.0002150012178 6.241652393 5.626630614
-3.999784999 68.51493739 -35.44306739
0.0002150012178 80.99255939 -46.36254239
0.0002150012178 78.62103339 47.08215561
0.4283170012 -2.460709447e-05 20.22126561
0.0002150012178 50.95126839 -31.97629439
-3.999784999 63.96258839 -42.79806839
-223.412175 -2.460709447e-05 38.09076961
0.0002150012178 83.55217639 56.17148661
-21.863472 -2.460709447e-05 14.06020061
-194.924631 -2.460709447e-05 48.89581561
0.0002150012178 114.0905124 -68.13410139
-172.734806 -2.460709447e-05 -46.18967239
-3.999784999 25.84963739 48.26552161
0.0002150012178 227.7306433 -55.13005339
0.0002150012178 118.8841884 4.423483614
0.0002150012178 154.3112524 -70.34129539
0.0002150012178 243.9935563 5.421671614
-245.102602 -2.460709447e-05 56.00642861
-63.07363 -2.460709447e-05 15.66103661
0.0002150012178 130.5285464 46.53796861
-3.999784999 117.1538744 -53.02943239
-122.213698 -2.460709447e-05 -44.58076239
0.0002150012178 210.0340664 -10.63075639
0.0002150012178 168.0454444 -3.656289386
0.0002150012178 138.2769204 -37.06271539
0.0002150012178 141.8880364 33.35581061
-15.123715 -2.460709447e-05 -4.420120386
0.0002150012178 149.8179094 -30.71896139
-64.081064 -2.460709447e-05 -28.66456639
0.0002150012178 137.3814904 -51.89969539
0.0002150012178 104.6287484 21.45646861
-26.691955 -2.460709447e-05 -12.27399939
-3.999784999 58.43594339 40.30412861
-3.999784999 109.0679944 30.97938461
0.0002150012178 163.2640694 -34.28950639
0.0002150012178 62.33955039 44.63062461
-3.568095999 25.49997539 -0.6615613861
-209.317586 -2.460709447e-05 5.767019614
-98.570418 -2.460709447e-05 -46.27608139
-3.999784999 68.91950039 35.32651361
-173.743896 -2.460709447e-05 18.53430961
-0.1687169988 -2.460709447e-05 -27.05941839
0.0002150012178 236.9197537 43.59340461
0.0002150012178 126.4708464 68.32823961
0.0002150012178 98.84953739 6.482551614
0.0002150012178 13.23363739 44.10976861
0.0002150012178 232.328822 -3.514907386
0.0002150012178 146.9015324 42.27422461
0.0002150012178 83.27443739 -34.83312539
0.0002150012178 239.5745769 -10.89051439
0.0002150012178 42.51424339 28.13639961
-3.999784999 6.030238393 -65.91495139
-81.00999 -2.460709447e-05 14.53670361
-102.11622 -2.460709447e-05 27.64241161
0.0002150012178 139.2283384 68.33251861
-3.999784999 46.76981339 21.38395061
-3.999784999 92.94774039 -40.68094839
0.0002150012178 115.8395964 31.14301161
0.0002150012178 53.77911339 -48.05233339
0.0002150012178 68.69345839 41.71500461
0.0002150012178 3.488702393 52.19907161
-3.999784999 36.56073039 -2.481977386
-3.999784999 15.30750139 -48.14950839
-3.999784999 110.6133704 -62.07415439
-251.267698 -2.460709447e-05 50.32882861
0.0002150012178 19.66715639 -34.69455039
-129.581224 -2.460709447e-05 29.45621961
0.1329570012 74.49348039 73.34909361
-161.722203 -2.460709447e-05 -52.60706439
0.0002150012178 1.337527393 70.39318661
0.0002150012178 178.1347814 14.96159861
-3.999784999 111.1469054 -34.82668939
-179.645678 -2.460709447e-05 -2.516891386
-3.999784999 67.16321039 19.74410561
0.0002150012178 107.2672184 -21.34308939
0.0002150012178 147.4650894 -6.596110386
-3.999784999 148.4458174 -20.81126839
-168.406897 -2.460709447e-05 7.943940614
0.0002150012178 54.48371839 -5.293204386
-116.855326 -2.460709447e-05 67.68641161
-171.397451 -2.460709447e-05 -57.25082039
-3.999784999 4.991441393 -56.42069939
0.0002150012178 10.29362039 -19.56302539
0.0002150012178 89.75982839 -23.19859739
-3.999784999 25.73781439 -15.94868539
0.0002150012178 27.22489139 -9.333736386
-101.648769 -2.460709447e-05 -19.06903539
0.0002150012178 196.6359724 64.03807961
1.952599001 0.4999753929 39.75597661
-34.796718 -2.460709447e-05 -1.171604386
-11.8194 -2.460709447e-05 -43.95696339
-3.843887999 104.2608184 56.57822861
-3.999784999 154.1433884 -15.64739939
-236.452405 -2.460709447e-05 5.290916614
-101.164348 -2.460709447e-05 15.88002961
0.0002150012178 64.23485639 -47.71901939
0.0002150012178 123.9228994 -64.97590439
-3.999784999 98.61125639 45.38065761
-220.105597 -2.460709447e-05 -31.81125039
1.315648001 0.4999753929 -8.063967386
-59.718609 -2.460709447e-05 67.05645961
0.0002150012178 213.783999 -23.09255339
-28.026255 -2.460709447e-05 8.400463614
-146.063537 -2.460709447e-05 53.31256261
0.0002150012178 59.99824539 -15.52588339
-118.958978 -2.460709447e-05 -23.77092039
-3.999784999 91.58844739 5.775298614
-3.999784999 43.46443539 53.78014561
0.0002150012178 90.12495739 -4.724291386
-215.488082 -2.460709447e-05 43.01419361
0.0002150012178 190.4984574 19.50200061
0.0002150012178 130.8074874 -56.35192639
-20.580319 -2.460709447e-05 -70.27554939
-3.999784999 57.96986539 68.39571861
0.0002150012178 220.1704478 -32.31549239
0.0002150012178 16.66819839 -8.835081386
0.0002150012178 105.8925054 -73.61851939
-3.999784999 41.70503039 16.96637961
-3.999784999 27.70570539 13.38140561
-48.943314 -2.460709447e-05 66.43690161
-49.530966 -2.460709447e-05 10.67232961
-138.713993 -2.460709447e-05 -44.88665839
0.0002150012178 56.90332939 34.31449261
0.0002150012178 207.1554174 5.971052614
-3.999784999 70.00596239 -65.66987939
-3.999784999 72.96030239 68.13057661
-89.119525 -2.460709447e-05 5.904400614
-55.319603 -2.460709447e-05 2.494499614
-169.133412 -2.460709447e-05 -19.03791239
-181.355198 -2.460709447e-05 64.64197461
-3.999784999 24.44171239 73.38256161
-78.452344 -2.460709447e-05 60.28329761
-3.999784999 4.585826393 -73.45687639
-185.432805 -2.460709447e-05 -22.90331739
0.0002150012178 148.2105344 23.60854661
-32.852851 -2.460709447e-05 -15.89834739
-108.106748 -2.460709447e-05 -49.10990239
0.0002150012178 224.6666974 30.84695261
0.0002150012178 204.9894284 21.35869961
-3.999784999 46.17297539 -6.819886386
-183.488969 -2.460709447e-05 -55.76656539
-2.523986999 143.1384714 -52.98207239
0.0002150012178 6.939013393 42.91632861
-3.999784999 59.59486239 -37.21515739
-246.540523 -2.460709447e-05 72.28386261
-3.999784999 63.04230339 29.55745561
-30.286433 -2.460709447e-05 -38.00496639
-3.999784999 53.81692939 51.69857861
0.0002150012178 17.40459739 -65.74004339
-128.366386 -2.460709447e-05 -70.02484239
0.0002150012178 44.34372039 68.71245161
-228.276923 -2.460709447e-05 0.4592086139
0.0002150012178 145.2923234 -44.87970939
-184.096024 -2.460709447e-05 55.03455961
0.0002150012178 93.37193139 15.19504061
-3.369264999 119.0584174 -70.21834239
-113.29561 -2.460709447e-05 39.80990361
0.0002150012178 123.7123024 58.08336461
0.0002150012178 137.2455144 52.01491861
-3.999784999 93.75399639 42.05551361
-153.369154 -2.460709447e-05 2.243768614
-52.214834 -2.460709447e-05 -48.16433439
-131.616123 -2.460709447e-05 51.30471261
-31.903513 -2.460709447e-05 -31.15422239
0.0002150012178 200.0496484 -6.070292386
0.0002150012178 40.57825839 -47.26661739
-45.926311 -2.460709447e-05 31.19969361
0.0002150012178 198.6484364 -61.51503639
0.0002150012178 100.2887894 63.44552961
-3.999784999 40.94702939 74.29176761
-3.999784999 32.48637239 22.25871261
-3.999784999 100.5672274 -35.79704339
-55.337686 -2.460709447e-05 -62.39725739
0.0002150012178 27.96242739 59.95543961
-201.218309 -2.460709447e-05 -62.56802239
-3.999784999 67.05731639 46.44659761
0.0002150012178 71.42405539 26.44783961
0.0002150012178 178.5280314 -9.630142386
0.0002150012178 209.8071914 50.18790961
-3.999784999 149.9322854 -45.26949039
-3.999784999 57.93596039 10.56199861
-106.984724 -2.460709447e-05 -40.01680039
-3.999784999 15.46104139 50.82712161
0.0002150012178 74.76600739 -8.217842386
0.0002150012178 36.78663339 -12.02138839
-3.999784999 173.8649324 5.069214614
-3.999784999 96.98207139 -23.16062239
0.0002150012178 170.2186094 42.83753061
0.0002150012178 175.2595414 -53.81593339
-223.43179 -2.460709447e-05 -39.46530639
0.0002150012178 213.8273696 -29.03285039
-3.999784999 101.8818174 50.14948461
-194.954458 -2.460709447e-05 31.68177161
0.0002150012178 18.10841639 -17.47072239
-3.999784999 140.4899244 -33.56085739
-62.719837 -2.460709447e-05 44.69792861
-3.999784999 38.99701139 68.28000561
0.0002150012178 225.8267397 2.168955614
0.0002150012178 14.78192039 18.95913161
-3.999784999 49.52495339 -56.33597639
-3.999784999 74.34654439 0.3277816139
-4.049744999 -2.460709447e-05 -10.00371939
-3.999784999 75.80675239 57.08540861
-3.999784999 90.62404239 -56.06498139
0.0002150012178 249.3242336 -20.90305439
0.0002150012178 49.14329839 54.01976461
-3.999784999 36.61177039 -37.86262539
-3.999784999 100.4736714 -8.166977386
0.0002150012178 80.01151739 5.083687614
0.0002150012178 116.9841194 56.80847861
-110.296151 -2.460709447e-05 -27.35747739
-3.999784999 28.41049139 -72.39088239
-3.999784999 95.35380939 -49.12780839
-3.999784999 31.56112939 6.096471614
-80.351228 -2.460709447e-05 -70.70623739
0.0002150012178 247.7063743 55.21533061
-2.165736999 130.6126814 -27.40610339
-200.336056 -2.460709447e-05 14.49042061
-3.999784999 140.3906864 -27.40561539
0.0002150012178 158.6834404 25.90609061
0.0002150012178 62.45054039 -61.74467839
0.0002150012178 171.9792084 31.45745961
-31.539696 -2.460709447e-05 32.17975861
-3.999784999 152.9488464 22.48458961
0.1571070012 221.9575636 73.55019861
0.0002150012178 53.69928239 -20.03329239
0.0002150012178 175.4292434 45.86716761
0.0002150012178 50.14311939 -25.57616539
-3.999784999 108.3414714 36.57566361
-3.999784999 78.94589639 -23.02048939
-3.999784999 141.4012314 50.38838761
0.0002150012178 71.87047439 60.91410061
0.0002150012178 65.13310639 -28.84999439
0.0002150012178 180.3257524 -15.53895239
0.0002150012178 176.4422944 -26.18386139
0.0002150012178 96.62059439 -39.22691539
-3.999784999 76.58206839 63.84134961
1.252665001 3.316773393 58.76968861
0.0002150012178 155.0114494 40.86163461
-3.999784999 18.63944339 -74.47627139
-3.999784999 98.92383139 -70.77567739
-3.999784999 58.41579139 74.30643161
0.0002150012178 129.3076584 -0.3280693861
0.0002150012178 74.71646939 17.34548861
-3.999784999 50.24845839 -43.53323339
0.0002150012178 108.8995934 56.62354561
0.0002150012178 27.42948039 -60.75949939
0.0002150012178 35.55675039 6.934983614
0.0002150012178 101.7924114 -53.66468439
0.0002150012178 182.2906504 6.384583614
-3.999784999 72.71756039 9.298212614
0.0002150012178 65.55735939 24.04409461
0.0002150012178 101.4510994 -67.16974639
-3.999784999 26.04871139 27.20124461
-179.670745 -2.460709447e-05 6.596598614
0.0002150012178 61.79827239 10.84642361
0.0002150012178 44.92987639 -10.48536839
0.0002150012178 159.3001664 -29.62957139
-20.688409 -2.460709447e-05 43.64172661
-4.307192999 -2.460709447e-05 51.78376461
-108.907391 -2.460709447e-05 13.87529461
-235.301464 -2.460709447e-05 -64.39200239
0.0002150012178 224.4146496 -27.31582839
0.0002150012178 120.6439674 -30.06124339
-3.999784999 68.84794739 -48.72854939
-170.85012 -2.460709447e-05 67.23487161
-0.2588349988 21.81660939 37.97707561
0.0002150012178 84.46350139 -59.86724239
-3.999784999 77.63994739 -36.03749439
-3.999784999 61.20073839 0.3926046139
0.0002150012178 23.53688939 69.66770061
-3.999784999 30.25679739 56.02591461
0.0002150012178 143.1325014 -30.06312139
-57.762387 -2.460709447e-05 -28.65613939
-3.999784999 21.94604139 65.93715161
0.0002150012178 128.0236894 15.07798861
0.0002150012178 86.27487539 26.60024861
-222.466232 -2.460709447e-05 44.98047661
0.0002150012178 69.86072839 -40.61328539
-198.78771 -2.460709447e-05 -20.84266439
-3.999784999 82.68401039 64.48398861
-137.837967 -2.460709447e-05 10.94822861
-3.999784999 56.06044239 -72.23435439
-3.999784999 83.04243639 -64.87817939
0.0002150012178 46.99701939 1.031113614
-3.999784999 13.67350339 -58.60666039
-108.602956 -2.460709447e-05 -4.382319386
-51.603366 -2.460709447e-05 -25.24992939
-3.999784999 40.62673439 -59.88560939
-44.398393 -2.460709447e-05 12.58840561
0.0002150012178 87.46667639 5.210136614
-47.028416 -2.460709447e-05 55.50608561
0.0002150012178 113.4312554 43.59851861
0.0002150012178 247.0490046 -65.08918839
0.0002150012178 79.97829339 38.38874661
0.0002150012178 95.23603939 23.35502361
-111.839995 -2.460709447e-05 27.54839261
0.02148900122 185.4755944 -72.21496539
0.0002150012178 78.23400039 -40.22478639
-76.966836 -2.460709447e-05 46.50521861
0.0002150012178 134.8291634 38.94099061
0.0002150012178 50.12395039 46.55017761
-3.999784999 86.92064239 -34.57579739
0.0002150012178 60.05532439 -40.83818139
0.0002150012178 98.54215139 -17.96191839
0.0002150012178 44.98136839 50.47446661
0.0002150012178 55.61957439 -56.26113239
0.0002150012178 0.9631503929 -73.63042139
0.0002150012178 67.84974039 -61.76736639
-214.854788 -2.460709447e-05 -33.10541139
-168.306165 -2.460709447e-05 73.41634161
0.0002150012178 118.6118454 -40.09383539
-3.999784999 69.61320239 -23.24620039
0.0002150012178 221.7288277 -21.77299939
0.0002150012178 228.1775424 -6.925948386
0.0002150012178 161.5401434 31.99728261
-3.999784999 115.9548374 -58.38816839
0.0002150012178 12.18493739 -63.52505639
0.0002150012178 101.8851644 10.90673461
-3.999784999 55.10651939 -33.71775439
-202.558934 -2.460709447e-05 29.83626661
-3.999784999 49.15536839 -64.54269039
-156.142556 -2.460709447e-05 51.16394561
0.0002150012178 55.84990039 -29.81288639
-3.999784999 24.85539439 41.96967061
-3.999784999 40.43049739 11.26482561
-3.999784999 124.4828784 -32.22850839
0.0002150012178 136.0975844 -5.410670386
0.0002150012178 221.9250192 22.23415561
-3.999784999 60.98777139 35.59134461
-3.999784999 60.46144039 -56.47229939
0.0002150012178 211.8412014 -15.87130439
-3.999784999 80.28145939 43.30114461
0.0002150012178 230.0991157 -64.96861439
-87.662414 -2.460709447e-05 -45.73364439
0.0002150012178 39.17421939 -66.55851739
0.0002150012178 8.495471393 54.00553061
0.0002150012178 18.89121439 -57.15756939
-13.416232 -2.460709447e-05 36.08908461
-3.999784999 63.37950439 68.98843561
0.0002150012178 16.41442039 62.18945661
0.0002150012178 189.8813474 -21.30461239
0.0002150012178 244.1825917 -52.22954039
-3.999784999 149.9346284 40.55195861
-156.720026 -2.460709447e-05 -30.44243139
-3.999784999 6.680114393 -50.23901639
0.0002150012178 71.83300639 -16.67882439
-3.999784999 133.6855864 -31.31262539
0.0002150012178 174.3313814 -4.944084386
-39.872089 -2.088228607 -60.53104739
-3.999784999 6.597387393 60.29186661
-145.058433 -2.460709447e-05 66.70693361
0.0002150012178 84.33222939 -14.44981839
0.0002150012178 105.2665124 -46.72630639
-233.067683 -2.460709447e-05 17.18722561
-3.999784999 169.8413114 -6.599563386
-65.87882 -2.460709447e-05 -13.65814839
-189.435007 -2.460709447e-05 21.01347561
-3.999784999 84.20171039 -44.35173439
-96.302508 -2.460709447e-05 25.20897261
-231.863488 -2.460709447e-05 -31.64361539
-3.999784999 154.2755354 37.06980361
-93.612895 -2.460709447e-05 0.2137586139
-3.999784999 91.02229639 19.40882061
0.0002150012178 205.9836344 46.58654461
-3.999784999 101.6826944 -61.41697039
-178.263519 -2.460709447e-05 -37.12312939
0.0002150012178 76.37550339 -48.85716039
-3.999784999 134.9498004 27.51790661
0.0002150012178 107.2262454 39.78371761
0.0002150012178 124.5387674 30.95662161
-123.243823 -2.460709447e-05 60.41027561
-3.999784999 64.82727239 -53.09717139
0.0002150012178 171.4876434 7.477364614
-3.999784999 116.2065254 45.70319861
-131.017006 -2.460709447e-05 13.34373861
0.0002150012178 210.9500194 -40.01990739
0.0002150012178 56.44213639 15.06913761
-69.038453 -2.460709447e-05 44.53420961
-26.759088 -2.460709447e-05 19.46486861
0.0002150012178 49.93301239 -51.58854639
-3.999784999 29.52256039 -32.48476339
0.0002150012178 108.0062674 -31.96426639
-3.999784999 77.45662839 28.54381361
0.0002150012178 28.22028339 45.89231861
-3.999784999 35.38543039 -44.52197339
-72.801567 -2.460709447e-05 13.64873561
-3.999784999 86.04601539 15.90947461
-162.899564 -2.460709447e-05 -18.38530039
-177.266825 -2.460709447e-05 22.36926661
-180.726338 -2.460709447e-05 -31.96930839
-129.455564 -2.460709447e-05 -53.16438239
-3.999784999 33.43983739 -10.14161339
-134.351297 -2.460709447e-05 -50.36902839
-3.999784999 88.23305939 53.70130461
0.0002150012178 25.01694139 -37.68451639
-172.191137 -2.460709447e-05 -71.38619739
-3.999784999 92.81628439 -61.20852139
0.0002150012178 129.0348444 35.33222361
0.0002150012178 114.2292394 -61.56502739
-3.999784999 49.08281639 68.02970861
0.0002150012178 91.88593939 -10.82036239
0.0002150012178 89.44831039 -51.74527639
0.0002150012178 37.54690939 61.87460661
0.0002150012178 160.3495204 -42.42083239
-243.406157 -2.460709447e-05 -49.23083439
-219.156731 -2.460709447e-05 63.14606261
0.0002150012178 8.088279393 -40.53360739
0.0002150012178 214.4603635 19.67151161
-3.999784999 65.54073939 40.93877161
-159.790544 -2.460709447e-05 -47.83120339
-0.9977449988 155.5552494 -11.10578039
-107.42872 -2.460709447e-05 5.455566614
-3.999784999 107.9872104 -57.03716639
-3.999784999 103.1997114 -29.52625239
0.1027180012 128.5290234 73.04174861
-186.855929 -2.460709447e-05 -11.79023739
-42.920258 -2.460709447e-05 -40.55423339
-193.744533 -2.460709447e-05 55.01358861
0.0002150012178 41.46609739 -37.16901039
0.1445490012 113.7402894 -73.25984139
0.0002150012178 173.5913474 24.24797761
-33.999976 -2.460709447e-05 17.84985461
-117.645667 -2.460709447e-05 -71.98441439
-3.999784999 119.5335074 38.36414761
0.0002150012178 169.2207344 -31.78619039
-3.999784999 103.8358484 8.227033614
-204.069835 -2.460709447e-05 -0.2101573861
-3.999784999 90.65302339 -72.09603639
0.0002150012178 47.98753739 25.01106361
-1.294624999 -2.460709447e-05 27.76366461
-3.999784999 53.12149539 43.15319861
-3.999784999 43.02712639 -16.09947939
0.0002150012178 86.05979739 -29.78469539
0.0002150012178 191.6691524 58.51349361
-3.999784999 178.2989564 2.553470614
0.0002150012178 36.49136939 -22.25181239
0.0002150012178 1.151470393 -65.76813739
-3.999784999 18.94634839 60.32319661
0.0002150012178 173.5579864 18.84837661
-4.316778999 -2.460709447e-05 42.06114261
0.0002150012178 45.91342439 -45.53443939
0.0002150012178 29.05227139 -45.22021439
-175.785548 -2.460709447e-05 -42.12356139
0.0002150012178 165.4313424 4.307654614
0.0002150012178 31.39758339 -23.83237439
0.0002150012178 -0.8866846071 -49.09135339
-3.999784999 55.10766439 56.91468661
-3.999784999 155.1699254 -22.47982639
0.0002150012178 109.2101144 19.17961261
0.0002150012178 202.6653354 68.68505961
-100.499785 -0.7073096071 -41.64798839
0.0002150012178 83.12094439 0.9966476139
-3.999784999 34.71197039 -66.32320039
-3.999784999 44.99879739 35.96196661
-3.999784999 101.9428604 36.42647361
-11.836629 -2.460709447e-05 -61.91002839
0.0002150012178 171.0411894 -48.91235339
0.0002150012178 8.157132393 64.32779061
-3.999784999 31.36353339 -18.03396739
0.0002150012178 78.87640139 -59.26158739
-3.999784999 24.06900439 -57.40342439
0.0002150012178 45.94025539 15.43033061
-3.346418999 156.2032764 45.66824261
-192.013511 -2.460709447e-05 -66.91141139
-37.468476 -2.460709447e-05 -31.26913439
0.0002150012178 168.6833734 15.67365461
0.0002150012178 83.56902439 51.13370361
-3.999784999 23.62099639 -70.82971539
0.0002150012178 26.56649539 -4.050624386
0.0002150012178 139.9076374 47.72241561
0.0002150012178 39.11568139 -5.331371386
-3.999784999 34.47643939 70.49235461
0.0002150012178 114.0034814 -25.38311739
-3.999784999 25.00302139 60.70367861
0.0002150012178 105.5303164 -27.27660639
-3.999784999 70.53565239 15.98269161
-3.999784999 20.32417239 -47.85419739
-3.999784999 88.95741839 60.34026861
-3.999784999 48.30703139 7.455406614
-3.999784999 145.6686504 37.91225461
-3.999784999 99.19204839 19.02940761
-179.55974 -2.460709447e-05 58.90538961
0.0002150012178 77.83667939 -26.87581739
2.058884001 0.4999753929 32.10866861
-119.298679 -2.460709447e-05 -0.9631313861
-3.999784999 90.37216839 30.54482861
0.0002150012178 89.47282439 -59.53618239
0.0002150012178 157.9849394 -3.299613386
-92.471304 -2.460709447e-05 13.33270561
-3.999784999 81.78545839 -28.68882239
-3.999784999 50.55849039 -14.64051039
0.0002150012178 205.6842904 58.66659261
-94.422777 -2.460709447e-05 -52.20470539
-3.999784999 170.1961864 23.26298261
-3.999784999 31.69537939 -62.10086939
-190.297822 -2.460709447e-05 33.41753261
-3.999784999 151.1157494 -38.99908539
0.0002150012178 37.50302439 26.13349061
0.0002150012178 99.40269239 26.93078661
-3.999784999 63.28010739 -12.67651239
-3.999784999 125.6746154 27.11908461
-3.999784999 56.69773139 -21.33563839
-69.613556 -2.460709447e-05 6.680679614
0.0002150012178 51.93801939 1.490360614
0.0002150012178 30.68518439 73.42130161
-3.632622999 156.9616024 -7.145965386
0.0002150012178 53.04050939 11.46742561
0.0002150012178 78.84436939 -17.41433239
-75.262904 -2.460709447e-05 -35.57447039
0.0002150012178 36.25384239 37.52210061
0.0002150012178 52.67145539 -64.19839439
-3.999784999 151.4145104 -33.15069439
-137.683407 -2.460709447e-05 37.21741961
-120.860751 -2.460709447e-05 50.58872861
0.0002150012178 98.66927939 48.42181261
0.0002150012178 149.1120844 51.51624361
-206.611629 -2.460709447e-05 21.85086761
-3.999784999 146.0218554 45.03867961
-165.153059 -2.460709447e-05 -66.72918539
-97.919482 -2.460709447e-05 -14.63224339
-80.908529 -2.460709447e-05 32.05776561
0.0002150012178 177.8522684 60.06684461
-3.999784999 175.7327104 16.95172361
0.0002150012178 83.31593739 61.67459761
0.0002150012178 199.4495744 -71.59875039
0.0002150012178 33.93265339 58.53545761
0.0002150012178 63.98496539 55.35849461
-3.999784999 81.86222739 -58.67634439
-3.999784999 89.09943439 -43.89008239
0.0002150012178 104.9137674 -57.82987239
0.0002150012178 200.1896804 -31.56969639
-3.999784999 126.9108794 -41.87461339
-3.999784999 120.9289094 -41.73963539
0.0002150012178 22.38053639 43.36519761
-3.999784999 120.0385984 52.44420161
0.0002150012178 51.22833439 65.02672361
-3.999784999 58.31069339 5.673523614
0.0002150012178 69.44300039 4.308660614
-0.4380779988 95.97374439 60.23792261
0.0002150012178 2.584661393 45.16157061
-3.999784999 149.1881244 -26.01455439
0.0002150012178 86.62720239 47.19705261
-237.348835 -2.460709447e-05 -32.36399339
0.0002150012178 83.14486739 -4.978431386
-3.999784999 131.5181824 -45.12724439
-3.999784999 170.1731544 -1.723590386
0.0002150012178 45.68364739 -31.30262339
0.0002150012178 50.51250439 41.68441861
-127.046927 -2.460709447e-05 -47.02578539
0.0002150012178 152.1706054 -17.62659139
0.0002150012178 90.91958439 -30.21375739
0.0002150012178 169.2871024 27.39416861
0.0002150012178 59.36330839 -47.78242739
-3.999784999 47.31503439 60.57941161
-49.232651 -2.460709447e-05 -39.34365039
-3.999784999 122.8363384 -58.55826739
-90.997654 -2.460709447e-05 -68.98657839
0.0002150012178 156.2811334 31.09659861
0.0002150012178 118.5750664 -66.26829339
-3.999784999 12.16909739 -70.09316139
0.0002150012178 69.58962339 21.03410061
-3.999784999 33.36580439 -53.32454339
0.0002150012178 76.66058839 42.64389861
-3.999784999 111.6935944 -42.04924739
0.0002150012178 196.3343844 41.70225961
-3.999784999 100.7830664 -19.51961239
-3.999784999 92.78456139 -34.63166739
0.0002150012178 167.0983634 -16.43479339
-3.999784999 33.56341739 52.03629161
-96.701791 -2.460709447e-05 -58.55396939
-3.999784999 113.6594054 -49.59839339
-3.999784999 48.26208439 44.57332761
0.0002150012178 103.5660544 45.73416161
0.0002150012178 41.58155539 40.18708161
0.0002150012178 48.15503239 -4.971162386
-3.999784999 80.92148339 14.39421061
-151.513069 -2.460709447e-05 -8.879855386
0.0002150012178 86.82540739 -64.51425939
-143.011701 -2.460709447e-05 21.89761261
-247.385777 -2.460709447e-05 -14.52543439
-3.999784999 171.0867754 -14.69832939
0.0002150012178 4.930121393 -31.54877039
0.0002150012178 99.17077839 -10.51655439
0.0002150012178 29.77546839 35.68068061
-3.999784999 69.04824539 63.13106461
-3.999784999 155.6213214 28.01477661
-3.999784999 10.34111839 52.07018661
0.0002150012178 61.88792339 -6.744701386
-3.999784999 56.66106839 47.22317261
0.0002150012178 178.1937874 35.26390061
0.0002150012178 94.10580139 8.094615614
-94.682714 -2.460709447e-05 59.50972961
-3.999784999 151.9538034 31.36294761
0.0002150012178 105.0271214 -10.71888539
0.0002150012178 40.78854039 -32.41994639
0.0002150012178 65.05075739 50.68489561
-3.999784999 158.7024914 -19.23957639
-3.999784999 27.82942939 -54.33308139
-3.999784999 120.8972264 46.68590561
0.0002150012178 70.05044439 70.51150761
0.0002150012178 167.0752914 33.05123561
-3.999784999 100.8864814 13.33975961
-3.999784999 63.67016139 60.97227061
-3.999784999 44.03381739 3.904982614
-92.402314 -2.460709447e-05 -46.73056039
0.0002150012178 101.1350394 -3.406380386
-3.999784999 68.10189439 68.28091161
-3.999784999 4.758538393 71.82938261
0.0002150012178 75.84104239 11.11203761
0.0002150012178 99.19724839 -62.16511739
-3.999784999 55.01385239 36.98648561
0.0002150012178 63.11051539 -67.93644639
0.0002150012178 38.54706539 44.72114361
-22.008883 -2.460709447e-05 -47.83053339
-3.999784999 108.3768704 -46.19984339
0.0002150012178 27.92098339 -19.16576439
-3.999784999 130.1631864 30.16043061
0.0002150012178 24.12685439 -68.09065039
-167.512671 -2.460709447e-05 14.67503161
-3.999784999 78.07849339 33.56990761
0.0002150012178 110.6817954 -64.72958339
0.0002150012178 119.3941454 -35.40695539
-3.999784999 82.71864439 -12.45835939
-3.999784999 33.62429839 41.33340961
0.0002150012178 49.09931239 -73.66382739
0.0002150012178 233.8624943 -28.08987239
-44.630131 -2.460709447e-05 41.81429361
-149.841229 -2.460709447e-05 41.18881661
0.0002150012178 35.76093039 -72.31406139
0.0002150012178 48.16664139 -21.26744839
0.0002150012178 221.2541727 27.55731961
-3.999784999 162.2307624 36.97822861
-3.999784999 10.05632839 -62.13499339
0.0002150012178 93.26254439 32.31255361
0.0002150012178 126.1521314 -57.23729139
0.0002150012178 38.42209239 31.29090661
0.0002150012178 49.24453839 -67.87787839
0.0002150012178 153.9424944 -33.20665839
-3.999784999 140.3142874 -40.21365039
-81.721217 -2.460709447e-05 -8.393405386
-3.999784999 52.83062739 -38.87794339
0.0002150012178 57.02018139 61.66623361
-3.999784999 96.51364239 -43.78392239
-3.409314999 134.3903494 -58.53242639
0.0002150012178 108.9111464 -50.60423639
0.0002150012178 25.43984239 30.85734461
0.0002150012178 197.8845654 9.484047614
-3.999784999 80.49361939 -51.11113439
-3.999784999 60.91608839 -72.73441339
-84.728332 -2.460709447e-05 -52.43721739
-3.999784999 158.6339784 -0.8925653861
-157.91277 -2.460709447e-05 3.494670614
-3.999784999 29.19430339 18.88660961
0.0002150012178 23.70037739 57.85797061
0.04416800122 240.305561 -40.07793039
0.0002150012178 209.9559554 65.69052061
-3.999784999 66.21221839 2.134943614
-3.999784999 165.4724504 -32.63302439
-42.5699 -2.460709447e-05 63.81640561
-246.734621 -2.460709447e-05 49.06749061
-3.999784999 109.2654824 41.19099861
-241.381196 -2.460709447e-05 42.77689861
-0.1744289988 167.0910834 -37.51028739
0.0002150012178 114.7495924 -43.52170539
0.0002150012178 95.45523139 1.128517614
-3.999784999 55.88608639 -11.07077539
-3.999784999 11.71511339 57.27638061
-3.999784999 89.32226739 43.98021661
-3.999784999 73.49635839 -48.05843939
-3.999784999 54.05006339 -67.99102539
0.0002150012178 102.0169894 -39.04299639
-3.999784999 72.36381639 47.21914961
-3.999784999 39.41398639 21.74774761
-3.999784999 107.7220224 -18.93959539
-3.999784999 165.2207244 12.92760461
0.0002150012178 91.44484539 37.69871661
0.0002150012178 160.4808704 -7.410282386
-100.625363 -2.460709447e-05 -27.98263739
-3.999784999 157.9462114 -26.25252939
-3.999784999 41.83592339 -54.08023739
-3.999784999 72.57173139 -37.77491239
-3.999784999 3.240372393 -62.15879439
-86.766832 -2.460709447e-05 62.97891461
-93.912612 -2.460709447e-05 68.09782761
0.0002150012178 11.60277339 72.62157561
0.0002150012178 32.15651139 48.41383361
0.0002150012178 120.4202804 -61.88109239
-3.999784999 79.38497439 -44.55709939
0.0002150012178 33.95284139 43.86495261
0.0002150012178 71.99028839 -0.2071283861
-3.999784999 45.81505639 40.59349761
-3.999784999 62.19865539 8.260547614
0.0002150012178 54.76456239 29.41647161
-3.999784999 106.8346954 -70.44839139
-3.999784999 26.44073939 8.266406614
-3.999784999 106.8461374 20.55389461
-3.999784999 117.3902144 32.96524161
-3.999784999 95.84149439 15.79259261
-21.292518 -2.460709447e-05 32.87875461
0.0002150012178 180.7686004 -5.546705386
-3.999784999 113.9114144 39.57328161
0.0002150012178 29.13708339 -34.83236239
0.0002150012178 106.8058284 -36.46046939
-3.999784999 136.1700404 -45.03152539
-3.999784999 160.1086224 15.87367461
0.0002150012178 5.734949393 -68.58885039
-3.999784999 34.18797539 61.66591261
-3.925201999 182.8166304 -2.989003386
0.0002150012178 12.15294439 30.91246561
0.0002150012178 23.40053139 -50.26159739
0.0002150012178 32.22791039 -39.46153339
-0.9157889988 166.2305764 38.34511661
0.0002150012178 82.38751939 44.37604361
-3.999784999 140.0928924 -49.47220539
-3.999784999 89.12983339 -20.93898339
-3.999784999 76.55062939 -3.751946386
0.0002150012178 88.31076439 -40.12264839
0.0002150012178 142.5755724 39.61403361
-3.999784999 85.10076439 -70.87177439
-135.302538 -2.460709447e-05 67.78378661
0.0002150012178 162.2388164 22.93627961
0.0002150012178 83.53845739 -41.25749039
0.0002150012178 37.56940539 -56.44019939
0.0002150012178 138.6162914 -45.29693239
-227.761057 -2.460709447e-05 -69.76241539
-3.999784999 37.95035039 35.38170461
-3.999784999 143.5417784 25.85772561
-3.999784999 100.4791784 32.04629461
-3.999784999 169.3984184 31.09731561
0.0002150012178 195.4608764 -52.36229639
0.0002150012178 77.74551039 -64.68441739
-247.235202 -2.460709447e-05 19.33357461
-62.941388 -2.460709447e-05 49.30561661
-3.999784999 154.2716204 -43.70563639
0.0002150012178 149.8245994 -35.33107939
0.0002150012178 38.88971739 -61.38015639
-3.999784999 55.03593839 -2.810255386
-168.285013 -2.460709447e-05 -2.310962386
-3.999784999 86.27591539 38.55839061
-3.999784999 93.88341439 -2.998540386
0.0002150012178 155.8420844 21.39711861
-3.999784999 54.12367139 7.593329614
0.0002150012178 46.68909439 -54.85645339
0.0002150012178 36.29590739 -33.88736039
0.0002150012178 66.56205639 -33.53313539
1.023161001 217.5835932 -45.90918939
0.0002150012178 138.7915544 -25.11635039
-75.011701 -2.460709447e-05 -15.97840239
-3.999784999 42.14426939 25.89420161
0.0002150012178 28.76426239 -30.24775639
-3.999784999 102.0989114 3.581206614
-23.296568 -2.460709447e-05 -63.03942939
-3.999784999 22.07306239 -65.15265039
-3.999784999 144.7090394 -31.69101739
-0.9572539988 128.7568904 52.48357061
0.0002150012178 126.6164834 -38.93700439
-219.988132 -2.460709447e-05 4.489124614
-170.62616 -2.460709447e-05 62.64500661
0.0002150012178 51.02108939 69.61245661
-3.999784999 160.2714744 24.31098261
-188.746124 -2.460709447e-05 -15.97240339
0.0002150012178 134.8736974 -40.14185139
0.0002150012178 149.0098214 63.63444461
-3.999784999 51.29408739 -29.75383739
0.0002150012178 79.92070339 -31.70334739
0.0002150012178 20.92180339 53.29423961
-132.421326 -2.460709447e-05 -41.31593039
0.0002150012178 163.1061734 -3.613145386
0.0002150012178 38.85737339 -27.48589839
-3.999784999 99.00110339 40.81450561
0.0002150012178 40.22693239 66.41517061
0.0002150012178 99.06815439 43.19680961
-16.604511 -2.460709447e-05 60.26699661
0.0002150012178 179.1226904 -0.5995363861
0.0002150012178 87.89504339 57.60849061
0.0002150012178 94.51297939 53.35209461
-3.999784999 106.4936664 -64.76555939
0.0002150012178 13.41908639 51.68817061
0.0002150012178 237.6541496 -16.69268339
0.0002150012178 91.01907339 2.234181614
0.0002150012178 119.0151094 -51.83307739
-3.999784999 93.06161339 34.56574961
-207.575219 -2.460709447e-05 33.37712461
-3.999784999 62.00750039 -22.87669739
-175.414283 -2.460709447e-05 67.35695361
-3.999784999 49.20127639 34.09455861
0.0002150012178 93.98884439 -18.27837539
0.0002150012178 232.8621773 69.61893361
-33.627161 -2.432618607 -51.96347639
-3.999784999 69.97528139 -72.28208939
-3.999784999 71.91374339 -28.37304639
0.0002150012178 32.43315839 67.99042861
0.0002150012178 72.47752739 -65.19802639
-3.430260999 12.33198639 46.96204861
-142.145042 -2.460709447e-05 -41.89598639
-3.999784999 122.8966994 35.29931161
-3.999784999 60.58234339 -31.82597139
-3.999784999 58.80879639 -66.90852639
-3.999784999 81.40126139 56.43236761
-3.999784999 91.68958739 -15.35275239
-3.999784999 174.6700534 22.37536561
-3.999784999 30.10632439 44.84922061
-3.999784999 132.6731494 44.26547061
-3.999784999 106.3952774 -23.30790439
-3.999784999 39.72741939 -25.15102739
-3.999784999 31.40775739 -42.33336739
-3.999784999 36.96281039 14.78200961
-13.258286 -2.460709447e-05 72.76438561
-244.447439 -2.460709447e-05 -24.03444439
0.0002150012178 96.00798639 -66.69488439
0.0002150012178 73.40827639 37.94600361
-3.999784999 117.1536114 -30.18065939
0.0002150012178 111.5373424 48.50923561
0.0002150012178 78.18068139 26.24572961
-3.999784999 166.8873134 -12.28791939
0.0002150012178 129.8767094 -61.07029139
0.0002150012178 143.1506064 66.07718661
-3.999784999 63.55513639 -3.865757386
0.0002150012178 63.58172339 66.88520661
-0.5364459988 181.7810604 10.84593361
-207.114149 -2.460709447e-05 -61.21467939
-3.999784999 44.25185339 -28.10365839
-3.999784999 70.33263239 -18.15159839
-3.999784999 10.25899639 64.30640461
-124.735377 -2.460709447e-05 9.380689614
-3.999784999 106.7275584 45.05056861
0.0002150012178 134.7972044 48.22085461
0.0002150012178 43.22270339 -63.79509439
-3.999784999 35.57196239 -20.37194639
0.0002150012178 44.41435439 61.13930961
0.0002150012178 114.3452284 -38.62287339
-0.08255499878 120.5306594 -25.55356139
0.0002150012178 34.64836039 -1.661166386
-3.999784999 95.96560139 -8.110926386
-2.951304999 0.4999753929 60.89065861
-3.999784999 47.57448039 16.95085061
-3.999784999 69.75723139 53.93682761
0.0002150012178 65.95488239 9.117342614
-7.598676999 -2.460709447e-05 59.63013361
-3.999784999 144.4180544 -25.20960939
0.0002150012178 137.5494934 42.52626361
-13.510487 -2.460709447e-05 -57.50397839
0.0002150012178 125.1610994 -47.31457039
-3.999784999 43.81494939 45.25118461
-3.999784999 55.89506239 -48.61922739
0.0002150012178 110.1118044 -59.75951239
0.0002150012178 177.6178684 8.142912614
-118.959064 -2.460709447e-05 -48.82616439
0.0002150012178 124.4862164 43.51402861
-3.999784999 117.9605344 -48.05989339
-3.999784999 128.8386964 -37.64076539
-240.378767 -2.460709447e-05 34.27462761
-3.999784999 138.4441684 -53.65180839
-1.816209999 0.4999753929 65.72544261
-160.613514 -2.460709447e-05 51.57053861
-3.999784999 165.6274354 21.73439061
0.0002150012178 201.8646074 -41.41479139
-3.999784999 53.80966139 22.67286461
0.0002150012178 159.1750424 -16.89481139
0.0002150012178 145.5051714 29.21608861
-3.999784999 46.08686439 -0.7842733861
-3.999784999 112.8195894 -21.96770639
-3.999784999 50.75140439 3.133001614
-3.999784999 34.61524039 -27.48314039
-224.720571 -2.460709447e-05 66.01233061
0.0002150012178 164.6424274 49.78935661
-0.02083699878 151.5678464 -48.28051439
-3.999784999 19.98269439 69.95794061
-3.999784999 65.97902739 -30.66116939
-35.52216 -2.460709447e-05 -43.85583339
-3.999784999 89.62156339 -66.19906939
0.0002150012178 119.5140084 44.04479961
0.0002150012178 210.3931524 -68.24886639
0.0002150012178 216.8822541 58.57819361
-3.999784999 16.38396439 44.66241861
-163.318893 -2.460709447e-05 35.17073261
-3.999784999 161.4913094 -30.63283739
-3.999784999 71.46715739 3.726713614
-3.999784999 22.69010339 -43.43358739
0.0002150012178 89.51090139 22.18327461
-102.242786 -2.460709447e-05 60.13015261
-3.999784999 170.7353614 13.70430561
0.0002150012178 222.5868455 -61.68961739
0.0002150012178 15.09331039 -46.22238439
-205.648312 -2.460709447e-05 -31.22360539
-224.122151 -2.460709447e-05 -28.26509739
-59.473971 -2.460709447e-05 62.62027761
-3.999784999 61.48051739 54.28252561
-10.381883 -2.460709447e-05 17.06544861
0.0002150012178 170.7905944 -22.24334539
0.0002150012178 59.31138939 26.95036361
0.0002150012178 82.68253339 33.85784661
-3.999784999 111.8307384 27.51115761
-3.999784999 166.1891154 -26.84134139
-3.999784999 97.85411539 52.00147561
0.0002150012178 201.4972364 37.74096261
-3.999784999 19.81998539 51.62998461
0.0002150012178 240.5945911 63.27800861
0.0002150012178 100.1389104 33.91761061
-3.999784999 112.3814424 -26.99148239
-3.999784999 80.95315939 -1.548518386
-3.999784999 101.9310694 -24.42983639
-53.396332 -2.460709447e-05 24.16478261
0.0002150012178 43.51164439 -5.822836386
0.0002150012178 133.8695994 -33.18627239
-17.939363 -2.460709447e-05 3.548514614
0.0002150012178 16.36583839 70.43700161
0.0002150012178 26.00348439 12.60321461
-3.999784999 26.58031439 -25.50026739
-3.999784999 79.44577039 -8.367441386
0.0002150012178 121.8163634 51.91767661
0.0002150012178 100.8488994 1.020086614
0.0002150012178 164.6885284 28.87098761
0.0002150012178 76.47799739 55.37571461
0.0002150012178 117.1660804 40.01553161
0.0002150012178 101.0830844 -34.03584139
0.0002150012178 90.71773139 49.35523761
-3.999784999 50.29251139 -23.43385639
-3.999784999 148.0768884 -49.47600539
-3.999784999 143.0599414 30.22971961
0.0002150012178 136.0140644 -56.27973639
0.0002150012178 18.67875039 -4.925001386
0.0002150012178 218.2097659 -62.63745439
-103.183116 -2.460709447e-05 66.33394761
-3.685644999 1.354027393 -49.92536139
-24.034274 -2.460709447e-05 65.05210961
-3.999784999 79.75473539 20.29677661
0.0002150012178 57.15051239 19.42412561
0.0002150012178 82.91368839 23.79198061
-54.936069 -2.460709447e-05 12.61205261
0.0002150012178 98.37014139 -47.21548239
0.0002150012178 86.46837139 -48.22050439
0.0002150012178 86.94045639 -9.734375386
-3.999784999 127.9752994 -53.08748539
0.0002150012178 146.2442594 33.65917961
-3.999784999 141.4431494 44.76760761
0.0002150012178 148.1456744 -40.35370539
0.0002150012178 7.043215393 -55.38078639
-3.999784999 94.27548039 -53.67845839
0.0002150012178 55.57867739 -23.96879839
0.0002150012178 34.54287839 -46.03745639
0.0002150012178 142.5388094 -41.50611139
-3.999784999 100.9754574 -40.49100839
0.0002150012178 66.00431739 -15.64934139
0.0002150012178 44.06367539 -68.60240739
0.0002150012178 56.83239639 -60.84958539
-3.999784999 81.50570139 5.908200614
0.0002150012178 149.8656414 29.93921961
-3.999784999 105.6368114 -33.12390639
-3.999784999 97.78697039 5.162534614
-7.542619999 -2.460709447e-05 46.89330061
0.0002150012178 125.2925444 -30.75231839
0.0002150012178 169.3118064 -27.45085639
-243.525658 -2.460709447e-05 -5.904265386
-69.602944 -2.460709447e-05 -17.50826039
-3.999784999 99.53156139 -50.24611139
0.0002150012178 133.4857124 26.77048661
-87.608593 -2.460709447e-05 41.93711961
0.0002150012178 91.81432639 67.49858061
0.0002150012178 80.52317839 -68.61071839
0.0002150012178 67.20435839 -44.59326039
0.0002150012178 112.4968204 23.03069061
-16.748158 -2.460709447e-05 -68.32085939
0.0002150012178 200.1706314 55.27866361
-3.999784999 71.54038239 31.91567261
0.0002150012178 121.4928644 33.99183661
0.0002150012178 61.41951939 34.07696561
-36.962884 -2.460709447e-05 -37.25806539
-1.461112999 20.72780139 -39.53210039
0.0002150012178 211.1486564 58.87825461
-3.651641999 98.51985439 58.97402261
-3.999784999 136.1485964 32.28875261
-227.212434 -2.460709447e-05 12.14571761
-3.999784999 166.7822494 4.985545614
0.0002150012178 173.1964654 -10.80547239
0.0002150012178 239.2190079 14.33017861
-3.999784999 43.49339839 -10.18114639
0.0002150012178 160.4877744 12.94040861
0.0002150012178 20.92045639 -8.662227386
0.0002150012178 106.6412144 35.20288261
0.0002150012178 160.7600254 4.134000614
-27.744109 -2.460709447e-05 57.83857661
0.0002150012178 15.50703639 -35.53805739
-3.999784999 136.1574124 39.43375161
-3.999784999 78.79962539 67.45622761
0.0002150012178 74.39510039 -22.97655139
0.0002150012178 158.0265374 -34.33719239
0.0002150012178 184.5573344 22.13585561
-3.999784999 58.80448939 22.84595761
0.0002150012178 245.6340308 -46.89200839
-218.461277 -2.460709447e-05 46.34638761
-118.734444 -2.460709447e-05 72.19654161
0.0002150012178 90.38956939 29.15515861
-210.716064 -2.460709447e-05 -6.965463386
-3.999784999 74.77799039 -59.48029539
0.0002150012178 130.0128944 -49.03349039
0.0002150012178 7.169822393 23.32327861
-3.999784999 73.48742039 -7.964871386
-206.348012 -2.460709447e-05 -56.06403239
0.0002150012178 203.6269814 -70.11432639
0.0002150012178 59.19990739 39.26837661
-138.040006 -2.460709447e-05 -55.18784639
0.0002150012178 71.60219539 -4.437422386
0.0002150012178 247.7005383 0.8624976139
-81.182407 -2.460709447e-05 22.91038861
0.0002150012178 75.35143439 64.01299761
-13.334535 -2.460709447e-05 64.22741861
-72.25954 -1.419249607 28.51973561
-186.704401 -2.460709447e-05 26.69546161
0.0002150012178 116.8206524 -57.16636739
-97.318634 -2.460709447e-05 -19.94389539
0.0002150012178 44.92124539 31.53732361
-167.650825 -2.460709447e-05 49.35511961
0.0002150012178 120.3130314 29.38779961
0.0002150012178 15.12530139 66.14368761
0.0002150012178 7.531924393 -0.8282483861
0.0002150012178 86.35549639 14.85523661
0.0002150012178 82.65323439 8.280852614
0.0002150012178 102.4900854 52.05777361
-3.999784999 28.92810039 35.07179261
-3.999784999 55.73749739 14.30591261
0.0002150012178 96.14225739 -22.55843039
