# .PCD v0.7 - Point Cloud Data file format
VERSION 0.7
FIELDS x y z
SIZE 4 4 4
TYPE F F F
COUNT 1 1 1
WIDTH 1273
HEIGHT 1
VIEWPOINT 0 0 0 1 0 0 0
POINTS 1273
DATA ascii
174.64474 -2.460723954e-05 16.08497461
81.419168 -2.460723954e-05 -77.27407239
124.414776 41.17936839 149.9999026
94.407586 17.18277039 143.9999026
23.356536 -2.460723954e-05 -1.731133386
114.545248 -2.460723954e-05 141.9403836
164.060085 -2.460723954e-05 -92.67795039
95.632479 35.95426039 -144.0000974
122.198023 -2.460723954e-05 -26.55579539
45.00658 -2.460723954e-05 30.82677961
32.216982 -2.460723954e-05 133.9358246
118.01784 57.88400539 -150.0000974
229.613051 -2.460723954e-05 10.94675961
0.0002150000628 9.610004393 124.4789506
-1.514473 9.894858393 149.9999026
26.497232 -2.460723954e-05 100.0067756
100.352736 -2.460723954e-05 -68.66006739
235.711533 33.90235739 149.9999026
-0.3447349999 49.99997539 -63.50624139
103.794685 50.90782839 143.9999026
0.0002150000628 34.34463539 92.56131661
204.193013 -2.460723954e-05 -101.8336384
167.967385 4.732353393 149.9999026
207.045418 27.35981139 143.9999026
127.783506 49.39602839 -150.0000974
223.595028 56.77210639 -150.0000974
208.492801 -2.460723954e-05 -83.28154239
211.025593 27.11208039 -148.6869834
21.820712 16.45572339 -150.0000974
53.196533 47.72786839 149.9999026
85.13977 -2.460723954e-05 54.14598561
140.414824 4.888060393 149.9999026
234.64176 26.83979039 -150.0000974
180.270526 -2.460723954e-05 93.92309761
142.277712 -2.460723954e-05 28.14625561
238.358868 -2.460723954e-05 113.4390456
112.741391 -2.460723954e-05 -5.526247386
235.890502 -2.460723954e-05 -97.79875739
199.512531 -2.460723954e-05 99.83521661
141.56605 -2.460723954e-05 14.33283461
177.679058 49.54750339 149.9999026
135.098872 -2.460723954e-05 36.14377561
241.458759 -2.460723954e-05 22.83014561
188.029813 -2.460723954e-05 -130.3091474
159.332437 -2.460723954e-05 43.02404761
117.28828 -2.460723954e-05 70.04112261
170.804841 -2.460723954e-05 28.68301761
0.0002150000628 9.392135393 -14.87108139
52.966935 -2.460723954e-05 -26.51886039
4.269738 -2.460723954e-05 133.7776006
31.248587 14.92483039 149.9999026
217.872493 -2.460723954e-05 141.4338146
0.0002150000628 41.41452039 -13.74291539
203.043311 0.2499753928 -144.6121414
0.0002150000628 29.22482639 71.51142061
0.0002150000628 39.42217539 14.88280261
23.33466 -2.460723954e-05 138.8636836
99.42551 -2.460723954e-05 120.5043496
85.800801 -2.460723954e-05 26.17834261
42.996538 67.99997539 149.0968846
56.409227 -2.460723954e-05 -6.006960386
177.045161 -2.460723954e-05 139.2961616
100.082904 -2.460723954e-05 -37.51254639
157.108546 63.76925539 -144.0000974
244.395938 0.7675833928 -150.0000974
175.283135 39.23100439 143.9999026
13.419342 -2.460723954e-05 -106.4881404
232.690488 -2.460723954e-05 78.82169561
198.035522 67.99997539 148.0852426
99.94118 -1.752905607 143.9999026
84.550538 56.22721139 -150.0000974
69.73624 -2.460723954e-05 14.08159661
210.633383 -2.460723954e-05 74.29324761
102.570087 6.446257393 149.9999026
119.863493 -2.460723954e-05 -139.9526064
-0.4958789999 -2.460723954e-05 37.26925161
189.676376 -2.460723954e-05 -22.10711639
71.966566 24.07711739 143.9999026
77.280596 23.11964439 -144.0000974
29.438937 -2.460723954e-05 -15.45683439
-0.1675499999 49.99997539 -18.05102639
15.574364 66.58213439 -144.0000974
90.121941 8.690759393 -150.0000974
32.857153 30.70283239 149.9999026
90.294242 37.82489439 143.9999026
138.138921 -2.460723954e-05 -71.73616439
31.6574 -2.460723954e-05 13.09413061
142.632077 -2.460723954e-05 4.760808614
138.198248 35.83149939 -144.0000974
239.967293 16.65627139 143.9999026
197.011904 54.00650539 149.9999026
112.517824 -2.460723954e-05 -79.99691839
103.835629 -2.460723954e-05 -55.54341239
19.667403 34.47552939 -144.0000974
97.196856 32.10838739 149.9999026
112.102351 7.146279393 149.9999026
111.818489 43.61642539 143.9999026
213.245734 -2.460723954e-05 -74.36547839
105.833905 20.45272339 -144.0000974
24.410821 -2.460723954e-05 -43.49666439
160.774316 -2.460723954e-05 -138.9651224
-0.2784219999 26.43098139 142.9999026
232.322885 -2.460723954e-05 -5.601127386
159.365119 -2.460723954e-05 89.98123061
198.571338 44.45618239 143.9999026
-0.5295829999 49.99997539 21.37362761
51.354389 17.67407839 149.9999026
249.339544 -2.460723954e-05 -111.5241994
156.763336 -2.460723954e-05 100.1057036
246.329185 56.23216939 149.9999026
190.787146 61.75994639 -144.0000974
237.607114 -2.460723954e-05 -55.77937039
183.894921 62.18240639 143.9999026
185.645664 -2.460723954e-05 128.4170906
82.677216 51.06567439 149.9999026
60.194024 53.40168439 143.9999026
95.705902 -2.460723954e-05 -119.5553094
143.62906 -2.460723954e-05 115.7833936
100.522502 9.452813393 -144.0000974
21.697214 1.530608393 -150.0000974
160.913582 -2.460723954e-05 -43.78739639
161.265902 7.094293393 -150.0000974
7.763776 -2.460723954e-05 68.10310861
191.811494 -2.460723954e-05 22.82554761
185.064804 -2.460723954e-05 85.50439561
172.477344 28.28565439 -150.0000974
223.466148 -2.460723954e-05 59.73186961
151.771836 -2.460723954e-05 -11.89379439
160.023055 16.54253039 149.9999026
141.20734 20.51326439 -150.0000974
83.695385 41.48588939 -144.0000974
204.118946 6.307359393 149.9999026
143.120497 -2.460723954e-05 -39.74734239
102.674259 59.79927139 143.9999026
77.960688 36.96922839 149.9999026
214.058463 -1.144057607 -148.8340064
7.444302 43.54471439 143.9999026
173.491824 67.81353339 -150.0000974
223.606375 -2.460723954e-05 122.7632496
26.16505 -2.460723954e-05 -102.5578064
0.0002150000628 26.93815239 118.4018076
0.0002150000628 40.84600639 -136.2779414
133.121103 -2.460723954e-05 127.9767916
193.462709 42.00953739 -150.0000974
35.795075 -2.460723954e-05 114.4863106
203.726844 -2.460723954e-05 37.57861461
30.66359 48.69012239 143.9999026
45.81958 -2.460723954e-05 -127.0903194
33.719469 61.36754239 149.9999026
213.326162 -2.460723954e-05 -99.34202039
89.871188 -2.460723954e-05 65.91496061
101.51972 -2.224873607 -144.0000974
137.312667 -2.460723954e-05 45.57602661
3.89769 55.52967439 143.9999026
214.888536 29.15997339 149.9999026
48.741367 45.14173439 -150.0000974
89.211452 -2.460723954e-05 -134.2016124
152.436169 40.87460639 149.9999026
0.0002150000628 36.50735739 -4.277157386
44.158263 42.31479339 143.9999026
136.048234 -2.460723954e-05 56.68359761
42.406759 -2.460723954e-05 -50.60184039
50.880405 -2.460723954e-05 -106.3725824
170.646742 -2.460723954e-05 89.56234861
224.456221 43.22460139 -150.0000974
171.616355 -2.460723954e-05 -135.3352504
135.304536 -2.460723954e-05 -55.64111739
17.560066 22.29379339 149.9999026
80.7777 19.11670139 149.9999026
-0.2901469999 49.99997539 -27.56517539
32.508619 48.81656939 -150.0000974
31.856749 36.84154439 -144.0000974
0.0002150000628 27.68897239 80.75106161
223.28886 -2.460723954e-05 -91.39816039
210.728406 -2.460723954e-05 98.37323561
4.734815 11.73858639 -144.0000974
176.733249 -2.460723954e-05 61.53881661
246.42491 10.34190839 -144.0000974
234.201152 47.20891339 -150.0000974
147.687589 21.05265439 -144.0000974
91.926892 60.25144239 143.9999026
99.469215 -2.460723954e-05 -109.0911974
156.789581 -2.460723954e-05 -102.9322244
0.0002150000628 7.400354393 11.77682761
167.127208 -2.460723954e-05 127.4740966
214.503372 -2.460723954e-05 122.1634926
249.203459 59.87264139 -150.0000974
70.752192 43.94260739 149.9999026
92.634172 -2.460723954e-05 109.6040706
227.361023 44.94775939 149.9999026
83.910308 8.810321393 -144.0000974
217.091171 -2.460723954e-05 -54.32720839
23.7092 67.99997539 147.8104186
136.760061 6.331043393 -144.0000974
-1.207594 49.99997539 -137.7686054
250.431202 -2.460723954e-05 -12.75816039
137.31721 25.36005739 143.9999026
53.50991 28.69935939 149.9999026
109.425551 -2.460723954e-05 54.58497961
149.855291 -2.460723954e-05 -74.30250139
76.197585 2.967438393 143.9999026
196.355268 -2.460723954e-05 -31.08380239
163.446277 -1.571777607 143.9999026
15.866376 41.98786539 143.9999026
12.933462 -2.460723954e-05 43.45777761
0.0002150000628 5.041746393 -72.76318039
13.962012 24.58548139 -144.0000974
0.0002150000628 43.87985339 -104.3020174
93.923956 27.58657439 -144.0000974
156.073245 -2.460723954e-05 -60.99620939
219.660179 22.10610139 149.9999026
226.846595 31.14636139 149.9999026
56.374913 -2.460723954e-05 37.94779961
19.773274 -2.460723954e-05 -121.7238414
183.851392 -1.473160607 -150.0000974
199.023292 -2.460723954e-05 115.2220636
198.796151 58.93955239 -144.0000974
121.410064 42.09792639 -150.0000974
22.794759 46.11271239 149.9999026
126.886533 4.055548393 149.9999026
0.0002150000628 20.77047739 -47.77516639
174.568398 3.407808393 -144.0000974
63.658315 37.67019239 143.9999026
101.661713 66.45149639 -150.0000974
137.892932 50.59561139 143.9999026
-2.186511 48.74367339 142.9999026
180.735343 32.93535239 -150.0000974
186.14876 43.32608839 143.9999026
208.657597 12.76540939 143.9999026
121.48973 -2.460723954e-05 52.36235461
117.484104 25.51500339 -150.0000974
96.169872 23.54339139 149.9999026
120.128224 29.01822439 149.9999026
40.443725 60.64750939 -144.0000974
10.496847 -2.460723954e-05 -38.86544739
54.414443 -2.460723954e-05 106.1538926
7.925817 -2.460723954e-05 142.2741666
53.83565 5.869720393 149.9999026
189.095328 10.08100739 -144.0000974
97.080514 -2.460723954e-05 -86.84336439
24.543314 14.86358539 143.9999026
23.549996 -2.460723954e-05 -137.9452484
43.75501 -2.460723954e-05 77.28806661
89.902252 44.69137339 -150.0000974
225.776485 67.99997539 147.0973086
57.556174 67.99997539 149.6241976
60.910502 -2.460723954e-05 78.99052561
107.951363 67.99997539 148.3742796
0.0002150000628 38.23012439 72.84649861
163.016163 56.42802639 143.9999026
9.392127 -2.460723954e-05 -51.95243339
225.351579 55.21183139 143.9999026
0.0002150000628 8.792560393 47.20940261
21.660582 -2.460723954e-05 31.75598661
219.418296 55.40134039 149.9999026
103.647869 -2.460723954e-05 -28.36731339
149.917581 53.48409339 149.9999026
78.394597 44.73045939 -150.0000974
202.091011 18.92031439 -144.0000974
113.612378 24.33871739 143.9999026
186.002219 -2.460723954e-05 29.91084561
15.133731 -2.460723954e-05 -98.40537239
242.960184 -2.460723954e-05 70.16982761
85.469452 27.34343439 -150.0000974
185.723332 -2.460723954e-05 -100.0368644
165.395149 -2.460723954e-05 61.23243661
40.535292 30.63972039 -144.0000974
211.999727 44.67108139 -145.3338624
32.422122 -2.460723954e-05 82.94862161
132.074565 1.434449393 143.9999026
40.502019 -2.460723954e-05 10.05031361
28.301194 44.65375539 -144.0000974
66.179165 -2.460723954e-05 -19.56198639
56.318597 14.41430439 -150.0000974
0.0002150000628 25.43086839 -39.04922539
70.751844 -2.460723954e-05 88.77368661
189.66682 6.150153393 143.9999026
170.061744 -2.460723954e-05 -112.7864464
74.108212 57.48469739 -150.0000974
142.070333 -2.460723954e-05 -30.92368339
229.588471 -2.460723954e-05 113.4616086
198.216933 -2.460723954e-05 -40.59365939
54.720352 -2.460723954e-05 -76.68591939
172.47837 50.53030839 -144.0000974
230.186462 13.57015239 149.9999026
148.39925 7.688730393 143.9999026
0.0002150000628 42.65507439 -122.5486784
37.786898 -2.460723954e-05 -86.50889639
224.428931 36.14393539 143.9999026
125.990317 -2.460723954e-05 -5.698842386
158.481913 67.99997539 148.0974306
0.0002150000628 17.81463439 142.5221876
128.326089 3.576429393 -150.0000974
221.426299 -2.460723954e-05 -67.80057839
72.8217 -2.460723954e-05 -12.08047639
42.187351 7.569232393 149.9999026
0.0002150000628 26.46261439 -80.53516539
0.0002150000628 1.563515393 0.7862166143
127.037125 27.85785639 -144.0000974
152.560878 50.67763239 -150.0000974
237.531195 32.30769439 -144.0000974
166.953526 -2.460723954e-05 11.37610861
80.09527 -2.460723954e-05 108.3199936
70.229246 -2.460723954e-05 -140.4090524
19.964729 -2.460723954e-05 -57.46209339
59.472304 -2.460723954e-05 -91.33588239
153.388222 -2.460723954e-05 82.14464961
186.749429 26.88095739 -150.0000974
210.960907 -2.460723954e-05 87.57699061
0.0002150000628 26.34282339 19.87584961
113.761785 -2.460723954e-05 -134.7300834
159.85274 11.21137139 143.9999026
69.466654 -2.460723954e-05 -81.11504539
68.430182 -2.460723954e-05 -37.61039539
57.988999 47.06048139 -150.0000974
35.497649 8.064932393 -150.0000974
0.0002150000628 41.47754839 -79.24561839
246.095145 64.90593339 143.9999026
241.065588 -2.460723954e-05 -25.23507239
103.665739 24.21541239 143.9999026
45.988771 -2.460723954e-05 -5.051648386
72.953762 39.15729539 143.9999026
13.84504 -2.460723954e-05 136.0058246
245.911858 31.62798939 -150.0000974
150.522342 -2.460723954e-05 -28.47617339
82.766642 -2.460723954e-05 4.468934614
230.72912 33.77303539 -150.0000974
104.110251 38.14690839 143.9999026
182.216883 37.94653339 -144.0000974
0.0002150000628 28.08065039 -100.5480174
136.343496 26.93527139 -150.0000974
85.816727 -2.460723954e-05 -10.72493139
109.438329 -2.460723954e-05 12.63838861
88.490107 9.185942393 149.9999026
52.946712 32.67703839 -150.0000974
43.365893 -2.460723954e-05 -113.2729494
186.110016 50.99878139 149.9999026
49.323389 59.16925639 -144.0000974
128.686758 53.80952939 149.9999026
135.464939 63.17941539 149.9999026
35.329852 21.68885439 149.9999026
0.0002150000628 36.16220839 -113.2334514
173.881042 -2.460723954e-05 74.84342461
199.886909 35.25289439 143.9999026
203.483473 23.68812039 149.9999026
93.466896 -2.460723954e-05 43.23096261
162.900792 -2.460723954e-05 25.44908361
142.354222 -2.460723954e-05 95.41667061
52.242303 -2.460723954e-05 -88.23294639
205.43395 32.18079539 149.9999026
246.523041 40.44236139 -150.0000974
66.213062 44.13067839 -144.0000974
74.97045 13.42988439 -150.0000974
189.641875 23.40735439 149.9999026
159.207947 -2.460723954e-05 10.11159961
12.999733 28.66178439 149.9999026
190.785673 -2.460723954e-05 -51.39878239
158.609858 20.98236839 -150.0000974
124.643502 67.99997539 -149.7158874
113.864515 54.14963639 -144.0000974
176.840487 -2.460723954e-05 -116.6799624
248.900207 35.83935539 143.9999026
71.075253 36.94659239 -150.0000974
98.911099 48.38070539 149.9999026
44.565363 47.90360239 -144.0000974
0.0002150000628 39.66089439 -90.95978539
200.969092 -2.460723954e-05 -114.7583454
56.911334 -2.460723954e-05 15.70150561
103.430248 -2.460723954e-05 63.30612161
93.366878 59.40244039 -150.0000974
188.041214 -2.460723954e-05 -0.1945283857
173.675398 66.54892439 143.9999026
231.543476 58.15652039 -150.0000974
236.601183 -2.460723954e-05 16.58692261
43.489173 6.745932393 -150.0000974
232.289462 25.30174439 143.9999026
75.018619 -2.460723954e-05 59.51384061
193.340869 16.63160939 -150.0000974
175.595218 -2.460723954e-05 -125.6054784
114.943485 -2.460723954e-05 111.4433966
139.809552 42.92762339 143.9999026
141.873893 -2.460723954e-05 -108.0727004
210.926533 -2.460723954e-05 17.84085861
221.582972 48.60282239 -144.0000974
186.097856 10.36796839 149.9999026
9.109965 3.752722393 -144.0000974
242.274778 -2.460723954e-05 138.3963606
0.0002150000628 1.097131393 78.50298761
24.853898 8.571332393 -150.0000974
0.0002150000628 0.7208413928 -88.34495239
117.010566 -2.460723954e-05 20.51003761
104.229357 -2.460723954e-05 103.0774786
21.687925 38.40559739 149.9999026
0.0002150000628 8.461179393 -90.94987939
7.810195 59.78516239 -150.0000974
231.472992 8.482404393 143.9999026
239.626997 67.99997539 -145.3429414
155.177762 58.39723439 -150.0000974
113.967311 -2.460723954e-05 4.444584614
0.0002150000628 49.44882139 2.936979614
141.636741 -2.460723954e-05 -78.56298639
232.996541 55.81437839 143.9999026
38.473322 64.48472139 143.9999026
43.507469 40.30978339 -144.0000974
56.990207 -2.460723954e-05 -121.6494924
135.776811 14.24104239 149.9999026
0.0002150000628 41.57137939 24.42952361
158.212845 41.81310239 143.9999026
154.320364 11.23592039 149.9999026
37.816345 -2.460723954e-05 -32.12480039
157.009785 49.05246139 -144.0000974
111.132052 13.05369839 -144.0000974
145.459251 -2.460723954e-05 136.5185196
28.571708 32.59725039 143.9999026
187.302724 -2.460723954e-05 -35.82863239
31.142193 15.36019039 -150.0000974
14.911736 48.54486139 -150.0000974
0.0002150000628 33.67144039 -28.35044139
145.412265 -2.460723954e-05 20.88990761
0.0002150000628 28.76615939 -134.5934334
206.733438 55.35962839 143.9999026
93.91765 -0.5746986072 -144.0000974
240.241716 -2.460723954e-05 79.57757361
62.764757 -2.460723954e-05 -51.81732039
83.935767 -1.202261607 143.9999026
0.0002150000628 17.29986839 129.1903486
8.627403 -2.460723954e-05 -124.1457494
125.925809 -2.460723954e-05 11.18791161
69.691472 55.20387739 -144.0000974
177.778114 54.17053739 143.9999026
156.388998 36.96209939 -150.0000974
27.446388 -2.460723954e-05 90.82982261
-2.423673 42.49912939 -144.0000974
218.307195 11.11412239 149.9999026
105.037094 0.7410143928 -150.0000974
159.975726 -2.460723954e-05 -23.15706339
201.766053 5.472824393 -150.0000974
77.809074 56.48005239 143.9999026
182.180928 -2.460723954e-05 121.5525786
93.194568 -2.460723954e-05 102.0842046
177.671906 -2.460723954e-05 -63.68169539
43.446367 -2.460723954e-05 -17.38298139
91.072743 35.95986339 -150.0000974
242.035553 -2.460723954e-05 -116.3116424
67.634574 -2.460723954e-05 130.2872776
148.87791 -2.460723954e-05 68.54702261
23.742038 -2.460723954e-05 -21.35073139
223.902418 5.292520393 149.9999026
6.485787 -2.460723954e-05 -25.57987739
198.341588 43.76366239 -144.0000974
226.698771 -0.8237396072 143.9999026
75.39241 -2.460723954e-05 127.1435336
167.538179 -2.460723954e-05 -142.1500044
64.192402 65.83939039 -144.0000974
6.834411 62.43179139 149.9999026
0.0002150000628 34.95649239 -140.8737304
220.162309 -2.460723954e-05 -42.28719639
146.923619 -2.460723954e-05 -5.503306386
-0.8901469999 49.99997539 65.05790561
17.993452 -2.460723954e-05 66.23471261
68.658361 58.02608239 149.9999026
40.751882 -2.460723954e-05 37.65572161
0.0002150000628 32.44541039 32.14204561
0.0002150000628 15.00295939 9.021607614
65.298524 27.39320239 143.9999026
74.385221 5.545247393 -144.0000974
18.162597 23.27584239 -150.0000974
196.840032 -2.460723954e-05 -67.51778539
142.256947 -2.460723954e-05 -15.72535539
24.399102 59.81778239 -150.0000974
143.11383 49.89347539 149.9999026
76.190325 33.31581039 -144.0000974
152.155625 5.717310393 -150.0000974
20.763154 56.53646539 149.9999026
130.470682 64.15846239 143.9999026
131.745315 33.78835939 -150.0000974
0.0002150000628 46.77756939 36.78847261
232.006277 1.422797393 -144.0000974
0.0002150000628 4.450350393 -37.09704939
97.442317 11.76348239 149.9999026
0.0002150000628 5.025739393 -49.69373239
4.97492 20.54690539 149.9999026
1.161347 -2.460723954e-05 -116.1295084
149.247591 -1.982192607 143.9999026
59.644855 36.20231639 149.9999026
76.53999 -2.460723954e-05 70.04711161
27.498034 -2.460723954e-05 107.2979036
89.70317 31.81566939 149.9999026
152.555616 56.82827939 143.9999026
121.752418 15.91809139 -144.0000974
152.549283 -2.460723954e-05 -88.14478039
204.933757 25.68799939 -144.0000974
163.89185 -2.460723954e-05 -101.0856104
0.0002150000628 7.200951393 -108.8520304
107.220754 -2.460723954e-05 142.2340356
0.0002150000628 30.81295239 -93.74807639
45.795441 -2.460723954e-05 -61.37110539
36.963077 4.279714393 143.9999026
117.595875 38.50528839 149.9999026
0.0002150000628 8.844066393 35.54022561
101.142722 28.81747739 -144.0000974
157.880739 3.176955393 143.9999026
162.79546 39.97004539 149.9999026
188.369998 0.5066423928 149.9999026
0.0002150000628 25.16257939 99.76659661
111.346541 33.28526139 143.9999026
219.011718 11.34917039 -144.0000974
171.839305 64.01403439 -144.0000974
217.456266 41.18983339 -150.0000974
119.414086 66.44635539 149.9999026
33.202612 -2.460723954e-05 -78.67011939
210.779196 -2.460723954e-05 139.8107356
241.323578 39.44598439 149.9999026
109.586237 67.95352239 -150.0000974
192.966934 64.78265239 143.9999026
181.076904 -2.460723954e-05 -85.45383039
0.0002150000628 29.52414739 128.7969356
249.644619 -2.460723954e-05 -69.16677439
127.289197 45.35333739 -144.0000974
117.615497 38.07355139 -144.0000974
214.551579 -2.460723954e-05 -87.24284939
195.94629 16.94118739 143.9999026
230.594553 -2.460723954e-05 63.16176861
195.196734 31.54204939 -144.0000974
229.431569 -2.460723954e-05 -128.8368114
210.261943 53.42613039 149.9999026
0.0002150000628 29.33832739 -5.153071386
163.612346 18.60380739 -144.0000974
228.902621 44.61415339 -144.0000974
74.070174 20.73104339 -150.0000974
64.215102 67.99997539 146.1634966
0.0002150000628 6.587076393 62.47269261
36.949029 -2.460723954e-05 -0.6397353857
142.887231 30.84715639 143.9999026
239.777734 34.77629439 143.9999026
57.663102 38.42906339 -144.0000974
237.814477 53.29873339 -144.0000974
87.068058 22.57701039 149.9999026
66.591022 46.42910539 143.9999026
146.22224 -1.169905607 -144.0000974
28.328623 -0.4261506072 143.9999026
144.122824 46.07339739 -150.0000974
149.617144 -2.460723954e-05 100.7459816
172.901699 22.55241639 -144.0000974
170.639463 42.98958039 149.9999026
54.470792 22.97435339 -150.0000974
3.363861 48.48009039 -144.0000974
222.410042 39.47543239 149.9999026
59.501615 15.76117939 149.9999026
105.744829 50.52896539 -144.0000974
9.190092 -2.460723954e-05 -133.0673894
21.441932 7.591501393 143.9999026
154.515824 8.782925393 -144.0000974
63.933833 9.433162393 143.9999026
11.821825 -2.460723954e-05 35.05223161
52.928745 -2.460723954e-05 91.10945461
114.338509 64.22429539 -144.0000974
121.656736 -2.460723954e-05 -33.66410839
70.580039 20.49133539 149.9999026
215.516081 8.483282393 143.9999026
72.010343 -2.460723954e-05 37.69529261
128.89615 -2.460723954e-05 -137.3295874
-0.2076769999 -2.460723954e-05 100.2975286
116.283007 53.42609639 143.9999026
35.509232 40.62988339 143.9999026
162.901115 28.64458139 -150.0000974
25.496567 -2.460723954e-05 37.73247161
138.594615 -2.308699607 -144.0000974
0.0002150000628 13.69756039 -75.28720439
0.0002150000628 47.53647239 -36.71937439
20.775825 33.30681939 143.9999026
193.989669 -2.460723954e-05 141.5618756
111.706964 44.22941839 -150.0000974
212.997696 41.34570139 149.9999026
150.296333 22.33667939 143.9999026
226.121771 -2.460723954e-05 -27.94920639
129.751041 -2.460723954e-05 -29.05012839
102.370793 63.54559839 149.9999026
87.266962 -2.460723954e-05 -36.47157039
133.567732 -2.460723954e-05 29.23473461
178.667368 62.99433539 -150.0000974
69.207333 -2.460723954e-05 -27.64718939
22.231077 23.81286639 143.9999026
196.006926 -2.460723954e-05 72.64759861
88.40106 5.465352393 143.9999026
132.232123 -2.460723954e-05 -8.988976386
112.3119 26.39556639 -144.0000974
247.944624 -2.460723954e-05 115.0365106
173.783904 -2.460723954e-05 -8.759448386
105.568209 60.58431439 -150.0000974
151.44487 -2.460723954e-05 119.6106516
0.0002150000628 13.00301639 70.15469861
-0.6477009999 -2.460723954e-05 -24.95902939
-1.746195 64.31688839 143.9999026
17.992199 -2.460723954e-05 114.4354846
242.492794 -2.460723954e-05 0.9705706143
18.320515 8.873389393 -144.0000974
6.472903 32.32767239 143.9999026
227.247777 -2.460723954e-05 53.36338261
117.900445 14.20402439 -150.0000974
246.851985 -2.460723954e-05 -96.58910239
210.887586 -1.422268607 149.9999026
-1.220012 14.18086139 -150.0000974
166.993681 49.52840839 -150.0000974
26.828178 -2.460723954e-05 -88.10839839
185.302549 -2.460723954e-05 103.4727766
85.291864 -2.460723954e-05 82.38621761
6.544824 11.27481839 149.9999026
0.0002150000628 26.55262339 63.39671361
100.074283 -2.460723954e-05 87.13975461
155.794812 -2.460723954e-05 -33.03826839
97.33876 36.48667539 143.9999026
156.616193 -2.460723954e-05 32.23918061
0.0002150000628 40.29833839 64.77478261
250.342668 16.53553339 143.9999026
0.0002150000628 16.73942139 46.08051861
166.870869 1.803828393 -150.0000974
251.288197 -2.460723954e-05 55.63300561
9.022713 64.25171839 -144.0000974
192.675368 -2.460723954e-05 -102.7144124
184.548262 48.01928339 -150.0000974
124.910888 -2.460723954e-05 45.50733961
46.496982 -2.460723954e-05 134.7969476
121.037303 44.71079439 143.9999026
22.320831 25.89093439 -144.0000974
9.121429 0.3290373928 149.9999026
51.810731 -2.460723954e-05 20.39764261
67.524656 -2.460723954e-05 -128.8258764
26.203839 -2.460723954e-05 -50.18965139
227.972398 -2.460723954e-05 4.219703614
137.3036 50.20551139 -144.0000974
121.857374 56.99875639 -144.0000974
136.42356 38.87876339 -150.0000974
59.17071 -2.460723954e-05 88.14998261
250.364917 42.20865939 149.9999026
94.038994 62.93681939 149.9999026
251.690038 57.53196739 -144.0000974
60.845942 56.75169939 149.9999026
63.586052 -2.460723954e-05 26.97343061
101.854295 -2.460723954e-05 -95.16450839
151.540366 -1.443840607 -150.0000974
84.426138 39.36486239 149.9999026
193.477699 -2.460723954e-05 49.46187461
217.451828 57.40728739 -144.0000974
4.981887 -2.460723954e-05 -83.65240539
70.507118 6.837187393 143.9999026
0.0002150000628 32.72339539 13.31434861
251.697271 -2.460723954e-05 -58.62450539
115.47782 3.411739393 -144.0000974
169.569709 50.13877539 149.9999026
0.0002150000628 43.04347039 89.79360061
222.565162 18.05630839 -144.0000974
238.182951 41.86292439 143.9999026
0.0002150000628 23.61127739 111.1930986
229.283157 -2.460723954e-05 43.12230661
125.099495 -2.460723954e-05 -122.3845964
62.068972 -2.460723954e-05 -138.7392544
248.627326 18.20509639 -150.0000974
217.627291 23.34697739 -150.0000974
202.426575 53.67978439 -150.0000974
101.402441 45.04591439 -144.0000974
83.500537 3.748017393 -150.0000974
44.734684 29.47157139 149.9999026
187.723449 -2.460723954e-05 -117.8122104
0.0002150000628 34.60642539 55.95664661
96.556715 15.81252539 -150.0000974
69.678661 -2.460723954e-05 44.74665061
220.318957 -2.460723954e-05 30.59992761
89.54256 66.03820539 -144.0000974
106.209781 56.89658439 149.9999026
241.013568 -2.460723954e-05 56.18987761
0.0002150000628 14.82976139 62.01404061
41.151095 0.2443693928 -150.0000974
6.527774 -2.460723954e-05 27.42016561
206.097298 -2.460723954e-05 54.59066761
0.0002150000628 26.79691739 -12.82587939
9.280073 11.44679839 -150.0000974
42.472528 24.11740739 -144.0000974
17.30918 50.13567639 149.9999026
11.303264 -2.460723954e-05 20.33027861
57.650414 3.749506393 -150.0000974
251.738174 -2.460723954e-05 -22.48515339
232.997601 -2.460723954e-05 29.53180761
154.414945 20.34360039 149.9999026
162.104144 63.48873539 143.9999026
77.996131 63.03132339 -150.0000974
181.974855 -2.460723954e-05 143.9413926
225.46285 -2.460723954e-05 16.29238561
216.472896 -2.460723954e-05 -18.66064839
216.254749 -2.460723954e-05 81.23000361
-2.341774 26.90177839 -150.0000974
0.0002150000628 26.60488339 -51.30631739
85.154462 -2.460723954e-05 -23.36568939
29.576817 -2.460723954e-05 60.96856161
74.649442 -2.460723954e-05 78.42734761
143.962163 19.83029939 143.9999026
54.484423 -2.460723954e-05 49.27695361
178.501063 -2.460723954e-05 -24.78850139
189.054895 -2.460723954e-05 -109.2412064
155.496237 -2.460723954e-05 -111.9137644
77.280242 61.87416839 149.9999026
95.160474 38.53437539 149.9999026
112.096905 -2.460723954e-05 47.65081761
25.201245 53.43483039 143.9999026
244.9426 50.10063239 -150.0000974
246.488542 28.03704939 143.9999026
75.643093 -2.460723954e-05 -0.6473673857
0.0002150000628 16.20195339 -22.43299239
24.441304 50.10243439 -150.0000974
196.68014 -2.460723954e-05 -47.09184239
56.487209 64.08534539 143.9999026
73.441319 -2.460723954e-05 -103.9324824
230.264241 -2.460723954e-05 -93.98089739
0.0002150000628 40.37182839 48.51554761
75.834452 -2.460723954e-05 -27.00543639
179.039503 -1.522791607 -144.0000974
152.353164 34.22923139 149.9999026
43.568412 59.60046239 -150.0000974
205.097868 -2.460723954e-05 -49.19965939
185.061322 4.816170393 -144.0000974
93.911819 -2.460723954e-05 116.8214386
77.872252 -2.460723954e-05 16.08157261
251.045217 15.09475139 -144.0000974
0.0002150000628 32.59554839 -57.44770539
8.976604 -2.460723954e-05 -68.07802139
54.385367 -2.460723954e-05 62.45600961
161.513784 -2.460723954e-05 -123.6889684
124.956759 67.99997539 146.7411276
0.0002150000628 36.78305539 98.70440961
101.877207 -2.460723954e-05 -43.86969539
134.911927 37.03977239 143.9999026
238.282773 6.646145393 143.9999026
112.214393 -2.460723954e-05 -120.4067564
30.245099 67.99997539 -147.5070854
179.735365 8.282159393 149.9999026
89.57591 -2.460723954e-05 -61.53669339
125.247004 -2.460723954e-05 73.48375461
193.330857 26.60160639 -150.0000974
202.822411 21.05403839 143.9999026
110.843962 9.528712393 143.9999026
127.068208 5.954270393 -144.0000974
0.0002150000628 30.69585039 -35.12096539
241.256469 19.02472639 -150.0000974
0.0002150000628 44.11315039 -66.38020239
37.856499 45.02527939 -150.0000974
19.861389 60.42192439 -144.0000974
79.224605 -2.460723954e-05 100.8244926
0.0002150000628 3.859885393 91.69454961
0.0002150000628 20.17367539 -78.71465639
135.302288 -2.460723954e-05 -134.8865974
115.455662 -2.460723954e-05 -26.13801039
66.360036 37.54178939 -144.0000974
162.80313 -2.460723954e-05 112.1848816
41.616396 -2.460723954e-05 103.8670546
207.335794 8.888758393 -150.0000974
155.519906 -2.460723954e-05 16.04886961
211.643683 32.22861039 -144.0000974
32.831104 57.32942739 -144.0000974
31.767518 -2.460723954e-05 -55.29468239
64.783892 19.66765339 143.9999026
88.111082 24.62772739 -144.0000974
141.226288 67.70627639 -150.0000974
30.596991 5.189498393 149.9999026
106.180336 17.95326339 -150.0000974
33.547802 18.22687739 143.9999026
204.108788 66.66402139 149.9999026
178.155123 63.19263839 149.9999026
249.430275 -2.460723954e-05 69.56450861
0.0002150000628 47.71022739 -81.07373039
181.153344 -2.460723954e-05 78.46346561
53.290309 19.21675939 143.9999026
245.203879 47.35309539 143.9999026
195.900362 7.933824393 143.9999026
55.571583 16.75488239 -144.0000974
49.690164 10.03950939 -150.0000974
182.426183 22.05439139 -150.0000974
62.551187 -2.460723954e-05 -40.33329739
132.652593 -1.241795607 -150.0000974
13.560518 16.94824039 143.9999026
196.009066 48.32842939 -150.0000974
102.238763 26.15794539 149.9999026
19.990589 -2.460723954e-05 -82.40742339
246.645423 -2.460723954e-05 128.3859676
237.652863 17.52545239 -144.0000974
39.031883 14.15090739 149.9999026
70.645891 67.99997539 147.9482166
58.334845 -2.460723954e-05 -58.01850439
200.709841 45.42964239 149.9999026
186.325042 -2.460723954e-05 39.97314961
171.580606 11.60567639 143.9999026
46.28641 63.72768139 143.9999026
0.0002150000628 40.60511239 -52.91204239
178.395889 17.11827739 -144.0000974
50.234608 -2.460723954e-05 68.54561361
64.196809 -2.460723954e-05 -66.23014839
249.678821 63.63583939 -144.0000974
9.669598 44.12781039 149.9999026
210.212107 -2.460723954e-05 2.360951614
238.123092 -0.6118726072 -150.0000974
164.545528 -2.460723954e-05 -15.76096739
37.019447 -2.460723954e-05 -114.7171024
195.535911 7.005987393 -150.0000974
-2.33759 -2.460723954e-05 43.41467661
2.750025 4.590635393 -144.0000974
142.494109 -2.460723954e-05 57.75225361
74.656032 28.73376139 149.9999026
190.87165 67.99997539 -145.4661404
0.04027600006 37.84977839 -150.0000974
0.0002150000628 47.82753039 -118.7691054
120.71797 -2.460723954e-05 -55.95989339
121.914022 -2.460723954e-05 114.3431876
1.079681 -0.9127996072 143.9999026
82.934669 19.67385439 143.9999026
235.437344 -2.460723954e-05 97.21035761
160.784034 48.10587139 143.9999026
0.0002150000628 26.18474439 -68.01948239
14.69814 -2.460723954e-05 -25.25557439
0.0002150000628 1.636922393 -11.88023439
5.65197 35.32818039 149.9999026
233.818771 18.36385339 143.9999026
230.253424 31.65495039 -144.0000974
98.139639 -2.460723954e-05 5.369900614
170.501302 22.72456639 149.9999026
66.176782 -0.2062156072 143.9999026
31.247599 24.44173839 -150.0000974
165.624931 8.522502393 143.9999026
0.0002150000628 6.039731393 28.07455861
37.228702 -2.460723954e-05 125.2809256
0.0002150000628 46.95945739 104.6441896
86.504357 -2.460723954e-05 9.669215614
220.256018 33.48790439 149.9999026
164.215481 53.57690139 149.9999026
220.00521 -2.460723954e-05 128.5405866
210.331734 48.78268839 -149.8885254
238.579115 -2.460723954e-05 -64.78734539
203.564875 -2.460723954e-05 45.91239761
146.458902 67.90709339 -144.0000974
250.290608 25.12665739 149.9999026
115.165313 18.33215939 149.9999026
190.045178 -2.460723954e-05 91.48516161
88.493154 -2.460723954e-05 59.72424461
40.104627 -2.460723954e-05 -136.7904004
175.389116 36.49963039 -150.0000974
216.828639 -2.460723954e-05 8.223282614
166.936532 10.58314639 -150.0000974
0.0002150000628 17.70476039 -6.312222386
219.198125 44.86386639 143.9999026
34.96352 -2.460723954e-05 88.74015961
122.901185 0.3276053928 -150.0000974
214.53983 -2.460723954e-05 110.7718636
191.469437 28.27568839 143.9999026
130.017458 -2.460723954e-05 106.4735956
50.713446 -2.460723954e-05 -120.9424964
230.572987 34.06376739 143.9999026
104.689242 17.64569939 143.9999026
210.266251 57.18133339 -150.0000974
92.976558 -2.460723954e-05 -125.2377194
171.984471 -2.460723954e-05 -1.142828386
0.0002150000628 10.45513039 -96.92951139
12.447147 67.19533239 -150.0000974
156.276994 -2.460723954e-05 60.83089161
0.0002150000628 21.63765739 3.904425614
131.364459 18.57070239 -144.0000974
93.583957 29.43230739 -150.0000974
132.322214 53.74417639 -150.0000974
38.99962 51.64397539 -150.0000974
95.486521 51.54776039 143.9999026
199.202203 62.13625839 149.9999026
140.052113 33.76286939 -150.0000974
16.587358 -2.460723954e-05 -114.1346494
32.313072 -2.460723954e-05 -22.51871439
191.959919 -2.460723954e-05 133.7049516
0.0002150000628 17.30056439 111.7428366
12.280891 8.768487393 149.9999026
52.182146 -2.389861607 -144.0000974
165.515932 -2.460723954e-05 -65.90006539
214.417997 17.16230239 -149.4567804
0.0002150000628 23.06276839 126.7629696
182.963787 31.87806639 143.9999026
5.199139 21.23023239 -144.0000974
110.612649 59.70304239 143.9999026
111.662254 14.96152839 -150.0000974
232.170007 -2.460723954e-05 -24.14528339
171.72526 -0.2519566072 149.9999026
86.877479 -2.460723954e-05 89.83860961
150.75061 40.79707639 -144.0000974
172.374714 67.60167239 149.9999026
0.0002150000628 40.80307339 -22.02586839
205.935376 44.96614139 -144.0000974
216.633112 62.40581039 149.9999026
228.745537 24.89441539 -150.0000974
222.734433 -2.460723954e-05 -128.3393324
172.878208 -2.460723954e-05 22.83126061
185.249597 -2.460723954e-05 -17.75615839
56.187905 38.97178439 -150.0000974
0.0002150000628 35.90148439 130.0013746
123.515657 16.18762139 143.9999026
187.23977 -2.460723954e-05 51.21248961
8.337975 62.26408839 143.9999026
126.444603 36.97182539 -150.0000974
165.174842 -2.460723954e-05 45.04741561
222.081251 3.730058393 143.9999026
21.13063 34.21074339 -150.0000974
132.484703 -2.460723954e-05 83.92967061
85.615204 57.19690739 -144.0000974
188.099692 16.20439539 149.9999026
35.131296 -2.460723954e-05 27.63147961
189.107484 -2.460723954e-05 71.28300861
21.50862 -2.460723954e-05 4.153293614
172.874835 -2.460723954e-05 56.72985361
5.56897 5.979741393 143.9999026
175.829008 -2.460723954e-05 -32.82325739
224.75447 -2.460723954e-05 65.75130861
0.0002150000628 31.91015839 39.10765461
229.714684 3.283782393 149.9999026
0.0002150000628 19.29637339 -39.47328139
122.882535 35.22955439 149.9999026
220.371165 67.74952239 149.9999026
0.0002150000628 38.20786839 -33.54073339
86.957145 32.03149339 143.9999026
99.764707 -2.460723954e-05 20.43541961
231.989265 55.03705239 149.9999026
30.9943 47.46746339 149.9999026
216.801052 32.63737239 143.9999026
124.497434 22.57788939 149.9999026
26.431823 33.99225639 -144.0000974
207.47235 12.48626039 149.9999026
12.757054 20.40611539 -150.0000974
10.895806 44.04727639 -144.0000974
16.77244 42.71676239 -150.0000974
72.847438 67.24772139 -144.0000974
134.509405 -2.460723954e-05 119.6324516
0.0002150000628 5.486530393 -57.79616839
0.0002150000628 11.76646039 80.03881361
60.092537 -2.460723954e-05 -106.6691154
90.202051 50.80990639 149.9999026
75.396566 -2.460723954e-05 113.1652126
159.920569 5.988046393 -144.0000974
238.993093 44.23530439 -144.0000974
149.322604 67.99997539 149.9945246
252.394765 55.97977839 149.9999026
49.096876 43.18160039 -144.0000974
24.750905 -2.460723954e-05 23.41905361
34.722111 -2.460723954e-05 -132.3901694
198.211645 -2.460723954e-05 -100.2413854
170.804489 30.14593839 -144.0000974
42.205864 -2.460723954e-05 143.3345596
160.537357 -2.460723954e-05 -117.0435374
107.835448 -2.460723954e-05 -1.980936386
0.0002150000628 41.04428039 38.70480961
241.188104 58.31048839 -144.0000974
61.63594 56.60538439 -150.0000974
161.709928 12.82686439 -144.0000974
183.192359 12.47632939 143.9999026
0.0002150000628 36.50545339 5.792645614
0.0002150000628 19.39935439 -55.24678339
212.999727 13.40191539 -144.0714294
73.590608 -2.460723954e-05 139.1183626
131.816738 -2.460723954e-05 -73.72618239
126.741157 4.466819393 143.9999026
190.956274 6.830586393 149.9999026
192.305695 5.013494393 -144.0000974
42.550173 -2.460723954e-05 43.37256961
60.688213 -2.460723954e-05 -116.9336394
34.829114 36.36099939 149.9999026
110.284713 -2.460723954e-05 -22.64177839
162.437188 -2.460723954e-05 102.1970126
164.493733 -2.460723954e-05 67.57667961
0.0002150000628 28.91248839 95.05811961
109.544392 47.08454339 149.9999026
91.219824 -2.470611607 143.9999026
193.35081 -2.460723954e-05 42.84283661
16.913736 26.51560439 143.9999026
122.043968 65.13141539 -144.0000974
98.705039 49.72040739 -150.0000974
100.143153 11.24960039 143.9999026
171.461587 -2.460723954e-05 -39.65915839
75.499198 28.87259339 143.9999026
11.16086 -2.460723954e-05 -10.97502139
201.475866 18.64648639 -150.0000974
148.727871 47.65416639 149.9999026
0.0002150000628 25.17522839 -74.72890039
93.811609 -2.460723954e-05 32.79465161
31.686894 16.50373939 -144.0000974
78.343967 -2.460723954e-05 -125.2816434
230.600651 -2.460723954e-05 -118.5323214
72.800436 59.66881639 143.9999026
0.0002150000628 5.904824393 -66.33397839
95.847239 -2.460723954e-05 -46.24307639
0.0002150000628 27.05862539 -116.4308044
82.64943 -1.082178607 149.9999026
179.987336 -2.460723954e-05 55.62059861
8.403966 -2.460723954e-05 90.79837561
56.06303 -2.460723954e-05 -49.62501539
-1.189241 -2.460723954e-05 131.4903166
149.772802 -2.460723954e-05 125.2873536
226.507345 -2.460723954e-05 128.7708156
41.961021 29.71757139 -150.0000974
19.074179 65.07590439 149.9999026
126.743078 43.20577539 143.9999026
26.233072 18.03115339 149.9999026
0.0002150000628 7.616877393 -9.247305386
122.189684 -2.460723954e-05 -49.13471639
218.254163 63.52263739 -144.0000974
92.470144 3.023423393 149.9999026
224.103881 63.27560139 143.9999026
0.0002150000628 3.650211393 16.31953361
153.187485 -2.460723954e-05 109.8546176
5.135243 -2.460723954e-05 -74.13313839
141.829029 -2.460723954e-05 107.3720766
26.655745 -2.460723954e-05 66.07304361
14.405882 -2.460723954e-05 104.0856586
77.414781 -2.460723954e-05 94.22767761
30.198591 -2.460723954e-05 -42.47922339
106.773617 -2.460723954e-05 118.9154546
148.13065 24.16239539 -150.0000974
141.417341 35.35665839 149.9999026
-0.1900459999 26.30823739 149.9999026
100.619087 39.04199539 -144.0000974
122.29753 10.07933639 -144.0000974
159.957631 64.27692639 -150.0000974
191.245931 40.44437839 143.9999026
199.578809 -2.460723954e-05 79.63554361
59.327929 9.397242393 -150.0000974
0.0002150000628 7.006955393 41.08781061
97.60602 -2.460723954e-05 62.83279661
127.71116 -2.460723954e-05 3.487178614
0.0002150000628 14.18657339 -112.8272774
193.471642 13.03447239 149.9999026
117.718 -2.460723954e-05 -82.62389539
0.0002150000628 45.00612039 132.2544616
31.385786 3.501893393 -144.0000974
0.0002150000628 15.00355939 -122.5777724
70.473745 7.989009393 -150.0000974
142.081831 9.484206393 -150.0000974
148.129614 13.79674039 149.9999026
192.873125 43.27850439 149.9999026
226.099648 62.00341039 -150.0000974
197.771597 -0.05326460724 -148.0000974
196.599089 52.19101739 143.9999026
140.968095 -2.460723954e-05 -56.85332539
170.026329 -2.460723954e-05 80.93677761
0.0002150000628 25.86077139 40.13912561
19.137843 2.839309393 149.9999026
1.275455 -2.460723954e-05 51.43631261
82.662591 -2.460723954e-05 70.80850161
74.447201 -2.460723954e-05 107.1031946
190.439591 31.54019639 149.9999026
0.0002150000628 43.78751039 74.38873261
196.592483 -2.460723954e-05 -73.27652539
28.111172 -2.460723954e-05 -33.70176439
144.010993 43.59070239 -144.0000974
138.850484 46.01865039 149.9999026
172.662617 37.29936539 149.9999026
47.667938 -1.700888607 143.9999026
6.720154 -2.460723954e-05 -60.33367039
-0.4802369999 -2.460723954e-05 -40.85960839
-0.03527099994 -2.199976607 14.18428361
155.839503 -2.460723954e-05 115.9065606
0.0002150000628 26.12483939 -18.53196739
211.999727 2.086063393 -144.3590104
5.700742 -2.460723954e-05 128.2265886
95.28892 -2.460723954e-05 -6.217914386
119.212503 20.05390639 -150.0000974
25.440268 59.13703939 -144.0000974
137.545758 11.99993539 -144.0000974
83.842819 48.61698439 143.9999026
0.0002150000628 33.23412339 75.63494461
8.804387 37.55209439 143.9999026
112.300479 -2.460723954e-05 72.84135961
241.596843 -2.460723954e-05 -129.2560494
-1.238934 52.30335139 149.9999026
183.343832 65.73477039 149.9999026
104.666009 51.39449139 149.9999026
241.752054 4.750476393 -144.0000974
56.577375 48.98120439 143.9999026
123.269374 52.01707539 149.9999026
165.45578 27.60528239 -144.0000974
17.774915 -2.460723954e-05 -0.6237163857
-0.8548449999 20.00810839 -143.0000974
0.0002150000628 45.25976839 16.88842061
199.178291 63.20284039 -150.0000974
234.996205 37.38782439 -144.0000974
244.877824 19.49762939 143.9999026
101.727769 62.83841439 -144.0000974
206.653004 33.06834639 143.9999026
82.667426 -2.460723954e-05 -15.43573639
0.0002150000628 4.886120393 -103.6818364
65.431718 15.48532839 -150.0000974
0.0002150000628 19.68412539 -28.88419839
206.26834 -2.460723954e-05 -69.66909639
200.002518 -2.460723954e-05 -23.61057439
5.386379 18.60381339 143.9999026
162.412734 -2.460723954e-05 -36.62319439
10.277438 22.46758839 149.9999026
0.0002150000628 1.025718393 31.74634561
187.688019 -2.460723954e-05 5.433546614
0.0002150000628 34.57062539 -49.32855539
170.362232 -2.460723954e-05 -91.79896939
38.904417 -0.4110566072 -144.0000974
0.0002150000628 7.776440393 106.8147256
159.165753 -1.898365607 -144.0000974
198.772626 -2.460723954e-05 11.10098561
23.570697 6.893971393 -144.0000974
0.0002150000628 43.15508039 8.270338614
35.539912 -2.460723954e-05 -15.17012439
10.518245 36.16225139 -150.0000974
0.0002150000628 19.86145739 52.42277561
60.212966 43.42148239 -144.0000974
4.270618 -2.460723954e-05 -128.7665224
215.358131 -2.460723954e-05 91.04575961
161.080029 -2.460723954e-05 2.268730614
165.574463 -2.460723954e-05 -136.0911494
110.282725 -2.460723954e-05 -113.1721194
164.04112 34.51619339 149.9999026
145.709173 -2.460723954e-05 32.56336761
6.561242 -2.460723954e-05 36.95109661
226.58055 26.48586639 143.9999026
64.184402 -2.460723954e-05 56.80877261
181.267076 67.99997539 -147.4249544
0.0002150000628 15.93626139 -86.47670039
135.097093 30.48353639 143.9999026
155.113851 5.710309393 149.9999026
139.675891 55.88379339 143.9999026
184.510095 -2.460723954e-05 20.89213561
162.270678 -2.460723954e-05 -28.23644739
84.920581 -2.460723954e-05 -96.94835439
11.407099 -2.460723954e-05 -94.26700539
0.0002150000628 13.77041739 -106.7526774
0.0002150000628 8.794190393 -41.64143139
177.35468 62.39941339 143.9999026
144.368581 15.95761539 -150.0000974
0.0002150000628 37.98217439 -104.6818104
-0.9308829999 49.99997539 99.95265861
81.797383 29.87342939 -144.0000974
190.708524 -2.460723954e-05 104.6720976
47.496302 -2.460723954e-05 -98.20064039
209.362958 -2.460723954e-05 105.0109956
0.0002150000628 45.71922739 -60.01539439
138.208847 16.90079239 143.9999026
63.886195 -2.460723954e-05 -100.5275254
0.0002150000628 16.08653839 32.38784561
0.0002150000628 14.86607239 -15.59440239
211.859118 -2.460723954e-05 -118.8212834
26.522196 35.75432739 149.9999026
0.0002150000628 32.43342339 -76.84968339
79.760121 -2.460723954e-05 21.25330761
32.010973 -2.460723954e-05 120.6949986
139.911595 -2.460723954e-05 -25.86262939
64.608644 -2.460723954e-05 -75.91180239
57.355007 -2.460723954e-05 -29.83640639
190.4719 -2.460723954e-05 58.23297861
37.006603 -2.460723954e-05 -91.95252339
170.22638 -2.460723954e-05 47.21771861
240.371642 -2.460723954e-05 31.95802661
0.0002150000628 14.28377239 -69.07522139
199.757048 27.50862539 -144.0000974
0.0002150000628 37.01024739 87.76625361
70.399821 -2.460723954e-05 27.05513561
92.508375 -2.460723954e-05 -108.6257924
134.620248 39.98645639 -144.0000974
0.0002150000628 12.93477539 93.51011561
112.774922 65.98499239 149.9999026
89.802963 10.75491439 143.9999026
0.0002150000628 17.49423539 134.6581726
20.5922 39.23273439 143.9999026
104.365408 -2.460723954e-05 130.2133646
235.905615 60.23631039 -144.0000974
106.23979 43.18101439 143.9999026
75.756206 23.38292239 149.9999026
215.338831 -2.460723954e-05 68.01130961
93.936746 23.06913039 143.9999026
0.0002150000628 24.86852739 -122.3504484
0.0002150000628 40.34381039 -84.57675139
58.36787 -2.460723954e-05 -68.06901839
86.27347 -2.460723954e-05 -5.208079386
0.0002150000628 10.81432039 -58.90944439
83.823835 -2.460723954e-05 37.20875261
191.714868 -2.460723954e-05 -124.4886974
0.0002150000628 49.52275839 129.2212476
161.872859 51.35284439 -150.0000974
247.614951 -2.460723954e-05 103.0275376
207.504489 -2.460723954e-05 28.74514361
74.563123 -2.460723954e-05 31.48017061
0.0002150000628 34.10422939 139.8282546
0.0002150000628 15.09480739 3.601629614
130.17341 66.04793039 -144.0000974
143.532973 -2.460723954e-05 -71.22960839
0.0002150000628 0.8330603928 70.56160161
0.0002150000628 38.44634439 -68.88786739
54.060975 25.99177339 143.9999026
120.236109 -2.460723954e-05 -8.903303386
92.510335 -2.460723954e-05 14.27640461
-0.3808869999 49.99997539 79.85904661
32.43659 12.58570839 143.9999026
137.673523 -2.460723954e-05 68.14567061
226.599647 -2.460723954e-05 22.29646361
128.850203 38.11509839 149.9999026
63.2412 0.08774339276 -144.0000974
0.0002150000628 23.37503539 77.52004061
190.938232 48.60805139 149.9999026
55.467237 0.7356443928 149.9999026
233.072659 61.20042939 143.9999026
156.297817 21.92624339 143.9999026
133.253947 33.70710839 -144.0000974
88.295098 16.76611039 -150.0000974
96.764974 18.20030339 149.9999026
152.016249 62.74470739 -150.0000974
113.083407 41.47867439 -144.0000974
167.2227 -2.460723954e-05 122.1015166
0.0002150000628 37.16270239 118.2522796
0.0002150000628 42.10709339 -97.05220639
165.722252 36.93553039 -144.0000974
53.111054 -2.460723954e-05 111.7031416
235.195038 61.70474139 149.9999026
0.0002150000628 17.23126339 25.94568561
0.0002150000628 18.94059839 74.33891061
172.514454 -2.460723954e-05 -79.48534839
3.773616 -2.460723954e-05 -51.46162539
-0.1337269999 49.99997539 90.40654161
94.836138 43.87523339 149.9999026
191.67087 46.79945739 -144.0000974
200.218819 53.31350039 -144.0000974
0.0002150000628 33.53503039 -89.14513839
93.965135 -2.460723954e-05 73.69524461
214.846234 27.95214539 -144.0000974
17.002101 -2.460723954e-05 -89.16095239
0.0002150000628 43.92356739 122.3463786
137.793895 19.18247439 149.9999026
17.397989 -2.460723954e-05 71.53843861
129.739057 13.98904739 149.9999026
0.0002150000628 5.226750393 96.85050861
102.093644 -2.460723954e-05 -120.3995014
145.064745 -2.460723954e-05 -103.8003704
37.088066 -2.460723954e-05 -50.96082139
216.365317 -2.460723954e-05 -48.68547539
49.225031 -2.460723954e-05 -79.42893339
121.72928 55.14346839 143.9999026
231.882926 1.222001393 143.9999026
151.92309 62.11512039 143.9999026
0.0002150000628 5.457281393 -85.91454239
56.761968 33.18255039 -144.0000974
209.994756 7.801264393 149.9999026
-2.260756 13.23035339 143.9999026
-1.284571 -2.460723954e-05 56.49981061
4.931915 26.76571139 143.9999026
252.119258 -2.460723954e-05 111.7463926
45.872129 23.03787639 -150.0000974
20.998099 -2.460723954e-05 -142.6020074
102.063296 -2.460723954e-05 25.78290361
75.707446 45.84350339 149.9999026
194.224287 -2.460723954e-05 -37.10127639
24.876082 20.79131839 -150.0000974
100.431906 28.41907139 143.9999026
247.769488 37.76117539 -144.0000974
0.0002150000628 21.48425039 95.95000261
0.0002150000628 8.121527393 117.7324776
114.367575 53.37743239 -150.0000974
193.559506 -2.460723954e-05 84.51648161
211.878906 4.633663393 143.9999026
-1.870255 -2.460723954e-05 -63.29234539
0.0002150000628 6.344820393 80.18033861
124.160191 -2.460723954e-05 -21.64256639
77.639142 -2.460723954e-05 122.3551556
0.0002150000628 41.50106539 -2.445054386
109.626659 -2.460723954e-05 -99.55990039
73.301812 48.24622539 -150.0000974
-1.910018 49.99997539 -123.9057354
82.236096 8.871815393 -150.0000974
39.513008 64.28504639 -150.0000974
141.375687 -2.460723954e-05 -63.97865739
89.37172 60.48266639 149.9999026
12.031407 -2.460723954e-05 -72.37572439
