# .PCD v0.7 - Point Cloud Data file format
VERSION 0.7
FIELDS x y z
SIZE 4 4 4
TYPE F F F
COUNT 1 1 1
WIDTH 1278
HEIGHT 1
VIEWPOINT 0 0 0 1 0 0 0
POINTS 1278
DATA ascii
-149.999785 201.0275534 21.93632461
-123.327849 -2.460723954e-05 26.65890361
-56.07565 -2.460723954e-05 93.73212461
-130.227798 24.61304139 108.2499026
-157.999785 26.27493139 -100.5303084
-149.935286 247.7165862 60.64402961
-219.244951 -2.460723954e-05 -62.49428139
-120.639713 249.7721802 68.24990261
-79.580886 55.28417239 108.2499026
-153.999785 103.5660544 33.98416161
-157.999785 6.680114393 -61.98901639
-212.690264 -2.460723954e-05 -88.13220439
-153.999785 155.0937484 -75.64622039
-15.337405 -2.460723954e-05 -28.33171239
-157.999785 140.5640204 26.66365761
-129.753275 210.6501554 -87.75009739
-157.999785 93.06161339 22.81574961
-157.972461 61.27167539 96.18310761
-108.036567 12.78943539 114.2499026
-157.999785 158.6339784 -12.64256539
-157.999785 100.4736714 -19.91697739
-24.240999 -2.460723954e-05 100.9070596
-124.627889 93.02308939 64.24990261
-153.999785 79.92070339 -43.45334739
-149.999785 161.4582744 54.54297061
-157.999785 26.58031439 -37.25026739
-81.931757 29.93765739 108.2499026
-31.856155 -2.460723954e-05 -36.57275039
-117.134593 215.2933602 -87.75009739
-157.999785 168.9382484 -34.50222039
-53.161071 41.87420839 108.2499026
-129.849875 36.23581439 114.2499026
-223.915993 -2.460723954e-05 61.14591661
-89.185251 76.23218939 64.24990261
-157.999785 70.33263239 -29.90159839
-149.999785 188.6346874 -62.09371139
-77.118585 -2.460723954e-05 15.77177061
-192.193601 59.98868039 114.2499026
-167.510487 -2.460723954e-05 -69.25397839
-149.999785 8.823749393 26.51958161
-30.318836 -2.460723954e-05 -89.35673839
-146.243141 51.19835839 -91.72608139
-153.999785 127.9967104 -9.190623386
-149.999785 8.115177393 -14.04012539
-149.999785 236.1182445 15.89747861
-149.999785 105.9890484 -10.03175139
-223.613556 -2.460723954e-05 -5.069320386
-115.358143 -2.460723954e-05 -38.14232139
-149.999785 99.41834439 1.637505614
-12.04397 -2.460723954e-05 -51.38253539
-31.519185 -2.460723954e-05 81.48508161
-149.999785 139.1117584 -29.30967939
-156.326566 -2.460723954e-05 83.26558061
-114.706553 87.50064539 -91.75009739
-153.999785 11.60277339 60.87157561
-149.999785 175.2576934 14.99469161
-93.627743 38.07209039 68.24990261
-157.953683 98.95717539 -101.9682454
-139.687822 249.1393542 -91.75009739
-226.430627 -2.460723954e-05 101.1557426
-142.189575 -2.460723954e-05 -45.52973339
-43.309696 -2.460723954e-05 -49.49720039
-50.671097 30.11789239 114.2499026
-149.999785 32.61096139 2.792939614
-149.18667 101.2688704 67.56722861
-153.999785 28.01070139 88.15665161
-153.999785 224.1572193 -24.95727739
-68.346404 -2.460723954e-05 -55.43380639
-100.569117 9.448888393 68.24990261
-112.834711 -2.460723954e-05 34.46787961
-157.999785 140.0928924 -61.22220539
-115.312957 173.5919744 68.24990261
-107.782326 -2.460723954e-05 -102.6889714
-15.654302 -2.460723954e-05 -3.519947386
-153.999785 237.6541496 -28.44268339
-149.999785 167.8823634 -70.96022539
-195.343101 -2.460723954e-05 -15.03272839
-92.555002 113.2083054 -91.75009739
-149.999785 13.98835939 9.137376614
-157.999785 75.39087339 -107.1637184
-45.082836 65.44024539 108.2499026
0.0002150000646 38.53850639 -23.59927539
-149.999785 243.7475672 3.236255614
-91.649296 61.34268039 68.24990261
-114.853554 66.59265839 -87.75009739
0.0002150000646 12.78289439 30.79255361
-129.14413 240.5525433 64.24990261
-157.999785 108.3768704 -57.94984339
-92.992018 207.6737584 -87.75009739
-76.081804 101.1213694 68.24990261
-113.10685 138.5299344 -91.75009739
-149.999785 177.0565694 -28.48999939
-153.999785 39.04559539 102.1753356
0.0002150000646 10.62834839 -104.0649954
0.0002150000646 31.23914939 -9.957214386
-13.969517 42.10578239 114.2499026
-153.999785 105.8925054 -85.36851939
-144.334506 96.90238139 -87.75009739
-153.999785 60.05532439 -52.58818139
-153.999785 203.6269814 -81.86432639
-12.455604 59.40517539 108.2499026
-109.839171 164.5013444 -87.75009739
-126.167094 189.3430474 -91.75009739
-151.731815 -2.460723954e-05 -94.83898839
-249.764853 67.58713639 108.2499026
-153.999785 163.2640694 -46.03950639
-153.999785 226.3237486 -79.18201439
-149.999785 149.2848934 30.43665061
1.297191 18.12658839 108.2499026
-238.221087 30.21647739 108.2499026
-146.284749 48.77790839 68.21742861
-77.87825 80.62665439 68.24990261
-137.148643 95.65300339 68.24990261
-153.999785 56.93055739 -99.42869639
-85.793066 16.80747339 114.2499026
-103.70054 235.0686495 64.24990261
-134.018973 41.40062739 68.24990261
-68.801928 -2.460723954e-05 -21.92445839
-167.416232 -2.460723954e-05 24.33908461
-243.119525 -2.460723954e-05 -5.845599386
-153.999785 202.5230254 -5.885257386
-177.080011 -2.460723954e-05 -9.908500386
-149.999785 32.90577039 -17.25528139
0.0002150000646 34.57124439 88.76357361
0.0002150000646 12.15056439 67.02414161
-143.418888 21.74142139 64.24990261
-109.442443 -2.460723954e-05 -54.57306639
-144.4905 5.547566393 114.2499026
-136.98539 123.5765344 68.24990261
-153.999785 191.5415424 12.42318261
-149.999785 105.3891044 45.30249361
0.0002150000646 41.52361539 -80.72568739
-121.047899 156.7028414 68.24990261
-51.656974 -2.460723954e-05 27.67270861
-135.034579 -2.460723954e-05 92.32014061
-152.187762 226.4570399 -51.25009739
-149.999785 49.48075439 29.46928961
-116.139106 149.4703314 -87.75009739
-157.999785 88.17483139 -60.46988639
-149.431927 149.7614314 -85.71981839
-149.999785 188.9008314 36.94969761
-110.37978 46.97102239 -87.75009739
-68.113902 -2.460723954e-05 -101.8636824
-157.902381 108.2709634 4.333079614
-149.903899 70.83943139 -84.57410239
-123.204397 236.8729376 -87.75009739
-153.999785 219.2875026 9.472942614
-138.719134 68.87477439 64.24990261
-153.999785 197.9168784 -23.27478039
0.0002150000646 17.99767539 2.255424614
0.0002150000646 31.08927839 -86.85982439
-140.995129 204.6849114 68.24990261
-180.032086 55.59844039 108.2499026
-142.414835 -2.460723954e-05 70.66667361
-94.357631 81.74575239 -91.75009739
-22.085353 67.99997539 108.9790856
-153.999785 224.002311 -36.79939339
-218.176087 9.496614393 108.2499026
-143.003819 -2.460723954e-05 -33.51362539
-125.795573 136.4798114 64.24990261
-85.783624 136.5730914 -91.75009739
-157.999785 79.20408639 60.96764861
-198.402441 -2.460723954e-05 -36.51279439
-149.999785 137.5889354 50.31989961
0.0002150000646 9.903923393 -25.59168839
-153.955832 240.305561 -51.82793039
-29.359179 -2.460723954e-05 -23.37912539
-46.257262 9.854554393 108.2499026
-94.819134 229.9828138 -91.75009739
-157.999785 10.34111839 40.32018661
-158.838867 54.81706139 114.2499026
-157.999785 182.3574204 -19.36187839
0.0002150000646 32.87522439 60.09996961
-114.481342 133.4448734 68.24990261
-205.672728 -2.460723954e-05 -53.95021639
-140.099645 188.4856584 -87.75009739
-28.894967 40.23131739 108.2499026
-134.25402 72.83017939 -91.75009739
-198.138778 -2.460723954e-05 61.40727861
-149.999785 211.2688634 -73.27535539
-94.623615 136.9099764 68.24990261
-248.422777 -2.460723954e-05 -63.95470539
-149.999785 37.07744539 -28.91078139
-149.999785 101.0653364 -52.13599139
-52.519809 -2.460723954e-05 -96.72299939
-85.974608 10.93603339 -88.04407739
-8.943245 33.28946639 108.2499026
-201.054581 51.41181439 108.2499026
-124.415457 11.23875239 68.24990261
-95.634304 22.72230439 -91.75009739
-149.999785 27.78927839 36.41287361
-85.10427 149.5937734 -87.75009739
-90.883508 -2.460723954e-05 -9.300079386
-157.999785 24.06900439 -69.15342439
-121.442067 0.2823873928 114.2499026
-137.801818 137.3028584 -91.75009739
-108.053622 205.4207754 -87.75009739
-149.999785 184.3325154 -51.50432339
-149.999785 46.55024139 -14.37311239
-144.153489 -2.460723954e-05 102.6958276
-194.909266 39.36111039 108.2499026
-153.999785 29.77546839 23.93068061
-149.999785 77.20415039 -25.46197739
-153.999785 19.60691639 71.39152361
-149.999785 19.04078939 21.55463361
-205.856911 -2.460723954e-05 -76.29391739
-96.881281 159.3278234 68.24990261
-107.482993 150.8397084 64.24990261
-129.231692 -2.460723954e-05 -91.60996839
-204.033334 -2.460723954e-05 15.29084661
-70.687174 -2.460723954e-05 28.49285461
-157.999785 81.40126139 44.68236761
-155.305828 -0.8668596072 108.2499026
-157.999785 110.6133704 -73.82415439
-149.999785 67.79979939 54.02061761
-75.999785 196.2192424 64.39972261
-228.586281 -2.460723954e-05 -78.08754139
-139.178907 57.13931139 114.2499026
-157.999785 126.9108794 -53.62461339
-127.663989 -2.460723954e-05 71.34946161
-149.999785 240.9531572 -9.295222386
-100.125277 82.93336639 68.24990261
-107.761079 117.5194594 64.24990261
-53.246161 -2.460723954e-05 -6.462934386
-219.906856 -2.460723954e-05 76.63672361
-157.999785 36.61177039 -49.61262539
-9.046535 -2.460723954e-05 108.0046586
-157.999785 159.6468404 29.20167261
-132.028049 -2.460723954e-05 -51.78105139
-77.295536 170.8230224 -91.75009739
-94.215765 -0.2838516072 -69.89678839
-131.387974 211.1733624 64.24990261
-149.999785 60.21045839 -79.20383639
-149.999785 14.58444039 -34.29462439
-69.824697 -2.460723954e-05 -78.56360339
-12.891919 -2.460723954e-05 -106.6097014
-153.999785 67.32410539 18.81521561
-42.376908 -2.460723954e-05 73.91951861
-149.999785 65.48203439 -61.36090139
-217.172049 43.24144139 108.2499026
-141.365385 -2.460723954e-05 -2.104441386
-36.883866 -2.460723954e-05 9.144728614
-153.81492 237.2449874 -85.38191039
-149.999785 137.6099764 17.01585161
-212.464891 67.90880439 108.2499026
-97.001509 204.2354604 68.24990261
-149.999785 207.1994324 52.46145961
-223.037455 -2.460723954e-05 27.13840061
-110.47891 -2.460723954e-05 -78.75540539
0.0002150000646 49.40756139 44.36004061
-59.705725 -2.460723954e-05 82.03515361
-37.045429 -2.460723954e-05 33.45952861
-149.999785 170.7096994 -3.819524386
-71.455448 14.54057139 114.2499026
-133.098625 162.6236004 -91.75009739
-153.999785 94.66414339 -42.76745439
-149.999785 74.18818639 -51.90102439
-157.999785 165.6274354 9.984390614
-157.999785 49.52495339 -68.08597639
-116.446177 30.01359839 108.2499026
-94.247867 33.05202239 -87.75009739
-153.999785 117.1082324 -15.23327539
-149.999785 147.2938534 -59.39809139
-149.999785 31.50125039 54.53484761
-83.327155 -2.460723954e-05 6.804382614
-147.083749 79.21722739 64.08630761
-50.622179 -2.460723954e-05 -79.36767339
-149.999785 83.37919939 -69.23037139
-104.722374 95.82028639 -87.75009739
-133.18255 -2.460723954e-05 47.25969261
-123.010361 33.34818639 68.24990261
2.452315 41.58462939 114.2499026
-105.493602 59.65408839 68.24990261
-10.616521 20.04886039 114.2499026
-91.625827 9.884448393 108.2499026
-149.999785 90.23545839 -81.31562739
-105.677264 117.9186564 -91.75009739
-170.793161 -2.460723954e-05 11.90475361
-126.208815 149.1981264 -91.75009739
-157.999785 158.7024914 -30.98957639
-206.656593 -2.460723954e-05 34.19802761
-75.999785 54.89431039 65.77564461
-133.934441 8.599454393 114.2499026
-146.358014 -2.460723954e-05 47.05958961
-34.351161 12.57538739 108.2499026
-149.999785 66.33637939 -17.34001139
-149.999785 53.44183139 -61.15607739
-92.871856 -2.460723954e-05 28.30985361
-150.875727 63.17188739 114.2499026
-153.999785 246.0038053 -18.10945739
-149.999785 70.82819739 39.51662461
-95.64549 -2.460723954e-05 66.82907761
0.0002150000646 40.93062539 2.508894614
0.0002150000646 7.028199393 -53.11160539
-76.067215 169.0454374 64.24990261
-76.450612 101.0235614 -87.75009739
-157.999785 49.20127639 22.34455861
-153.999785 203.6097404 -44.37210439
-84.006826 152.1288214 68.24990261
-180.429404 41.05038239 108.2499026
-79.421953 245.8760627 -91.75009739
-112.229901 109.6630744 -87.75009739
-157.999785 42.60400539 -77.54469739
-87.346494 51.14571339 114.2499026
-157.999785 146.4272564 -52.39664439
-153.999785 6.890763393 -86.46485939
-153.999785 195.2457484 59.21238261
-153.999785 89.79762339 -98.34367339
-153.999785 39.24661239 84.89751861
-110.692706 -2.460723954e-05 56.38978061
-75.999785 127.6205904 68.19550361
-150.820885 26.61277339 108.2499026
-182.953071 -2.460723954e-05 88.15778661
-108.59156 226.5761669 68.24990261
-215.191281 -2.460723954e-05 104.6582336
-129.052667 49.33239639 -91.75009739
-142.998753 171.5439654 -87.75009739
-206.726975 -2.460723954e-05 -96.86757239
-179.505629 -2.460723954e-05 60.79949161
-149.999785 59.08101839 4.761801614
-77.894922 37.16721639 -87.75009739
0.0002150000646 29.01960539 -60.71175239
0.0002150000646 18.81324539 46.59645861
-142.058872 -2.460723954e-05 -86.24034539
-119.382239 -2.460723954e-05 -11.16773539
-166.733669 62.51770439 114.2499026
-115.738857 202.5249874 64.24990261
-166.402717 -2.460723954e-05 44.53468061
-63.146342 57.51180239 108.2499026
-149.999785 126.1446324 -31.51534639
-149.999785 123.8088074 10.41428461
-175.246425 22.93278039 114.2499026
-96.149178 52.78466339 64.24990261
-181.180671 -2.242091607 108.2499026
-105.245977 140.5498534 64.24990261
-149.999785 166.6732634 44.92219561
-149.999785 85.03913939 -7.353661386
-153.999785 221.5869829 59.26490461
-149.872667 157.6047044 67.21748061
-56.448828 -2.460723954e-05 6.960713614
-122.874352 10.81138539 -87.75009739
-99.570853 -2.460723954e-05 -60.38126939
-121.487571 50.80137639 108.2499026
-157.999785 107.7220224 -30.68959539
-209.64222 -2.460723954e-05 1.577901614
-217.587643 19.98345739 114.2499026
-153.999785 130.8103664 59.29546361
-3.881548 -2.460723954e-05 10.72626661
-149.999785 113.8389644 35.00840761
-238.911463 -2.460723954e-05 -79.03810439
-139.732764 32.28198439 -91.75009739
-142.030515 -2.460723954e-05 -66.57772539
-217.942445 -2.460723954e-05 -15.00358539
-230.866281 -2.460723954e-05 88.57413261
-135.27045 237.2178581 -87.75009739
-143.954162 -2.460723954e-05 84.44768161
-153.999785 11.13776039 -23.07591839
-149.999785 86.20767439 29.21718961
-121.096481 224.5807263 64.24990261
-152.340522 125.1687404 -88.59939139
-10.912184 -2.460723954e-05 66.60481061
-110.929233 53.37994039 108.2499026
-70.32764 -2.460723954e-05 57.42768361
-74.278274 -2.460723954e-05 -13.18505839
-196.441325 -2.460723954e-05 105.2320806
-149.999785 187.5174074 -77.18618939
-149.999785 37.56328039 42.40065061
-157.999785 50.75140439 -8.616998386
-149.999785 40.64096239 -43.28459739
-110.795831 69.94261939 68.24990261
-239.156137 -2.460723954e-05 43.11029461
-131.720245 186.9301554 68.24990261
0.0002150000646 49.59597239 -99.52963339
0.0002150000646 37.02447139 -53.72657939
-118.024007 32.24243439 -91.75009739
-153.999785 222.1552791 -13.99632339
0.07258400006 -2.460723954e-05 33.63478561
-91.058095 116.1180234 68.24990261
-149.999785 125.9293804 -70.89740239
-153.999785 251.5360884 -69.45596239
-137.294893 46.71596239 108.2499026
-149.999785 86.42679939 -36.32972739
-199.119734 5.156800393 114.2499026
-149.999785 156.3244494 9.928747614
-101.056799 48.19113839 -91.75009739
-192.009149 -2.460723954e-05 32.93866861
-90.20206 239.3086885 -91.75009739
-145.529579 -2.460723954e-05 8.123333614
-128.675137 62.10832839 -87.75009739
-31.184468 -2.460723954e-05 20.51200261
-77.387249 44.91665139 68.24990261
-156.322719 15.43563639 106.6789386
-53.873556 -2.460723954e-05 -26.20334939
-149.999785 74.08045139 -36.16830139
-149.999785 18.37623339 -0.4073503864
0.0002150000646 0.05453639276 -102.9162974
-105.546222 101.2086144 68.24990261
-75.999785 158.3966584 -90.95033239
-130.570315 84.52171939 -91.75009739
-61.719729 7.297935393 114.2499026
-149.999785 19.47995639 -55.70309239
-142.873293 225.8821051 64.24990261
-230.238471 55.85801339 108.2499026
-153.999785 49.09931239 -85.41382739
-124.834861 124.2293294 -87.75009739
-130.483868 156.2435164 64.24990261
-99.188445 6.928245393 114.2499026
-85.699503 237.299129 68.24990261
-234.238771 -2.460723954e-05 -35.47441639
0.0002150000646 37.62956839 69.84647461
-149.999785 131.8863884 -80.24949539
-157.999785 67.05731639 34.69659761
-157.999785 10.05632839 -73.88499339
-153.999785 185.0626844 -42.29685339
-138.605247 171.4905884 64.24990261
-124.342771 56.43878239 64.24990261
-202.317303 32.58536239 108.2499026
-246.341229 -2.460723954e-05 -101.8820734
0.0002150000646 3.876981393 -8.391655386
-75.999785 202.5630974 -89.70683239
-77.898437 225.2405047 68.24990261
-149.999785 160.8010584 -36.64451239
-12.44598 -2.460723954e-05 18.46361461
-26.544237 -2.460723954e-05 57.86916261
-117.562863 67.89713339 108.2499026
-157.651642 98.51985439 47.22402261
-80.07603 205.9109274 68.24990261
-3.691714 -2.460723954e-05 83.62180661
0.0002150000646 30.34218239 -31.19689239
-157.999785 26.44073939 -3.483593386
-149.999785 248.7203411 38.95943761
-84.23866 29.56538339 64.24990261
-157.999785 140.3906864 -39.15561539
-219.079152 58.70156639 108.2499026
-194.644672 -2.460723954e-05 -103.7648924
-99.339661 185.8528704 -91.75009739
-152.684352 0.4999753928 -19.81396739
-99.579042 -2.460723954e-05 20.23584861
-206.349472 -2.460723954e-05 76.86011961
-0.8376309999 55.42093539 114.2499026
-149.999785 164.1388274 -80.14515239
-104.735468 67.21922839 108.2499026
-109.784469 245.3700708 -91.75009739
-120.877824 -2.460723954e-05 -59.81009739
-153.999785 214.3672828 42.03077061
-90.929219 190.3231264 -87.75009739
-162.251473 -2.460723954e-05 91.81050061
0.0002150000646 7.226751393 -67.86708439
-89.618708 -2.460723954e-05 52.96069061
-183.730659 -2.460723954e-05 -35.37049639
-49.206034 2.377741393 114.2499026
-149.999785 59.93881539 34.14347661
-154.957254 128.7568904 40.73357061
-87.542973 -2.460723954e-05 -112.4505004
-149.999785 153.7897294 -50.65663439
-149.999785 60.27954739 -41.76458539
-153.999785 225.444915 -3.153295386
-157.999785 20.97581639 -90.40558339
-146.831849 41.37749839 -91.66798539
-157.999785 72.71756039 -2.451787386
-237.020754 45.76763039 108.2499026
-91.625862 10.18786539 64.24990261
-135.092017 -2.460723954e-05 61.73659261
-149.999785 114.6666384 48.45803761
0.0002150000646 44.73568639 -64.00841539
-153.999785 139.4928004 -0.7378903864
-38.410667 -2.460723954e-05 60.91252961
0.0002150000646 24.99003439 -46.34724039
-149.999785 21.83105439 55.91362761
-149.999785 186.2449384 47.55717061
-115.734342 50.74011239 64.24990261
-5.587476 -2.460723954e-05 -34.79818539
-157.999785 147.5077774 17.80545061
-157.999785 117.9605344 -59.80989339
-93.656552 -2.266105607 -34.75009739
-251.919482 -2.460723954e-05 -26.38224339
-165.930363 7.362278393 114.2499026
-39.419702 -2.460723954e-05 -60.09089839
-123.520196 91.01927839 -87.75009739
-89.108132 -2.460723954e-05 -56.01741139
-157.999785 170.1731544 -13.47359039
-242.337627 10.77380339 114.2499026
-149.999785 4.551938393 -41.64222939
0.0002150000646 9.426892393 42.85982361
-149.999785 147.8052104 -33.63072939
-149.999785 53.19819739 59.37698261
-149.999785 88.45052339 1.731202614
-157.999785 141.4012314 38.63838761
-17.855732 -2.460723954e-05 -89.35816539
-153.999785 38.42209239 19.54090661
-8.588485 -2.460723954e-05 -69.02269739
-157.999785 96.51364239 -55.53392239
0.0002150000646 48.51622839 -45.26457939
-111.43607 41.93807339 64.24990261
-99.856745 219.3818312 68.24990261
-133.303276 -2.460723954e-05 -24.90723339
-161.642614 -2.460723954e-05 8.808792614
-149.999785 162.0481084 -8.448953386
-153.999785 18.67875039 -16.67500139
-106.781721 15.63697939 64.24990261
-0.4252259999 -2.460723954e-05 95.79432961
-157.312855 182.6617974 -6.260227386
-153.999785 173.9454654 53.64118261
-248.151957 26.64457839 108.2499026
-157.999785 3.309015393 -103.6349954
-149.999785 102.6959564 -39.31536939
0.0002150000646 10.44487839 -40.33614539
-157.999785 40.84924039 68.91219861
-120.177519 113.3316724 64.24990261
-142.820665 -2.460723954e-05 21.49012761
-80.48683 80.65886339 -87.75009739
-149.999785 179.7697404 24.59780161
-135.342538 103.6932324 -87.75009739
-179.680872 29.91635139 108.2499026
0.0002150000646 24.13423539 -73.41871539
-94.325716 152.2244914 -87.75009739
-101.126834 192.2056924 64.24990261
-220.123451 -2.460723954e-05 -101.9655584
-137.244187 22.45451039 -87.75009739
-51.145213 15.49553539 114.2499026
-157.999785 35.55364739 94.20739361
-184.90384 -2.460723954e-05 77.60032661
-157.999785 57.02038939 16.82245561
-129.209311 69.93174039 64.24990261
-120.545188 -2.460723954e-05 -29.83730539
-157.999785 21.00823239 83.02065061
-58.037277 47.49535239 114.2499026
-44.406193 53.93251539 114.2499026
-88.597905 26.65433739 114.2499026
-67.045779 38.33810439 108.2499026
-100.543429 131.6619704 -91.75009739
-62.961182 -2.460723954e-05 -114.0033224
-165.723012 18.60046139 108.2499026
-227.645971 29.20839839 114.2499026
-153.999785 58.01116939 47.34319061
-69.460416 27.96129239 108.2499026
-153.999785 234.9618145 -2.707553386
-153.999785 152.5868204 46.30825061
-164.568437 -2.460723954e-05 78.49766561
-153.999785 34.66765739 -102.5633754
-157.999785 34.47643939 58.74235461
-106.687901 173.9732704 64.24990261
-153.999785 86.27487539 14.85024861
-149.999785 203.7067674 -53.26974839
-152.380397 -2.460723954e-05 -7.385131386
-157.999785 70.00596239 -77.41987939
-157.999785 19.81998539 39.87998461
-101.020552 2.576765393 -87.75009739
-149.999785 135.0514114 -60.79724039
-226.811983 -2.460723954e-05 -68.79194439
-138.531215 195.4227104 64.24990261
-137.398677 -2.460723954e-05 -12.46436139
-157.999785 50.29251139 -35.18385639
-226.25954 -1.419249607 16.76973561
-111.557616 191.9390894 64.24990261
-153.999785 196.3343844 29.95225961
-0.2345819999 7.477396393 108.2499026
-76.82582 193.3911674 -91.75009739
-149.999785 128.8738184 27.19227361
-149.999785 29.36546339 -65.49557739
-153.999785 242.2677694 -39.15943739
-149.999785 228.849912 23.30555361
-149.470368 183.3226694 67.45003261
-149.999785 215.0505241 -29.25293839
-81.113894 188.1532274 64.24990261
-64.949612 0.8251293928 108.2499026
0.0002150000646 27.99743139 101.4522216
0.0002150000646 34.04884139 78.52922561
-159.729064 31.19567139 108.2499026
-236.332655 -2.460723954e-05 -101.0959544
-180.007911 -2.460723954e-05 -65.78307739
-145.020456 118.1097454 64.24990261
-147.245934 228.9846835 -87.51476239
-157.999785 35.37948339 -91.37785239
-234.153806 5.961124393 114.2499026
-157.999785 10.25899639 52.55640461
-149.999785 207.5195214 1.582144614
0.0002150000646 29.37413739 -0.6571513864
-97.953322 124.3444934 68.24990261
-157.999785 49.28970039 104.6876746
-153.999785 120.0622274 58.96113661
-243.436065 -2.460723954e-05 34.10652161
-199.888036 21.36014939 108.2499026
-153.999785 170.4785834 36.85899961
-157.999785 33.43983739 -21.89161339
-149.999785 186.9229104 -20.24556839
-157.999785 169.3984184 19.34731561
-153.999785 85.62990339 -88.26142739
-123.636978 -2.460723954e-05 -113.8325494
-167.526084 -2.460723954e-05 -8.419501386
-129.605914 57.61763839 108.2499026
-177.296568 -2.460723954e-05 -74.78942939
-109.599685 208.3868924 68.24990261
-113.837431 7.601140393 -91.75009739
0.0002150000646 36.79271239 -109.7322374
-151.072973 -1.160365607 -65.25009739
-153.999785 32.19016039 67.63121761
-124.918237 10.43000939 114.2499026
-129.932624 200.2238104 -87.75009739
-91.994119 168.2767014 -87.75009739
-133.268455 232.3475692 64.24990261
-215.917364 -2.460723954e-05 -34.28219939
-56.849767 22.83370639 108.2499026
-87.185785 122.5982034 -91.75009739
-153.999785 56.54800839 67.00755561
-13.468951 52.54478639 114.2499026
-149.999785 21.82531839 -73.87760339
-153.999785 136.0975844 -17.16067039
-173.453268 0.2877823928 114.2499026
-86.848583 160.8311894 68.24990261
-181.243734 -2.460723954e-05 50.30774861
-17.173665 15.11581339 108.2499026
-149.999785 228.381204 46.06856661
-157.985818 128.5322384 -74.48828539
-118.802258 -2.460723954e-05 77.12370361
-153.999785 69.89299639 -96.19198039
-85.735889 222.8447023 64.24990261
-125.131107 -0.4008686072 14.89907961
-149.999785 121.6983814 -43.21240739
-157.999785 91.68958739 -27.10275239
-150.577406 203.8749534 -90.29685639
-96.447682 178.5159884 64.24990261
-157.999785 111.8307384 15.76115761
-111.085047 240.9532755 64.24990261
-152.958856 -2.460723954e-05 70.44063761
-157.999785 102.0989114 -8.168793386
-4.902493 -2.460723954e-05 49.77135061
-107.950604 23.70591339 68.24990261
-157.999785 81.87388139 -51.36812139
-157.999785 101.9428604 24.67647361
-81.199533 -0.4967076072 108.2499026
-157.999785 55.88026039 86.79608661
-157.999785 174.6700534 10.62536561
-130.618362 48.78080639 64.24990261
0.0002150000646 46.11197839 -16.59811939
-238.429648 -2.460723954e-05 8.511721614
-143.366748 118.8576804 -87.75009739
-149.999785 43.31667139 -3.552560386
-149.999785 83.16711839 40.54369661
-128.055426 18.47256339 64.24990261
-149.769583 -0.2777386072 27.24307661
-77.930346 -2.460723954e-05 50.08104561
-129.870514 111.3911404 68.24990261
-146.774761 11.87393139 108.2499026
-54.241201 -2.460723954e-05 60.57451961
-184.735529 -2.460723954e-05 -91.02722539
-153.999785 29.13708339 -46.58236239
-151.998789 215.4021036 65.49298861
-92.897431 -2.460723954e-05 -97.60161239
-109.532055 41.58638939 114.2499026
-149.999785 117.0960784 -77.18697839
-157.999785 57.93596039 -1.188001386
-47.874502 -2.460723954e-05 102.6123996
-16.107345 6.630703393 114.2499026
-213.636109 4.596257393 114.2499026
-112.394292 97.00672239 64.24990261
-104.197074 20.90088739 114.2499026
-104.916858 66.48369739 -91.75009739
-153.999785 120.3130314 17.63779961
-149.999785 155.1427444 -14.68907539
-93.14879 105.2067854 -87.75009739
-34.6719 -2.460723954e-05 -16.15773139
-129.106496 15.60917739 108.2499026
-157.999785 30.10632439 33.09922061
-103.6408 86.92238139 -87.75009739
-157.999785 80.92148339 2.644210614
-19.648876 -2.460723954e-05 84.36389961
-134.726042 135.8135054 64.24990261
-149.999785 76.74301939 -10.72500239
-241.531011 -2.460723954e-05 -14.64978739
-153.999785 8.088279393 -52.28360739
-157.999785 20.32417239 -59.60419739
-149.999785 76.65351039 22.89902761
-78.344775 -2.460723954e-05 -95.37875439
-157.999785 98.08186139 -76.98737239
-73.218779 -0.4106676072 114.2499026
-8.205856 -2.460723954e-05 2.920410614
0.0002150000646 47.20600039 97.64462361
-141.137792 145.6899394 -87.75009739
-149.999785 34.67838039 -6.126297386
0.0002150000646 38.82941139 36.93421561
-78.534603 -2.460723954e-05 -23.49485939
-49.985521 -2.460723954e-05 13.61280961
-149.999785 159.9038244 -24.83001139
-153.999785 144.1844854 -80.52357639
-27.452416 -2.460723954e-05 -46.46366039
-241.662414 -2.460723954e-05 -57.48364439
-157.999785 82.60720539 24.02182961
-70.169398 -2.460723954e-05 -43.59416239
-157.999785 96.98207139 -34.91062239
-35.869006 6.233376393 114.2499026
-149.999785 98.37310139 23.38257161
-27.302282 24.28101239 114.2499026
-142.621823 74.73862339 -87.75009739
-131.921567 131.4219414 -87.75009739
-194.881083 10.08549139 108.2499026
-149.999785 80.14489739 -60.99746339
-149.999785 154.2144314 -67.80754839
-218.17341 -2.460723954e-05 -53.71592539
-157.999785 117.1150944 -48.56589739
-157.999785 30.00059839 -11.57210139
-153.999785 219.5437976 -70.19829739
-18.269648 34.39117339 114.2499026
-122.592826 193.8165484 68.24990261
-149.999785 12.12356139 37.03982761
-106.764421 149.8480114 -87.75009739
-153.999785 195.4712644 -78.50596939
-107.902245 -2.460723954e-05 44.15762061
-108.855346 27.48271139 -87.75009739
-213.852724 28.88293239 114.2499026
0.0002150000646 25.23729739 65.88008861
-157.999785 31.69537939 -73.85086939
-157.999785 69.40129239 71.50045861
0.0002150000646 41.34702739 -90.44445039
-149.999785 43.82720239 49.14757561
-157.999785 18.23198639 96.80606661
-227.674142 -2.460723954e-05 52.97736761
0.0002150000646 8.362519393 -88.29549139
-149.999785 97.22910739 -10.42555539
-208.12942 -2.460723954e-05 57.82144061
-28.511618 -2.460723954e-05 -97.93006339
-157.999785 48.26208439 32.82332761
-149.999785 90.91452739 45.38851361
-157.999785 8.563455393 -110.9734304
-26.512697 56.48323439 108.2499026
-157.999785 62.00750039 -34.62669739
-190.311135 -2.460723954e-05 57.52379661
-157.999785 18.94634839 48.57319661
-100.98199 30.61820939 108.2499026
-149.999785 91.42709939 -61.76683439
2.047155 -1.534622607 -14.92162639
-110.154497 -2.460723954e-05 -31.14276839
-157.999785 152.9488464 10.73458961
-174.688409 -2.460723954e-05 31.89172661
-125.60459 167.2600884 -91.75009739
-129.469044 247.1932601 -87.75009739
-77.19226 66.63180339 108.2499026
-140.884811 178.9887804 -91.75009739
-222.965825 37.65093039 114.2499026
-201.028416 -2.460723954e-05 43.75608561
-146.925333 43.44486339 114.2499026
-175.858795 -2.460723954e-05 98.86908561
-107.342415 -2.460723954e-05 5.444169614
-117.469382 193.8709804 -87.75009739
-193.872089 -2.088228607 -72.28104739
-75.999785 236.5957458 -91.59032939
-148.013986 246.762501 -91.46273939
-183.948346 8.886496393 114.2499026
-88.434389 141.4352504 64.24990261
-163.417226 -2.460723954e-05 100.7109576
-143.187875 88.93099539 64.24990261
-86.400102 50.62962239 -91.75009739
-29.961013 34.12024039 114.2499026
-194.251902 25.23430939 114.2499026
-164.578064 -2.460723954e-05 -78.55919639
-149.999785 241.0314938 -78.15571939
-7.425179 67.99997539 111.6267286
-153.999785 199.0975784 3.333337614
-157.999785 86.86755939 -19.71153439
-149.999785 165.0566794 -53.42951839
-148.326352 64.09173239 -91.36453139
-208.21059 16.74749439 114.2499026
-149.999785 245.8290465 21.83993061
-157.999785 67.03418539 -105.2694554
-26.108532 -2.460723954e-05 -66.35544839
-98.554447 40.00662639 -91.75009739
-153.999785 51.75829439 -19.93091539
-131.230075 119.1082614 -91.75009739
-157.999785 58.63545039 -110.5016894
-153.999785 241.7039001 41.86048261
-114.929894 48.20734739 114.2499026
-58.978965 -2.460723954e-05 -77.60609539
-69.245099 -2.460723954e-05 7.462708614
-93.499785 -0.3496516072 -43.18650439
-202.38448 -2.460723954e-05 -20.64518239
-74.219675 58.11216439 114.2499026
-153.999785 213.5335872 30.87378061
-157.999785 54.05006339 -79.74102539
-189.09786 -2.460723954e-05 4.539735614
-122.040704 164.1636674 64.24990261
-61.95574 -2.460723954e-05 99.89345161
-111.299655 9.626719393 68.24990261
-157.999785 88.95741839 48.59026861
-157.999785 81.50570139 -5.841799386
-248.361724 49.61259239 114.2499026
-149.999785 71.02949339 7.376159614
-157.999785 170.7353614 1.954305614
-153.999785 45.61851339 -29.31216139
-84.559525 -2.460723954e-05 -38.46511239
-157.999785 72.57173139 -49.52491239
-60.593094 -2.460723954e-05 -43.56507739
-249.381164 -2.460723954e-05 -84.23136739
-88.321819 0.3113783928 114.2499026
-96.295334 -2.460723954e-05 83.42498361
-175.625278 59.68217839 114.2499026
-167.942293 -2.460723954e-05 -49.12021139
0.0002150000646 49.21203539 63.83057461
-79.388028 12.06101239 108.2499026
-249.659826 4.910248393 108.2499026
-25.22905 -2.460723954e-05 46.29480161
-149.999785 7.995964393 -68.27601839
-94.694454 137.7792814 -91.75009739
-157.999785 174.6331704 -22.98613039
-157.999785 82.23276839 -112.1314154
-61.644513 -2.460723954e-05 -7.415512386
-117.00274 124.5746244 64.24990261
-150.942835 224.6596263 66.51259261
-18.899925 -2.460723954e-05 94.36809161
-86.018676 -1.697795607 -63.93424739
-153.999785 42.87001339 -104.4750414
-157.999785 154.2716204 -55.45563639
-149.999785 109.5135844 -55.59858239
-157.999785 55.89506239 -60.36922739
-210.75277 -2.460723954e-05 -68.50112739
-5.693654 -2.460723954e-05 58.70884161
-132.73488 -2.460723954e-05 38.88011961
-157.999785 68.10189439 56.53091161
-226.672516 -2.460723954e-05 -92.38660139
-105.69203 -2.460723954e-05 -47.07245539
-125.180159 85.67764339 68.24990261
-143.610852 27.37539139 114.2499026
-149.999785 122.1717224 35.86654061
-157.999785 93.88341439 -14.74854039
-78.662309 120.3347704 -91.75009739
-149.999785 89.96381339 21.74119761
-99.814936 -2.460723954e-05 -76.10229039
-149.999785 172.4936214 -80.48006139
-153.999785 136.3001644 -72.94156839
-104.590215 1.616771393 108.2499026
-151.572337 241.5115 65.98273261
-157.999785 76.58206839 52.09134961
-153.999785 6.505198393 11.65131561
-25.026257 -2.460723954e-05 1.307515614
-123.84188 182.4182304 -87.75009739
-157.999785 12.39100839 79.75611161
-157.999785 98.87317639 12.28480561
-85.778805 60.83163339 108.2499026
-112.198182 182.9320034 68.24990261
-153.999785 12.15294439 19.16246561
-153.999785 69.00580239 27.65140461
-152.633945 150.1739844 64.71971561
-157.999785 14.52550739 -103.4015724
-110.921221 172.3084934 -91.75009739
-149.999785 103.8817074 58.14418161
-157.999785 53.56692439 -92.97909739
-153.999785 180.4784694 -81.80624739
-153.999785 57.68758639 -10.79819639
-23.481879 42.11672539 114.2499026
-85.161292 210.4181084 -87.75009739
-149.999785 125.7374404 -1.816914386
-157.999785 47.82932839 79.98873861
-171.766729 45.23778739 114.2499026
-96.339853 14.71023539 114.2499026
-78.739848 41.95371339 114.2499026
-119.045215 225.6926031 -87.75009739
-153.999785 206.5736374 44.80908761
-77.043955 -2.460723954e-05 40.93029061
-22.339136 61.63086739 114.2499026
-237.137105 -2.460723954e-05 67.88947661
-110.190909 0.4999753928 -88.30159239
-122.035067 28.97618039 114.2499026
-157.999785 23.62099639 -82.57971539
-226.642032 9.693541393 114.2499026
-136.022014 179.8764984 64.24990261
-112.455596 199.7019074 -91.75009739
-149.999785 146.8281814 -16.26989439
-211.198686 23.36087639 108.2499026
-157.999785 83.80970039 35.55014661
-149.999785 60.16319239 -22.80085639
-153.999785 193.1592054 -68.11409939
-143.430613 210.6167734 -91.75009739
-149.999785 60.76011439 -70.17684239
-128.498936 218.7874973 -87.75009739
-94.836922 29.42913439 68.24990261
-178.966481 15.43572539 114.2499026
-94.512685 -2.460723954e-05 43.88666761
-149.999785 166.3767514 8.252826614
-5.392649 40.85991839 108.2499026
-154.499981 56.64466339 103.6111596
-182.026255 -2.460723954e-05 -3.349536386
-149.999785 79.43460839 12.73829961
-97.608553 44.02037539 64.24990261
-208.098674 5.553525393 108.2499026
-149.999785 208.9831164 -9.367221386
-129.065667 37.42642939 -87.75009739
0.0002150000646 19.12681839 10.96731461
-157.999785 52.83062739 -50.62794339
-206.568795 -2.460723954e-05 -37.15123739
-157.999785 149.9346284 28.80195861
-53.704858 51.00293639 108.2499026
-84.554336 96.49719139 -91.75009739
-115.197739 129.6975434 -87.75009739
-93.229716 100.6642614 68.24990261
-149.999785 82.36446239 -78.20617939
-234.045035 -2.460723954e-05 81.03636261
-145.638565 129.7790884 -87.75009739
-89.62689 -2.460723954e-05 35.81535061
-188.368669 -2.460723954e-05 42.13125261
-146.613412 200.3602604 64.17853561
-77.667583 -2.460723954e-05 74.54887361
-157.999785 55.49039439 -28.20279139
-115.844031 -2.460723954e-05 -3.804453386
-149.999785 188.0535284 -7.036134386
-153.999785 104.6280644 -93.43667739
-204.891386 -2.460723954e-05 87.21408861
-157.999785 31.36353339 -29.78396739
-201.215082 59.01801439 114.2499026
0.0002150000646 43.72712539 81.00818661
-134.327353 245.4718569 68.24990261
-246.471304 -2.460723954e-05 1.582705614
-149.999785 136.5879114 7.448297614
-153.999785 150.8033014 3.974264614
-153.999785 184.1580374 8.992126614
-149.999785 112.8991444 -42.30778039
-120.816931 143.0989524 -91.75009739
-149.999785 33.14101339 -74.25259339
-111.931372 247.9844403 68.24990261
-119.807976 241.6833729 68.24990261
-91.975941 57.82966139 114.2499026
-154.059128 85.05978439 55.74505161
-236.903533 -2.460723954e-05 29.21187561
-223.626947 -2.460723954e-05 -43.70895839
-149.999785 133.9552314 -43.24545539
-104.915135 -2.460723954e-05 14.11941461
-46.175088 -2.460723954e-05 63.46917361
-157.999785 77.76371239 -66.71127539
-153.999785 214.8138598 -79.37223939
-124.628679 177.2558444 68.24990261
-149.999785 99.20740839 -76.38301839
0.0002150000646 28.11327339 43.34163061
-153.999785 196.0118424 -41.57019239
-157.999785 148.4458174 -32.56126839
-102.860724 230.8990321 -91.75009739
-72.974132 -2.460723954e-05 -70.44498139
-98.678412 224.0119758 -87.89568439
-78.461818 24.03858739 66.47630061
-41.183503 -2.460723954e-05 -81.96518839
-88.516338 23.95348039 68.24990261
-149.999785 208.8837944 23.77003361
-247.912612 -2.460723954e-05 56.34782761
-120.917494 114.6880054 -91.75009739
-153.999785 179.9314584 -62.17298439
-82.766846 176.1010754 68.24990261
-149.999785 140.3675314 25.77825761
-88.768002 18.48131639 -87.75009739
-76.729605 145.7719264 68.24990261
-11.585459 28.62278739 114.2499026
0.0002150000646 18.77229239 -17.36763239
-149.999785 19.99205639 39.13638261
-226.067695 22.37127639 108.2499026
-149.999785 233.1035171 -62.44762539
-153.999785 232.2380876 -35.81454639
-149.999785 180.9705714 -3.149355386
-106.609558 135.0827994 -87.75009739
-149.999785 107.1045344 -0.6850863864
-89.641382 130.7595724 -87.75009739
-149.999785 100.9342814 -24.53736539
-162.337237 -2.460723954e-05 18.12460061
-147.410135 90.57731739 -91.61091739
-128.897075 62.99059939 68.24990261
-76.524218 35.85448339 108.2499026
-157.999785 124.4828784 -43.97850839
-154.301407 176.6772764 -36.69454839
-153.999785 2.584661393 33.41157061
-126.347824 231.9713903 68.24990261
-139.437366 114.0073504 68.24990261
-191.414963 65.21553839 108.2499026
-153.999785 215.7609537 16.64511361
-97.126924 214.5124805 -87.75009739
-153.468479 223.1880495 -86.51290639
0.0002150000646 48.41476939 20.14497561
-149.999785 130.7733874 -54.04964439
-153.999785 245.6340308 -58.64200839
-149.999785 43.97069639 -65.58333739
-149.999785 9.206122393 -59.10368839
-157.999785 148.0768884 -61.22600539
-67.719022 -2.460723954e-05 77.91094761
-210.377877 -2.460723954e-05 -60.39284839
-153.999785 209.9511164 -50.33017539
-134.697604 34.20452539 108.2499026
0.0002150000646 19.32329839 -28.36557439
-58.010308 31.44835239 108.2499026
-136.785595 93.31038139 -87.75009739
-157.999785 116.2065254 33.95319861
-232.041384 -2.460723954e-05 -25.13112339
0.0002150000646 5.684364393 14.72648961
-44.399845 31.86654939 108.2499026
-125.340305 38.86885239 108.2499026
-10.903024 -2.460723954e-05 28.01616961
-153.999785 233.3515019 -72.49413639
-114.606155 39.39327139 -87.75009739
-137.666909 33.02239239 64.24990261
-224.20097 59.59627439 114.2499026
-83.928117 182.1131174 -87.75009739
-105.752838 53.00338739 114.2499026
-37.585911 -2.460723954e-05 -42.05345839
-118.903067 -2.460723954e-05 62.38902861
-153.999785 149.6555904 -8.147095386
-113.033328 105.6017874 64.24990261
-159.784773 -2.460723954e-05 -67.51681539
-95.279467 62.45669039 -87.75009739
0.0002150000646 8.206041393 -96.20734339
-107.215387 9.248316393 -87.75009739
-129.909825 14.10016939 -91.75009739
-124.630499 150.9080384 64.24990261
-157.999785 47.31503439 48.82941161
-149.999785 40.05100139 12.93080461
-55.192828 7.804897393 108.2499026
-106.665927 -2.460723954e-05 100.8079686
-153.999785 27.07350639 -110.0094394
-133.091534 117.3803824 64.24990261
-157.999785 100.8864814 1.589759614
-149.999785 156.0654654 26.42910761
-82.556332 244.5205732 68.24990261
-120.675897 -2.460723954e-05 35.15167661
-89.911229 67.99997539 108.3867686
-149.999785 213.2381814 -16.41727339
0.0002150000646 23.75073139 -103.0134114
0.0002150000646 26.57402639 52.33972061
-149.999785 54.85282339 23.73527461
-149.999785 246.0139014 52.44850261
-117.002729 89.91842739 68.24990261
-153.304533 -2.460723954e-05 7.053156614
-217.134031 35.39373539 108.2499026
-211.295763 48.41793539 108.2499026
-149.999785 15.77576039 30.11497461
-153.999785 144.2940974 49.83671961
-153.999785 61.99569139 12.28887061
-144.821541 232.3064807 68.24990261
-112.556476 79.04238539 64.24990261
-84.185275 59.27349539 64.24990261
-149.999785 50.44820639 -52.46901239
-163.571082 -2.460723954e-05 70.76955361
-85.077624 22.80964639 108.2499026
-120.909374 43.20446939 114.2499026
-17.937203 -0.5140256072 108.2499026
0.0002150000646 19.02850239 26.15487561
-70.973897 32.72983739 114.2499026
-96.0422 174.9145874 -87.75009739
-149.999785 196.2226354 -29.71620239
-154.574043 152.4619624 35.85324261
-166.037948 56.90057739 108.2499026
-149.999785 42.73599939 -83.50445739
-130.202482 128.6543434 64.24990261
-56.510699 -2.460723954e-05 21.62852561
-25.796011 -2.460723954e-05 -8.599819386
-157.999785 90.62404239 -67.81498139
1.791119 34.01340639 107.2499026
0.0002150000646 40.50909139 62.66233161
-4.517057 23.22613839 108.2499026
-157.999785 173.8649324 -6.680785386
-112.771072 93.82684939 -87.75009739
-115.727144 240.427723 -91.75009739
-93.693079 89.36505039 64.24990261
-149.999785 134.9039014 -5.488641386
-192.27286 -2.460723954e-05 -3.860329386
-207.558839 61.94860239 108.2499026
-22.992005 -2.460723954e-05 69.55298061
-157.999785 29.19430339 7.136609614
-78.34924 24.28005139 -88.55287339
-192.83703 -2.460723954e-05 -27.32545239
-144.734735 51.17479339 114.2499026
-86.444007 -2.460723954e-05 -30.23715339
-161.891191 -2.460723954e-05 56.32526061
-113.325192 34.99965239 68.24990261
-225.495241 -2.460723954e-05 40.15904461
0.0002150000646 26.69109739 82.15794061
-168.401998 -2.460723954e-05 -23.63262539
-141.55737 156.5332924 -91.75009739
-93.316598 47.08929139 108.2499026
-157.999785 79.12104939 -87.61345739
-153.999785 70.94563739 -65.82908039
-121.446716 -2.460723954e-05 96.88834761
-149.999785 48.80668739 -37.56002439
-123.233007 210.3331324 -91.75009739
-149.999785 145.0491544 -41.82192739
-153.999785 222.8142168 -44.76872439
-49.981785 -2.460723954e-05 -17.09033939
-149.999785 63.12573039 23.79380361
0.2146760001 49.99997539 -79.65993939
-135.272426 84.55130139 64.24990261
-147.445743 -2.460723954e-05 -14.29609139
-104.50211 9.689263393 108.2499026
-153.999785 244.1244254 34.32923361
-27.586414 19.03048539 108.2499026
-149.999785 150.1206304 17.33701461
-88.764902 -2.460723954e-05 63.56955361
-82.330618 72.92241839 64.24990261
-238.341259 -2.460723954e-05 -108.4373294
2.218781 -2.460723954e-05 -68.75111739
-153.999785 139.2283384 56.58251861
-138.360891 -2.460723954e-05 5.598313614
-153.999785 67.52622239 -53.97396439
-166.387826 34.85198239 108.2499026
-149.999785 236.1803391 38.25247361
-157.999785 122.8966994 23.54931161
-80.349273 110.9801044 64.24990261
-194.895551 -2.460723954e-05 79.47234761
-10.957487 -2.460723954e-05 -22.13663539
0.0002150000646 36.22320839 -15.67350439
-135.448943 194.4760574 -87.75009739
-153.999785 36.34073039 -59.02700839
-179.063531 35.43749739 114.2499026
-96.521731 -2.460723954e-05 -14.35145539
-153.999785 1.907797393 42.31761261
-102.222682 225.7565803 64.24990261
-149.999785 242.8309456 -45.55334939
-241.614317 6.228677393 108.2499026
-78.276326 -2.460723954e-05 -47.44564239
-149.999785 67.46768739 46.47017861
-182.888101 -2.460723954e-05 -14.73548439
-54.238302 -2.460723954e-05 36.32436561
-124.05431 61.37240439 114.2499026
-149.999785 72.51575539 59.91442861
-149.999785 44.81437539 19.81293961
-83.564006 -2.460723954e-05 79.25297361
-82.840276 84.65741939 64.24990261
0.0002150000646 29.41816239 24.70935861
-121.187069 106.0238054 -91.75009739
-144.940226 178.2182664 64.24990261
-149.999785 97.33418139 35.33301061
-125.910897 206.0136724 64.24990261
-157.999785 93.75399639 30.30551361
-186.850744 59.24359139 108.2499026
-147.424978 -2.460723954e-05 -71.80370139
-153.999785 37.54690939 50.12460661
-110.066584 16.82356939 108.2499026
-157.999785 131.3880074 25.88241661
-49.450303 -2.460723954e-05 -45.18391839
-203.209842 -1.177563607 108.2499026
-157.999785 34.77866339 -0.9480593864
-28.121692 -2.460723954e-05 -77.07872439
-139.784139 54.57824139 68.24990261
-149.999785 70.73143639 -2.574042386
-149.999785 39.19382839 -12.94115639
-157.999785 60.89242039 75.00718761
-75.999785 70.94281039 67.88501061
0.0002150000646 38.48269839 -31.08736239
-17.630573 38.82487439 108.2499026
-157.999785 89.14399439 -39.68126639
-170.306094 -2.460723954e-05 38.15293261
-153.979976 43.89592539 108.2499026
-92.011297 191.9740794 68.24990261
-77.044403 -2.460723954e-05 66.69280861
-225.195436 -2.460723954e-05 -56.27749339
-31.038885 -2.460723954e-05 104.0139076
-134.31529 215.0146087 -91.75009739
-251.35775 21.92341339 114.2499026
-149.999785 109.8364874 -72.96816439
-153.999785 104.6287484 9.706468614
-153.999785 46.27573639 11.92543561
-148.789957 43.94485239 63.10742461
-149.999785 229.506606 -21.63386039
-204.913237 -2.460723954e-05 51.08967061
-149.999785 108.7720394 29.23815761
-112.32815 81.67520139 -87.75009739
-194.780143 55.43652939 108.2499026
-133.644704 21.91306339 68.24990261
-128.53919 38.31430039 64.24990261
0.0002150000646 48.33344039 1.705935614
-81.701979 40.35636539 64.24990261
-149.999785 60.93064439 56.88576561
-149.999785 60.94367039 -33.95998639
-149.999785 58.50896539 -2.653901386
-149.999785 90.81121939 -69.52168639
-113.383865 251.8778688 -91.75009739
-157.999785 63.17770639 -96.74157439
-174.38615 36.72463639 108.2499026
-208.945655 40.31051639 108.2499026
-101.867891 -2.460723954e-05 62.77979461
-149.999785 13.06259639 -75.34042839
-150.06285 33.79108439 114.2499026
1.866597 48.76031939 108.2499026
-157.999785 90.65302339 -83.84603639
-157.999785 133.3065964 -49.87669639
-147.910265 145.3671254 -91.49217839
-149.999785 225.8746847 -72.83074539
-95.95335 249.8257231 64.24990261
-101.802221 -2.460723954e-05 70.94190061
-230.639865 -2.460723954e-05 -106.9023334
-146.114628 131.8253984 64.23654661
-4.875511 12.67771939 114.2499026
-89.175705 155.7132324 -91.75009739
-157.904476 109.9886244 -90.16945939
0.0002150000646 49.36215239 -23.23761039
-217.07363 -2.460723954e-05 3.911036614
-75.999785 64.02725739 -90.80470039
-1.684144 -2.460723954e-05 -51.62311139
-121.157271 18.41047239 -87.75009739
-101.960723 29.04476139 64.24990261
-153.999785 75.42064739 -80.42057639
-231.128635 -2.460723954e-05 59.65905561
-242.487173 30.30049539 114.2499026
-143.930484 194.7714214 -87.75009739
-148.491705 167.6494164 -91.31646239
-82.14318 71.13702439 -87.75009739
-45.242689 17.56548439 108.2499026
-163.673798 29.59740039 114.2499026
-209.273682 34.68082739 114.2499026
-153.999785 170.7411794 -47.92314939
-153.999785 168.1345984 -64.80066839
-110.905972 156.1005114 68.24990261
-149.999785 29.20071639 47.55973161
-149.999785 190.2600534 -47.17175539
-8.092262 37.41262639 114.2499026
-64.650893 65.43023239 114.2499026
-149.999785 215.2623494 3.012225614
0.0002150000646 14.59501639 94.04983961
-153.999785 93.25686839 -105.4517454
-241.576883 -2.460723954e-05 85.48175761
-83.289011 167.9172454 64.24990261
-37.599997 45.51154539 108.2499026
-157.999785 19.52072339 -97.74171339
-245.667193 13.27651839 108.2499026
-210.763878 -2.460723954e-05 -16.41442239
-107.654247 19.86804939 -87.75009739
-180.759088 -2.460723954e-05 7.714868614
-90.733809 34.00244139 108.2499026
-44.60122 38.71807639 114.2499026
-176.986933 19.18709039 108.2499026
-243.463969 -2.460723954e-05 -91.71157939
-108.110971 -2.460723954e-05 28.92536261
-47.561964 62.14175239 114.2499026
-167.638637 22.25485039 114.2499026
-7.477466 45.42982339 114.2499026
0.0002150000646 10.76940539 3.126415614
-149.999785 106.7007504 15.80088661
-75.999785 242.2975209 66.01352661
1.542188 -2.199976607 -34.19039439
-149.999785 120.3274174 -7.835965386
-149.999785 106.4341184 -63.73786439
-90.858719 -2.460723954e-05 101.9175576
-145.571991 32.62427239 108.2499026
-26.207211 11.26747139 108.2499026
-149.0136 -2.460723954e-05 -84.15747339
-209.831418 30.48984239 108.2499026
-98.673116 100.4995014 -87.75009739
-82.613296 130.5986844 68.24990261
0.0002150000646 22.87276539 -3.871426386
-206.423727 67.99997539 112.8663286
-153.866897 57.94506739 -84.90079339
-135.638804 172.3237824 -87.75009739
-157.999785 109.2654824 29.44099861
-96.87967 117.4171574 -87.75009739
-149.999785 247.9326659 -12.39440239
-83.003247 142.3618524 -87.75009739
-157.999785 25.77908839 77.58238161
-153.999785 183.5272424 34.22284861
-117.237394 217.3413973 64.24990261
-199.394555 -2.460723954e-05 72.28962961
-28.26138 63.49410939 108.2499026
-129.095196 69.73604439 -87.75009739
-101.177083 57.95993239 108.2499026
-112.086083 24.60645339 114.2499026
-193.621008 46.91733539 114.2499026
-153.999785 230.1679475 16.72605161
-87.141969 81.75206739 -91.75009739
-234.911374 61.35478239 108.2499026
-122.217678 85.15816239 -91.75009739
-183.608402 62.79282939 114.2499026
-152.014631 67.99997539 109.0126616
-190.409678 -2.460723954e-05 -38.09248239
-134.449252 200.3023654 68.24990261
-113.463334 158.2729144 -87.75009739
-153.999785 53.60050639 95.37956261
0.0002150000646 7.087377393 -60.36419739
-125.327739 155.1100314 -87.75009739
-149.999785 169.2222494 21.78852561
-119.008068 23.38674839 64.24990261
-153.999785 29.18358039 95.29103261
-138.43402 -2.460723954e-05 -39.41227039
-100.037494 77.30336539 -87.75009739
-39.627219 64.88266239 114.2499026
-153.999785 33.18643139 -40.66359539
-213.025374 14.48477039 108.2499026
-153.999785 139.8432494 -23.40872739
-149.999785 202.5216064 30.00267761
-121.899987 49.02156239 -91.75009739
