# .PCD v0.7 - Point Cloud Data file format
VERSION 0.7
FIELDS x y z
SIZE 4 4 4
TYPE F F F
COUNT 1 1 1
WIDTH 1218
HEIGHT 1
VIEWPOINT 0 0 0 1 0 0 0
POINTS 1218
DATA ascii
-107.8005458 10.7728994 -29.7374172
-49.33963583 -2.460453697e-05 -148.9536402
32.31039417 39.5419624 0.8971747998
95.42556417 -2.460453697e-05 -30.5733842
99.95295417 -2.460453697e-05 -229.0181902
-59.03206583 -2.460453697e-05 -250.7582342
134.3738742 31.9551234 -88.0269992
114.0777742 -2.460453697e-05 -129.4163982
-36.35988583 2.929383395 0.8971747998
-74.78542583 -2.460453697e-05 -12.0111862
-35.41007583 -2.460453697e-05 -91.8311962
127.4782742 -2.460453697e-05 -185.6152852
-6.369925831 -2.460453697e-05 -94.8190272
5.532174169 -2.460453697e-05 -132.0181722
-30.01057583 -1.365183605 -193.3944882
82.85679417 67.9999754 2.1903738
48.15865417 -2.460453697e-05 -202.1920232
-107.4376158 -2.460453697e-05 -143.1307422
-131.8836558 -2.460453697e-05 -165.3634302
-120.6137058 -2.460453697e-05 -226.7274192
51.59574417 -2.460453697e-05 -24.1766242
-47.78788583 -2.460453697e-05 -53.2099832
-133.4038958 62.1193754 -24.9023682
69.65923417 -2.460453697e-05 -161.1265682
43.51662417 -2.460453697e-05 -52.4638352
-74.49036583 -2.460453697e-05 -164.1104332
-90.58370583 -2.460453697e-05 -94.4391562
10.69403417 -2.460453697e-05 -10.6480582
-72.85088583 67.9999754 0.9361547998
59.02222417 -2.460453697e-05 -121.9868932
-34.55612583 36.4937064 0.8971747998
-131.1640658 0.06659739546 -14.0628662
113.0400342 20.3417204 -22.3686842
-102.8005458 49.1067814 -224.6324882
64.62952417 18.8029784 0.8971747998
-107.8005458 49.8160254 -62.7380682
-102.8005458 49.9477124 -163.7062612
6.705554169 -2.460453697e-05 -55.7912002
18.90167417 -2.460453697e-05 -108.2481192
102.7638242 -2.460453697e-05 -200.1777142
-107.8005458 23.6509454 -190.8344522
-107.8005458 31.5306034 -7.7161162
-107.8005458 43.1797844 -113.8680872
134.4526942 52.5316684 0.8971747998
27.26045417 -2.460453697e-05 -152.0014212
-107.8005458 0.3896033955 -53.1928962
99.86443417 -2.460453697e-05 -151.8183052
73.61976417 -2.460453697e-05 -229.9603942
38.54640417 63.5290324 0.8971747998
40.01282417 -2.460453697e-05 -95.7607112
118.0655142 -2.460453697e-05 -55.0134912
-102.8005458 21.8245404 -145.6096182
-95.10049583 67.9999754 2.1922808
126.9370042 34.1349354 -48.9566922
66.74263417 -2.460453697e-05 -183.0264862
-68.82668583 -2.460453697e-05 -206.6493802
47.94960417 -2.460453697e-05 -145.1429452
130.7876642 -2.460453697e-05 -76.4378792
-108.0074758 -2.460453697e-05 -181.6927272
-125.0532258 -2.460453697e-05 -109.4044282
-105.8716458 49.9999754 -18.8537612
59.87300417 -2.460453697e-05 -66.6038602
-15.38057583 -2.460453697e-05 -141.1616712
-107.8005458 25.1083024 -92.2313552
109.3375842 44.8940694 -10.9732652
19.91832417 15.4002864 0.8971747998
-107.8005458 32.8796354 -237.3557392
72.92461417 -2.460453697e-05 -17.6790352
-68.70025583 -2.460453697e-05 -34.3480622
-84.80081583 21.4404544 0.8971747998
-88.56104583 -2.460453697e-05 -115.2109122
-122.9119258 47.8750514 -5.6653982
11.67526417 44.0547174 0.8971747998
-107.8005458 21.3869614 -55.1469112
-111.2626858 -2.460453697e-05 -208.2905572
108.2782742 -2.460453697e-05 -92.3228872
113.0001242 -2.460453697e-05 -20.2108112
110.7032742 17.4391424 0.1712837998
-68.58177583 -2.460453697e-05 -61.6414562
-0.7691958306 -2.460453697e-05 -74.7641052
-56.09396583 -1.722844605 0.8971747998
132.1891142 -2.460453697e-05 -120.7933382
63.10895417 -1.268277605 0.8971747998
-34.33044583 -2.460453697e-05 -133.7568192
-77.54587583 -2.460453697e-05 -184.2284382
-87.85649583 -2.460453697e-05 -251.5975662
-102.8005458 6.289910395 -232.8786302
-39.87553583 -2.460453697e-05 -169.7121582
60.62314417 67.9999754 2.1833548
-32.85159583 -2.460453697e-05 -38.9158092
-68.05196583 43.2608954 0.8971747998
29.93961417 -2.460453697e-05 -14.4855702
-102.8005458 33.6095214 -72.5110202
101.7351042 -2.460453697e-05 -248.3703252
-119.3744058 -2.460453697e-05 -68.7599862
-88.30427583 -2.460453697e-05 -67.6400532
-92.83548583 -2.460453697e-05 -157.9818082
80.22806417 42.9604874 0.8971747998
62.12137417 -2.460453697e-05 -245.4392532
-46.60288583 -2.460453697e-05 -76.1349582
50.62441417 32.3370814 0.8971747998
87.99903417 -2.460453697e-05 -85.7137262
-8.295025831 -2.460453697e-05 -11.0222342
-99.03664583 -2.460453697e-05 -16.4046912
-23.36322583 66.8544614 0.8971747998
-107.8005458 33.0974634 -173.4685472
-120.4964558 11.2327924 -3.2073872
124.5278342 17.0442354 -41.5422942
-133.3013758 41.4228574 -24.7980452
-4.480735831 67.9999754 1.7264278
-107.1163558 -2.460453697e-05 -121.1477662
-108.9551958 -2.460453697e-05 -91.7701122
-32.77715583 -2.460453697e-05 -212.2056352
-107.8005458 29.5669084 -127.5247752
99.18283417 -2.460453697e-05 -8.0392172
134.3814042 -2.460453697e-05 -234.1001722
-16.84209583 31.7806254 0.8971747998
-133.6365658 -2.460453697e-05 -213.9762702
115.8408442 -2.460453697e-05 -110.4299262
-107.8005458 39.6410834 -208.7324232
77.56005417 -2.460453697e-05 -62.8177282
76.13657417 -2.460453697e-05 -106.8053682
89.95894417 -2.460453697e-05 -47.6513742
-107.8005458 28.3948234 -26.6489512
-109.9627458 -2.460453697e-05 -162.9235002
-74.34555583 -2.460453697e-05 -101.7878772
-38.66899583 -2.460453697e-05 -232.3641242
-31.17234583 -2.460453697e-05 -20.5734632
134.3263742 49.9999754 -81.0500192
1.372334169 -2.460453697e-05 -25.8140892
-57.13722583 -2.460453697e-05 -165.6859662
-106.7882758 49.0695624 0.7302427998
-109.9973658 -2.460453697e-05 -248.2293482
114.5343342 -2.460453697e-05 -174.2505192
133.9965542 14.7795424 -86.8660752
97.03515417 -2.460453697e-05 -127.2371532
-8.432975831 -2.460453697e-05 -47.6830432
-90.07340583 -2.460453697e-05 -31.0073062
96.35664417 48.7177054 0.8971747998
-72.08467583 -2.460453697e-05 -119.7312712
50.05661417 -2.460453697e-05 -82.0083732
-3.168865831 -2.460453697e-05 -117.5263852
91.79999417 -2.460453697e-05 -213.7710232
-21.72945583 -2.460453697e-05 -101.7519602
-102.8005458 13.7069064 -130.1504692
116.5359942 -2.460453697e-05 -234.4662342
-19.68985583 2.341255395 0.8971747998
132.9753142 -2.460453697e-05 -17.6729642
133.1469142 34.1988124 -68.0687572
-134.4504258 -2.460453697e-05 -59.4032922
-49.85648583 -2.460453697e-05 -201.8381692
-29.01063583 17.6702964 0.8971747998
124.7740842 49.9999754 -44.1668082
32.07103417 -2.460453697e-05 -67.5847752
-66.52901583 -2.460453697e-05 -235.4716862
-72.92110583 9.879775395 0.8971747998
39.35035417 -2.460453697e-05 -34.8587322
62.44955417 -2.460453697e-05 -218.1940692
-67.47716583 -2.460453697e-05 -145.6260132
12.11475417 -2.460453697e-05 -93.6372292
-107.8005458 13.5700704 -12.8073482
-107.8005458 37.1763434 -155.4390002
114.3182542 -2.460453697e-05 -39.4490602
82.17068417 -2.460453697e-05 -187.2520042
-116.5188858 -2.460453697e-05 -39.7923662
26.28110417 -2.243520605 0.8971747998
119.9484442 44.0438364 0.8971747998
-102.8005458 12.4348174 -203.2798752
-58.32692583 -2.460453697e-05 -130.2508392
-83.73161583 -1.891233605 0.8971747998
-114.8049358 -2.460453697e-05 -17.5715452
85.32367417 -2.460453697e-05 -157.8450812
-30.92283583 -2.460453697e-05 -74.7670662
92.33332417 16.0793694 0.8971747998
27.98577417 -2.460453697e-05 -51.4166972
126.4852542 -2.460453697e-05 -138.6510032
-1.462445831 31.5008534 0.8971747998
-102.8005458 30.8798544 -105.5170182
-29.58118583 -2.460453697e-05 -53.8727072
33.04781417 23.2306694 0.8971747998
44.41106417 48.8742224 0.8971747998
-38.01498583 -2.460453697e-05 -106.8702882
-126.2716758 -2.460453697e-05 -146.3680692
-49.78790583 36.6335364 0.8971747998
54.96125417 -2.460453697e-05 -40.6525912
-94.34516583 -2.460453697e-05 -213.7513762
-111.9384158 -2.493640605 -3.0588572
-25.66856583 -1.153805605 -176.0486802
132.9235842 -2.460453697e-05 -55.9454652
42.93426417 -2.460453697e-05 -159.8458512
-131.9943058 11.5288354 -23.4679572
9.729804169 -2.460453697e-05 -40.7044042
-133.5592858 -2.460453697e-05 -233.9382012
-60.99085583 -2.460453697e-05 -17.3998342
-102.8005458 12.7763734 -43.5001222
120.6029042 -2.460453697e-05 -202.4345952
-32.65855583 51.1131864 0.8971747998
117.3158942 28.2900824 -35.5282202
-128.3214158 61.2045184 -11.1701592
62.11200417 -2.460453697e-05 -197.8938172
-102.0794158 -2.460453697e-05 -107.5580282
118.6783442 29.5068994 0.8971747998
-94.67819583 -2.460453697e-05 -135.7583592
-49.83969583 11.2925794 0.8971747998
-97.07323583 -2.460453697e-05 -171.7737632
57.96448417 -2.460453697e-05 -170.5507242
-102.8005458 38.1256014 -56.1534072
53.84099417 -2.460453697e-05 -99.4434092
42.84321417 -2.460453697e-05 -109.7422602
106.2492242 -2.460453697e-05 -216.2299932
18.17833417 31.3747974 0.8971747998
104.2526642 -2.460453697e-05 -49.5144412
48.13905417 -2.383884605 0.8971747998
-102.8005458 20.3637854 -230.9674562
124.7711242 63.0000754 0.8971747998
20.30449417 -2.460453697e-05 -123.5194632
1.642814169 55.2449134 0.8971747998
-102.8005458 12.4025274 -88.4619482
-80.64053583 -2.460453697e-05 -150.7637852
115.6406242 31.5654064 -14.1901942
-1.099245831 2.357695395 0.8971747998
74.90084417 -2.460453697e-05 -120.8533052
-54.41121583 -2.460453697e-05 -40.8173102
71.17584417 -2.460453697e-05 -146.1434762
81.46519417 -2.460453697e-05 -29.3464932
-80.30595583 -2.460453697e-05 -84.9285822
73.36569417 30.7604294 0.8971747998
-107.8005458 35.0185424 -251.1418272
-46.57192583 -2.460453697e-05 -244.5143392
133.1049642 -2.460453697e-05 -0.6920602002
-121.7350558 36.2309414 -13.0280262
-107.8005458 10.8853904 -101.3281192
-107.8005458 38.2354404 -195.0403672
-70.54723583 -2.460453697e-05 -220.2914652
105.2290042 -2.460453697e-05 -185.8631072
16.70119417 -2.460453697e-05 -68.5348982
-42.92017583 -2.460453697e-05 -186.6410022
-72.08405583 27.7637814 0.8971747998
96.14383417 65.0336894 0.8971747998
-106.2328758 -2.460453697e-05 -77.0305302
-133.2932958 -2.460453697e-05 -75.3685692
-15.80049583 -2.460453697e-05 -76.6232622
23.85031417 50.1738174 0.8971747998
-101.5919758 23.0974244 0.8971747998
-64.41178583 57.4624004 0.8971747998
-75.28061583 -2.460453697e-05 -246.7199772
116.2082042 -2.460453697e-05 -81.4458942
102.9594342 -2.460453697e-05 -165.2555742
45.39116417 -2.460453697e-05 -69.0529052
-102.8005458 34.0415044 -223.4451862
-106.5699458 -2.460453697e-05 -221.7167202
-107.8005458 10.3869174 -154.8518942
85.85249417 -2.460453697e-05 -14.5965692
75.47918417 -2.460453697e-05 -173.1024092
123.2220042 22.1295704 -53.7054002
53.51918417 10.1574534 0.8971747998
-102.9808458 -2.460453697e-05 -40.3675752
-116.3659558 36.2702524 0.9958517998
-107.8005458 49.5208174 -46.0754562
-107.8005458 46.3344414 -177.2096062
-107.8005458 46.0326964 -236.2376722
58.73215417 -2.460453697e-05 -137.9192762
-104.0544458 49.9999754 -149.8552922
36.41714417 -2.460453697e-05 -79.7275482
-36.36466583 -2.460453697e-05 -119.5990312
115.3539942 11.5769844 -13.3089902
-107.8005458 47.3674164 -125.9611692
46.88189417 -2.460453697e-05 -11.6129742
107.2434542 34.0653584 -4.5284512
53.61519417 -2.460453697e-05 -183.2262892
93.68447417 -2.460453697e-05 -60.7103802
-107.8005458 6.224537395 -192.7506792
-107.8005458 49.2563044 -31.3597552
112.5094742 -2.460453697e-05 -150.9893512
-102.8005458 49.9761624 -201.5804892
-107.8005458 46.3388734 -78.1454582
-46.83505583 -2.460453697e-05 -7.5487572
87.39895417 -2.460453697e-05 -227.6315682
25.00733417 -2.460453697e-05 -97.2479292
-102.8005458 28.4874714 -206.1327472
120.2958242 12.2694574 -28.5177142
-101.8635058 -2.460453697e-05 -65.3559792
69.76913417 -2.460453697e-05 -78.4047612
-124.0005758 -2.460453697e-05 -52.6405392
-9.071795831 -2.460453697e-05 -128.4802062
72.46327417 61.2856904 0.8971747998
-102.8005458 28.2223194 -162.4751762
133.2515542 15.4225734 0.8971747998
-93.08330583 55.8589544 0.8971747998
-56.75062583 -2.460453697e-05 -69.1119202
-74.68250583 -2.460453697e-05 -73.9714372
25.63600417 -2.460453697e-05 -139.7959572
-79.39082583 -2.460453697e-05 -23.4270482
-89.61735583 -2.460453697e-05 -186.4682062
-83.06387583 -2.460453697e-05 -218.5381382
-21.64913583 -2.460453697e-05 -12.8752012
-43.59636583 26.0857814 0.8971747998
-107.8005458 12.0128464 -179.4802202
58.48541417 -2.460453697e-05 -229.7109912
15.78797417 -2.460453697e-05 -24.1584622
4.076354169 20.7075484 0.8971747998
-114.3477858 21.4294774 -5.5106672
-46.90085583 -2.460453697e-05 -95.6970512
116.8525342 -2.460453697e-05 -222.0991262
-102.8005458 39.5440684 -26.1172142
76.73833417 18.7877024 0.8971747998
-127.1632058 -2.460453697e-05 -176.4924172
-102.8005458 28.0049274 -45.8113982
-86.83353583 -2.460453697e-05 -11.9232912
-92.64772583 -2.460453697e-05 -239.0161962
-123.3965258 12.2590004 -14.7187572
121.7227242 -2.460453697e-05 -12.1770132
-72.42685583 -2.460453697e-05 -45.6046182
-117.6888658 -2.460453697e-05 -100.1218002
109.3294642 22.0904644 -10.9487402
-107.8005458 43.6803534 -102.0606252
125.2078642 -2.460453697e-05 -169.2437852
12.68752417 1.169585395 0.8971747998
-107.8005458 10.3079074 -59.5135172
129.8296342 18.7424794 -74.0415782
125.2232542 4.664984395 -43.6833862
127.4309042 5.476077395 -66.6570692
-102.3005458 -1.932201605 -201.0279822
64.25937417 -2.460453697e-05 -25.5107032
-107.8005458 22.7893904 -66.7091722
-104.5176358 60.4916674 0.8971747998
-44.53085583 -2.460453697e-05 -128.1356132
-132.6823958 48.5008634 -15.6079322
-82.76749583 -2.460453697e-05 -172.1696692
-94.81143583 -2.460453697e-05 -78.7619642
-131.2457258 -2.460453697e-05 -119.1504332
79.29061417 -2.460453697e-05 -240.0069752
-74.25070583 -2.460453697e-05 -196.4829842
-102.8005458 33.2795124 -185.9193922
-102.8005458 9.375229395 -216.1966482
-127.4840858 -2.460453697e-05 -32.8302502
102.6056942 6.296749395 0.8971747998
100.1958942 -2.460453697e-05 -20.1769612
32.01217417 -2.460453697e-05 -113.3912722
47.54960417 19.8963914 0.8971747998
-102.8005458 44.0880414 -9.5910112
-59.09958583 -2.460453697e-05 -51.8663382
-102.8005458 23.4862954 -15.2573952
-79.14569583 58.6528084 0.8971747998
90.57163417 -2.460453697e-05 -202.5742732
-64.55077583 -2.460453697e-05 -157.2354972
-2.515105831 -2.460453697e-05 -105.3545512
-119.0010758 -2.460453697e-05 -184.1850982
-59.04112583 -2.460453697e-05 -106.2745542
-107.3459758 -2.460453697e-05 -26.7175212
-93.22619583 -2.460453697e-05 -55.3060832
-67.25850583 -1.164522605 0.8971747998
-50.43703583 47.7689184 0.8971747998
62.50577417 -2.460453697e-05 -13.7010512
-16.84975583 -2.460453697e-05 -87.6974482
-6.107505831 -2.460453697e-05 -58.5523942
92.05866417 -2.460453697e-05 -96.2980842
106.5614542 -2.460453697e-05 -116.5224652
-122.3438458 -2.460453697e-05 -208.9400912
89.65668417 -2.460453697e-05 -245.3824012
-107.8005458 12.6873234 -242.6660722
-102.8005458 23.5411374 -82.5260402
-102.8005458 34.7705264 -142.3654962
-107.8005458 20.7312114 -34.5652212
-16.79730583 -2.460453697e-05 -39.9337282
111.0251342 -2.460453697e-05 -67.7889862
-102.8005458 36.0159834 -83.1618212
-61.58293583 14.0198184 0.8971747998
-118.4119758 56.6546774 -1.0862002
-59.87348583 -2.460453697e-05 -212.7825332
58.57173417 -2.460453697e-05 -109.1944112
-107.8005458 24.4686044 -180.0094892
46.05491417 -2.460453697e-05 -120.0720522
128.9069942 -2.460453697e-05 -87.0877772
-32.54168583 -2.460453697e-05 -223.4536362
-120.0968558 -2.460453697e-05 -80.4821692
106.1886642 -2.460453697e-05 -31.4306672
-95.49114583 -2.460453697e-05 -146.4953892
-11.21087583 -2.481086605 -150.7552502
39.84286417 31.5219344 0.8971747998
115.9452042 -2.460453697e-05 -185.7562612
-38.81774583 -2.460453697e-05 -203.3536862
-102.8005458 24.8319914 -242.3505932
-107.8005458 32.8501844 -117.3342832
-113.7860558 -2.460453697e-05 -234.9717442
52.90933417 -2.460453697e-05 -211.7806632
131.7680342 38.5373004 -80.0069262
-95.33115583 36.4729084 0.8971747998
-41.00932583 -2.460453697e-05 -61.4648492
118.2078842 49.5855394 -22.0912212
125.7457342 28.9995424 -61.4724742
-117.3314958 -2.460453697e-05 -124.1721902
129.1363042 43.3644064 -55.7253092
123.0900042 11.4957114 -53.2987902
-92.29601583 -2.460453697e-05 -224.1689162
52.30910417 55.9504554 0.8971747998
-48.39152583 -2.460453697e-05 -159.6965472
-20.25675583 43.9885584 0.8971747998
-78.64502583 -2.460453697e-05 -57.6827532
-31.74619583 -2.460453697e-05 -9.8182562
9.879944169 -2.460453697e-05 -113.6536812
-98.32239583 -2.460453697e-05 -247.8168192
-102.8005458 36.3587364 -96.5011432
-107.8005458 21.2409424 -121.1967742
46.04750417 -2.460453697e-05 -134.8764222
28.40497417 65.8916864 0.8971747998
97.68090417 -2.460453697e-05 -81.2803932
60.69866417 29.8083374 0.8971747998
-0.2195858306 -2.460453697e-05 -86.4803092
-55.95908583 -2.460453697e-05 -140.9988962
114.1444642 36.1753814 -25.7674382
-33.17194583 63.6385994 0.8971747998
122.8511742 38.9897934 -36.3818002
-82.37911583 35.1288864 0.8971747998
81.48291417 53.1637354 0.8971747998
118.9713642 -2.460453697e-05 -100.6601832
-63.56853583 -2.460453697e-05 -176.4913142
-70.04558583 -2.460453697e-05 -135.0947582
-17.10379583 14.1302124 0.8971747998
70.41203417 5.782793395 0.8971747998
-97.30391583 -2.460453697e-05 -6.4027312
-83.73927583 -2.460453697e-05 -124.1400832
110.6853642 48.1669814 0.8971747998
-21.01045583 -2.460453697e-05 -150.0165302
36.08803417 -2.460453697e-05 -0.2397512002
-39.24258583 -2.460453697e-05 -29.4908142
-118.7347958 -2.460453697e-05 -157.9424852
76.64803417 -2.460453697e-05 -196.3530882
89.42791417 -2.460453697e-05 -148.6613522
-40.11650583 -2.460453697e-05 -141.9829602
50.42686417 -2.460453697e-05 -242.1175242
122.9379842 -2.460453697e-05 -124.6852892
92.96093417 -2.460453697e-05 -164.5070372
-112.4075458 -2.460453697e-05 -112.6381922
-94.74047583 -2.460453697e-05 -125.7543152
-133.1267958 0.4753093955 -24.6203862
-102.8005458 38.1827994 -166.5196782
-102.8005458 39.4884104 -243.7882842
-19.82223583 -2.460453697e-05 -132.2585482
-133.5939158 67.9999754 -16.9043652
117.3453242 -2.460453697e-05 -161.2321562
-107.8005458 35.6009104 -18.5138902
-102.8005458 26.4548064 -136.8543852
-100.1284958 -2.460453697e-05 -97.0378382
-102.8005458 15.1203954 -191.0681952
-43.20959583 -2.460453697e-05 -44.4470232
-61.22924583 -2.460453697e-05 -227.1584192
72.47283417 -2.460453697e-05 -220.1737942
-85.40171583 66.8485074 0.8971747998
-102.8005458 10.8975104 -20.8541812
132.4572842 -2.460453697e-05 -243.9619302
-31.54394583 -2.460453697e-05 -163.4482282
-115.6607758 -2.460453697e-05 -148.5025822
52.06895417 -2.460453697e-05 -222.2785012
-107.8005458 40.4578244 -67.5662812
110.6808142 -2.460453697e-05 -242.3326382
107.0074642 -2.460453697e-05 -106.1739452
-39.32218583 -2.460453697e-05 -82.7007302
126.5071942 7.071809395 0.8971747998
36.05173417 -2.460453697e-05 -25.6321322
-125.1352258 19.0568424 -7.9278592
20.42221417 -2.460453697e-05 -10.1554522
-23.50202583 54.4072934 0.8971747998
53.04820417 -2.460453697e-05 -50.5708952
1.991804169 44.7762514 0.8971747998
-89.34882583 -2.460453697e-05 -104.0601392
-53.55885583 -2.460453697e-05 -82.8777132
-10.56907583 -2.460453697e-05 -111.2849512
-102.8005458 49.6336324 -54.4531522
113.0496842 -2.460453697e-05 -209.3453602
91.95019417 4.641589395 0.8971747998
-107.8005458 28.0696504 -152.2004612
-102.8005458 2.158390395 -156.8115532
-105.4645358 35.2031174 0.8971747998
86.55365417 -2.460453697e-05 -37.5390832
133.2291042 -2.460453697e-05 -145.5348342
-102.8005458 49.6292214 -107.7273912
-119.5991658 57.2231564 -10.8545212
0.7790741694 -2.460453697e-05 -14.1294742
-82.24593583 11.9599814 0.8971747998
17.43255417 -2.460453697e-05 -144.6634052
-107.7090858 49.9999754 -209.7439002
90.82577417 39.6034014 0.8971747998
-5.928385831 -2.460453697e-05 -140.1004782
-102.8005458 20.2527994 -26.5036162
8.700214169 -2.460453697e-05 -73.6509992
62.18902417 -2.460453697e-05 -155.2732102
-124.8271158 -2.460453697e-05 -247.6968482
66.98586417 -2.460453697e-05 -209.8773322
118.8269842 27.6596444 -23.9968132
-107.8005458 9.583995395 -117.6537662
1.736134169 11.5574864 0.8971747998
-10.01086583 -0.7222456045 0.8971747998
133.8667242 -2.460453697e-05 -162.0257972
91.27413417 -2.460453697e-05 -71.2686712
69.40391417 -2.460453697e-05 -100.2368082
-99.50223583 -2.460453697e-05 -192.2615292
51.22506417 67.9999754 2.2552958
101.0699942 -2.460453697e-05 -98.9107462
-51.27788583 -2.460453697e-05 -192.6027042
-123.8441958 45.5036054 -15.1743182
-47.70728583 -2.460453697e-05 -235.2471162
-72.48592583 52.1095724 0.8971747998
64.39940417 -2.460453697e-05 -53.1146882
-26.58866583 -2.460453697e-05 -88.9429302
-92.83801583 26.1760724 0.8971747998
-107.8005458 25.5065244 -111.6840402
-107.8005458 20.1935874 -204.0810242
101.3403142 18.1707014 0.8971747998
134.2303242 43.4725314 -87.5851252
-79.95760583 -2.460453697e-05 -111.8526822
115.1913542 1.827023395 -28.9876912
92.41223417 -2.460453697e-05 -135.2058912
-102.8005458 7.935025395 -142.5236422
124.7851542 -2.460453697e-05 -21.8684222
-111.7012358 -2.460453697e-05 -198.2930422
82.25840417 -2.460453697e-05 -113.6738612
50.76600417 -2.460453697e-05 -191.9714042
53.73661417 -2.460453697e-05 -250.6913712
-107.8005458 14.2983444 -137.8186602
-102.8005458 21.0670424 -156.7415132
-125.5637858 -2.460453697e-05 -238.4118132
-27.97049583 6.606898395 0.8971747998
79.00476417 -2.460453697e-05 -83.9936692
-72.79013583 -2.460453697e-05 -176.4055792
-128.4891458 19.1871414 -19.9010682
60.89755417 -2.460453697e-05 -80.5990362
120.7260642 26.3996604 -46.0236332
-117.4227058 -2.460453697e-05 -168.1669262
-121.7504558 -2.460453697e-05 -23.4417392
68.48150417 -2.460453697e-05 -63.2829772
75.25307417 -2.460453697e-05 -130.5910832
27.11271417 -2.460453697e-05 -42.3785342
-107.8005458 27.5123874 -228.4544782
94.85892417 -2.460453697e-05 -236.5319692
-34.39117583 24.9499944 0.8971747998
112.9225342 10.9913114 -22.0048242
65.27101417 -2.460453697e-05 -128.5263552
-102.8005458 49.4793574 -71.3190702
-41.25811583 -2.460453697e-05 -215.2684222
-12.59765583 -2.460453697e-05 -102.5005892
100.5854442 57.1915094 0.8971747998
-47.09225583 -2.460453697e-05 -34.7875462
-38.58644583 -2.460453697e-05 -52.1576152
100.7300442 -2.494980605 0.8971747998
132.5850642 7.038872395 -82.5207302
-29.28999583 -2.460453697e-05 -184.5466832
127.4443342 -2.460453697e-05 -196.6232282
7.141494169 67.4129714 0.8971747998
-102.8005458 40.2401614 -128.1186312
128.0919542 41.5757994 -68.6931202
-60.90981583 65.6916154 0.8971747998
-121.7998158 -2.460453697e-05 -199.3707652
-102.8005458 31.3991164 -214.9132852
55.12806417 -2.460453697e-05 -162.0842492
-107.8005458 16.5360294 -79.6441242
-83.52743583 -2.460453697e-05 -194.1289092
130.9274642 30.1131624 -77.4201092
-102.8005458 6.180793395 -175.1017052
120.5970242 39.3103154 -45.6262222
-124.7634858 -2.460453697e-05 -137.6833652
-107.8005458 10.7219264 -223.3248272
-118.7335458 2.103355395 -9.9736592
52.88925417 -2.460453697e-05 -73.6729222
105.6003442 -2.460453697e-05 -40.3385582
-132.0689858 -2.460453697e-05 -152.9387882
-102.8005458 49.2267624 -134.0835742
-107.8005458 39.3645514 -47.5906772
-50.94374583 -2.460453697e-05 -171.8349542
-102.8005458 17.4809404 -61.1167132
-102.8005458 42.6397674 -184.3066742
115.9606342 41.1322084 -15.1749602
-123.8036458 -2.460453697e-05 -217.5151062
77.75146417 -2.460453697e-05 -47.2426182
119.9450642 52.7210264 0.8971747998
-102.8005458 36.2638034 -202.2946112
-59.39700583 42.7319924 0.8971747998
89.73882417 -2.460453697e-05 -182.8874122
-72.66957583 19.1367644 0.8971747998
-103.8993958 -0.3202616045 0.8971747998
-107.8005458 28.9865144 -37.1206082
-79.77025583 -2.460453697e-05 -66.4599842
-107.5355158 16.9417054 -0.1028252002
-107.8005458 33.9861934 -61.9048952
-28.85048583 -2.460453697e-05 -66.4259712
-102.8005458 4.675091395 -206.9712382
-107.8005458 28.6121574 -197.8400192
-97.69847583 44.7188204 0.8971747998
-60.96857583 5.336401395 0.8971747998
-107.8005458 6.740632395 -129.9931042
133.4061042 11.2110534 -68.8668612
121.0673942 20.4668604 -30.8921702
-108.5929058 67.9999754 0.2698427998
105.3314742 41.4811334 0.8971747998
-102.8005458 49.2599484 -119.2844392
-24.19715583 -2.460453697e-05 -35.6506152
103.3984842 27.6826104 0.8971747998
-107.8005458 25.1163674 -75.7732572
12.47651417 -2.460453697e-05 -49.4919052
32.48220417 -2.460453697e-05 -91.7511882
46.64383417 -2.460453697e-05 -42.5341352
-107.8005458 37.5665464 -229.3848172
-55.13908583 -2.460453697e-05 -60.7473432
19.37540417 -2.460453697e-05 -89.2030192
-102.8005458 42.7738504 -218.9825122
72.22091417 -2.460453697e-05 -244.6832772
-93.06031583 -0.7176066045 0.8971747998
-90.35045583 -2.460453697e-05 -19.6307552
-107.8005458 39.9918644 -146.7824562
-126.1199658 -2.460453697e-05 -60.8978512
-107.8005458 7.039879395 -39.8027762
87.01903417 59.5598844 0.8971747998
-29.97890583 -2.460453697e-05 -103.6035472
-110.0685958 -2.460453697e-05 -103.7776902
56.17547417 -2.460453697e-05 -87.8369422
-107.8005458 22.3454054 -169.4452772
-114.1988758 -2.460453697e-05 -31.6530682
129.7359342 -2.460453697e-05 -112.7141732
-44.70295583 -2.460453697e-05 -112.5724512
-58.34271583 -2.460453697e-05 -121.8154092
26.34173417 9.934528395 0.8971747998
-25.18926583 -2.460453697e-05 -26.5033912
118.2491242 48.6189784 -38.4001162
-102.8005458 39.0094574 -107.6316812
-107.8005458 37.3450544 -33.8628192
84.45457417 -2.460453697e-05 -77.6073722
108.4531642 -2.460453697e-05 -135.6469872
84.11297417 14.3816714 0.8971747998
-122.7641258 -2.460453697e-05 -117.7737002
-102.8005458 27.7350884 -57.4109262
77.55072417 -2.460453697e-05 -154.6860642
49.09051417 -2.460453697e-05 -58.7137422
-116.1655358 -2.460453697e-05 -55.5688062
-21.95116583 -2.460453697e-05 -50.4754192
130.6633042 -2.460453697e-05 -207.2780562
17.07545417 -2.460453697e-05 -131.2129802
80.54879417 -2.460453697e-05 -222.8746512
73.46839417 -2.460453697e-05 -26.9925292
109.4331242 -2.460453697e-05 -75.9709452
84.08320417 -2.460453697e-05 -210.6251332
-20.38899583 21.7649374 0.8971747998
-132.0694358 50.8774154 -23.5444072
-70.52709583 -2.460453697e-05 -189.0628752
119.8848342 -2.460453697e-05 -147.1983952
73.95780417 -1.700877605 0.8971747998
-101.6791458 -2.460453697e-05 -87.8214882
-130.2042458 -2.460453697e-05 -206.3490772
24.40261417 -2.460453697e-05 -20.6283602
12.09228417 -2.460453697e-05 -121.6044442
114.9094042 -2.460453697e-05 -7.5247112
-47.18707583 67.0663704 0.8971747998
-102.8005458 49.5184694 -242.1973132
-60.46621583 -2.460453697e-05 -34.1191662
134.4321342 23.7325194 -88.2064662
-102.8005458 0.7046303955 -134.7412992
-90.16872583 -2.460453697e-05 -167.3251942
78.28481417 8.041135395 0.8971747998
-107.8005458 19.0288604 -97.7170042
-40.85783583 55.2068004 0.8971747998
-102.8005458 40.2109964 -119.9400702
-98.65652583 -2.460453697e-05 -49.1998612
-107.8005458 43.1877994 -249.0810072
10.90546417 16.2305704 0.8971747998
-102.8005458 11.7713674 -53.2360992
-102.8005458 8.138043395 -95.4981852
-127.6250158 52.4910794 -10.4614932
-76.35936583 -2.460453697e-05 -38.4666332
25.73481417 34.4194804 0.8971747998
-102.8005458 7.447625395 -162.9967962
1.001794169 -2.460453697e-05 -125.2577462
-107.8005458 21.2090054 -247.6512022
122.2977142 -2.460453697e-05 -61.9594072
-88.39359583 -2.460453697e-05 -178.0375072
-105.7127758 -2.460453697e-05 -237.1259952
23.91254417 -2.460453697e-05 -114.6421392
-24.94387583 32.3515164 0.8971747998
7.790474169 -2.460453697e-05 -139.8172852
-66.59187583 -2.460453697e-05 -165.9686252
41.45544417 -1.229431605 -182.1974912
14.62046417 -2.460453697e-05 -34.2332472
-53.59274583 -2.460453697e-05 -14.0921122
56.99071417 21.4438474 0.8971747998
87.19654417 -2.460453697e-05 -103.1986222
109.7302142 -2.460453697e-05 -250.3395222
-107.8005458 5.027724395 -83.1356422
-107.8005458 8.837202395 -251.7266552
-102.8005458 9.093839395 -185.7541632
-75.66661583 -2.460453697e-05 -4.0346102
122.5530942 8.949762395 -35.4654002
-133.4595058 8.034275395 -16.3987322
-102.8005458 17.2164414 -105.1501442
106.9415542 -2.460453697e-05 -158.3149742
-100.6258158 -2.460453697e-05 -228.4375992
110.8830842 -2.460453697e-05 -59.7896622
-26.52326583 -2.460453697e-05 -3.3569152
-66.10048583 -2.460453697e-05 -247.0484012
108.1497442 -2.460453697e-05 -0.6653892002
72.78173417 -2.460453697e-05 -71.0140502
5.961304169 -2.460453697e-05 -98.7063182
45.12005417 40.9335134 0.8971747998
-27.19437583 -2.460453697e-05 -44.5023332
55.95278417 -2.460453697e-05 -203.6985912
-126.0771858 7.590815395 -8.8864072
-115.6751558 31.1354634 -6.8614112
31.41390417 47.8295974 0.8971747998
33.21404417 -2.460453697e-05 -57.3632922
55.00376417 -2.460453697e-05 -16.2230192
-128.4648358 58.5546344 -19.8763282
-102.8005458 21.1958604 -127.2903242
-58.90139583 -2.460453697e-05 -204.9698832
-55.43693583 -2.460453697e-05 -153.9292232
128.2052642 -2.460453697e-05 -49.6484622
33.56142417 13.4267864 0.8971747998
-102.8005458 6.728669395 -111.5155882
-72.64188583 -2.460453697e-05 -88.7084282
56.92328417 -2.460453697e-05 -8.2109372
-41.89289583 -2.460453697e-05 -178.8881902
-71.66389583 -2.460453697e-05 -153.9950402
-102.8005458 24.1042244 -101.4642202
34.04344417 -2.460453697e-05 -46.4867852
-102.8005458 40.8147114 -174.8724982
-107.8005458 44.7776814 -39.7940752
132.9343242 -2.460453697e-05 -65.8824872
-130.0944258 41.3847604 -12.9743892
39.95740417 18.1040994 0.8971747998
123.8368842 36.7975084 -55.5975002
33.89934417 -2.460453697e-05 -105.8282892
-107.8005458 3.484012395 -169.7848772
30.63329417 -2.460453697e-05 -35.2626932
112.8917442 40.4014074 -5.7299422
-66.23767583 -2.460453697e-05 -23.1170792
-107.8005458 21.0669164 -236.8403822
-107.8005458 21.8706204 -42.2225742
122.5708742 -2.460453697e-05 -30.4441812
-115.9232558 18.4252154 1.4463488
-99.63258583 -2.460453697e-05 -26.9801832
66.04246417 -2.460453697e-05 -225.0192132
131.9201442 22.4427244 -80.4753962
98.87721417 -2.460453697e-05 -117.1403562
-107.8005458 3.424950395 -68.8797202
-102.8005458 7.678716395 -245.7130992
59.79170417 -2.460453697e-05 -237.2971462
31.28724417 -0.06921360454 -158.5516272
-39.69111583 -2.460453697e-05 -247.9441802
-82.16599583 -2.460453697e-05 -163.7687032
-70.24680583 -2.460453697e-05 -228.7584122
124.3109742 30.8101334 -40.8747092
-107.8005458 48.4950954 -217.9493042
99.20474417 -2.460453697e-05 -211.7939562
-107.8005458 44.1835174 -201.2012022
95.72236417 -2.460453697e-05 -220.3514392
60.80746417 -2.460453697e-05 -190.3486292
-110.8858858 -2.460453697e-05 -10.2166262
-113.8678658 61.3842774 -5.0222932
128.8954842 49.3918624 -71.1662982
-44.17964583 -2.460453697e-05 -196.7179002
-107.8005458 14.8347664 -198.0194792
-107.8005458 40.3358454 -88.0137272
-102.8005458 16.4612954 -224.4166452
-5.905175831 -2.460453697e-05 -18.2580372
-29.83575583 -2.460453697e-05 -123.5175452
108.3873842 -2.460453697e-05 -195.0443912
-112.9590258 11.6109094 -4.0974442
-102.8005458 35.6551294 -134.8254522
-115.1819658 -2.460453697e-05 -242.4199232
40.55508417 -2.460453697e-05 -88.2097212
-64.52812583 -2.460453697e-05 -10.7292662
73.15002417 38.3018284 0.8971747998
74.70792417 -2.460453697e-05 -189.0757682
37.09021417 -2.460453697e-05 -16.8258212
-9.851215831 -2.460453697e-05 -84.9761302
110.5230542 -2.460453697e-05 -202.2429392
-95.82617583 -2.460453697e-05 -182.2484242
-124.0948858 67.9999754 -7.6870662
112.8526942 42.8354364 -21.7916762
-129.8105058 28.1490814 -21.2456972
84.47871417 -2.460453697e-05 -52.7631692
27.06251417 56.9370914 0.8971747998
-15.89849583 -1.114424605 -156.4267772
-96.97953583 -2.460453697e-05 -206.5609892
7.238664169 -2.460453697e-05 -86.8957102
-111.0090958 -2.460453697e-05 -129.7795622
-12.13830583 -2.460453697e-05 -121.6705492
-5.913895831 47.8737624 0.8971747998
26.71577417 19.3005414 0.8971747998
-134.1690358 -2.460453697e-05 -173.9681772
-102.8005458 14.9365854 -122.8087922
118.8978642 6.171023395 -24.2157942
-87.69672583 -2.460453697e-05 -85.6784822
-107.8005458 23.2459464 -20.7295982
38.14515417 -2.460453697e-05 -117.5410822
45.33995417 -2.460453697e-05 -100.8868312
118.1281242 18.1975924 -38.0282062
45.99017417 -2.460453697e-05 -18.9491172
-67.37331583 33.4508364 0.8971747998
-8.418875831 -2.460453697e-05 -76.7208622
-111.5854158 -2.460453697e-05 -45.2741552
-107.8005458 48.9278094 -85.3100332
-107.8005458 15.0540944 -209.3663442
-104.5286558 49.9999754 -95.5839062
40.70065417 -2.460453697e-05 -146.3698222
-19.19690583 60.8227724 0.8971747998
-107.1576558 -2.460453697e-05 -34.3538842
74.33167417 47.2857574 0.8971747998
8.631674169 60.2555804 0.8971747998
-35.62930583 44.4448294 0.8971747998
61.10399417 -2.460453697e-05 -46.6119022
-95.52840583 19.0560854 0.8971747998
-107.8005458 32.6576114 -77.7182272
-102.8005458 19.5510734 -213.3624942
80.34811417 32.8013904 0.8971747998
51.31440417 -2.460453697e-05 -175.9274422
-102.8005458 4.686369395 -56.2414632
109.2129542 12.1281804 -9.4761012
-9.961695831 -2.460453697e-05 -37.4926242
129.1093542 26.2862134 -55.6426002
-102.8005458 42.3745514 -231.5123392
124.2071242 5.205031395 -56.7358182
113.0569942 30.0869764 -6.2386692
-107.8005458 7.377790395 -199.9047862
128.1961642 49.9407234 -52.8319892
96.28463417 -2.460453697e-05 -53.9482842
-124.6584858 -2.460453697e-05 -164.8832982
120.4095042 12.2309144 -45.0492052
-38.57702583 19.0421944 0.8971747998
-30.73563583 -2.460453697e-05 -115.0482702
-107.8005458 14.3472394 -145.0566812
118.0870742 -2.460453697e-05 -88.4332642
29.99175417 -2.460453697e-05 -76.4048292
-102.8005458 23.3971494 -222.3915972
81.46093417 -2.460453697e-05 -148.6102632
45.80919417 -1.316506605 -211.6037452
-114.2393058 38.7810214 -5.4002692
-107.8005458 49.1144414 -194.4922092
-102.8005458 8.735765395 -79.5694232
13.64627417 36.9337334 0.8971747998
111.6875342 35.5233004 0.8971747998
120.0031142 -2.460453697e-05 -211.0600592
65.24055417 -2.460453697e-05 -118.4425252
-107.8005458 49.5530754 -155.9377602
-53.83604583 -2.460453697e-05 -31.4290262
-99.92055583 53.7658734 0.8971747998
-102.8005458 33.0684934 -178.5652302
-94.78612583 -2.460453697e-05 -64.4177742
-125.9169758 -2.460453697e-05 -130.6451052
-49.93285583 29.5079784 0.8971747998
105.5871242 -2.460453697e-05 -208.6261082
-102.8005458 44.8632874 -63.8367432
128.8575542 27.6945194 -71.0496532
-102.8005458 31.9787894 -192.9153402
60.64106417 5.405727395 0.8971747998
4.281794169 -2.460453697e-05 -7.5657502
19.95655417 24.4884624 0.8971747998
-107.8005458 32.4989494 -43.3007722
73.66517417 -2.460453697e-05 -39.5903032
105.4504442 -2.460453697e-05 -224.5167882
-102.8005458 23.1719774 -174.4231782
-82.09440583 -2.460453697e-05 -142.5149872
41.88054417 57.2617604 0.8971747998
-104.2971858 4.316767395 -14.3840422
73.56540417 -2.460453697e-05 -137.4818662
30.70496417 -2.460453697e-05 -83.9161602
-40.78954583 -2.460453697e-05 -239.1201122
-47.89323583 -2.460453697e-05 -87.1122382
116.4574942 5.479511395 -16.7053362
-65.94636583 -2.460453697e-05 -107.7361722
102.6895542 34.9426074 0.8971747998
-74.02818583 39.5174644 0.8971747998
-57.43544583 56.4940054 0.8971747998
127.6853942 54.4632024 0.8971747998
131.5927042 61.2830194 0.8971747998
66.52639417 25.5754384 0.8971747998
88.45911417 -2.460453697e-05 -129.3937122
123.2567642 1.703257395 -37.6312032
-73.33747583 -2.460453697e-05 -26.9705602
-102.8005458 40.5067714 -18.8081692
34.42616417 -2.460453697e-05 -7.0443092
123.0141842 -2.460453697e-05 -225.4258702
74.66415417 -2.460453697e-05 -166.1485892
-103.1149758 49.9999754 -170.6954232
127.9574642 -2.460453697e-05 -9.0316052
110.2649742 -2.460453697e-05 -123.5766842
52.79058417 38.9645304 0.8971747998
-102.8005458 46.2762634 -23.8830932
127.8700842 17.2916544 -51.8286582
87.27947417 -2.460453697e-05 -196.4352992
-3.686465831 -2.460453697e-05 -42.5905962
-49.17060583 -2.412735605 0.8971747998
-102.8005458 21.6266574 -72.4230392
112.3762542 31.2980554 -20.3255732
-116.1025558 8.227209395 1.2638938
123.0760842 22.9856674 -37.0742012
126.1383942 21.6343994 -46.4990072
-102.8005458 -1.231423605 -175.4972852
-107.8005458 7.757614395 -147.3350072
-115.4818058 -2.460453697e-05 -192.4828942
-107.8005458 38.8178064 -221.6957532
7.477394169 -2.460453697e-05 -66.8376202
121.4929442 -2.460453697e-05 -175.0835432
-104.3161058 -2.460453697e-05 -252.1593192
110.7412242 16.3201914 -15.2937812
5.796444169 2.635302395 0.8971747998
-123.7916658 -2.460453697e-05 -74.0524322
-107.8005458 36.5804834 -214.9089842
12.01744417 -2.460453697e-05 -18.3888682
-102.8005458 27.3910814 -5.4112092
-107.8005458 30.0765344 -142.9906772
-104.3460158 -2.460453697e-05 -128.0619792
111.3808042 24.6392974 -17.2620402
-41.12670583 -2.460453697e-05 -3.7128342
-102.8005458 18.4339414 -51.4620772
132.1427942 28.1403594 -64.9784962
-107.8005458 30.5571974 -49.8901632
118.5753842 16.3790994 -23.2226192
-41.02692583 34.2196284 0.8971747998
48.35465417 4.468703395 0.8971747998
-123.3410258 64.3605064 -14.6622862
-102.8005458 41.7119134 -154.2638692
91.66664417 -2.460453697e-05 -4.1344562
-87.90506583 60.3420234 0.8971747998
-105.2349458 -2.460453697e-05 -113.6350582
92.31575417 -2.460453697e-05 -251.6923042
-80.06203583 -2.460453697e-05 -251.6135352
-41.50153583 -2.460453697e-05 -100.9893022
-107.8005458 31.9427674 -92.2452372
123.9896142 -2.460453697e-05 -131.4376332
45.38199417 -2.460453697e-05 -4.8728062
-49.49476583 -2.460453697e-05 -208.6460032
-83.94625583 -2.460453697e-05 -239.0794952
-102.8005458 31.4805914 -156.4977302
-28.27438583 45.9092084 0.8971747998
132.8513242 -2.460453697e-05 -24.4687232
-5.006885831 -2.460453697e-05 -28.1554582
67.92881417 49.5192974 0.8971747998
-31.84144583 -2.460453697e-05 -230.1947062
-102.8005458 6.242893395 -35.3023932
-107.8005458 31.8342424 -84.9742542
68.56169417 -2.460453697e-05 -2.8953822
-107.8005458 6.378335395 -20.3222472
40.51054417 -2.460453697e-05 -138.7383082
86.96047417 -2.460453697e-05 -220.7680252
99.47823417 -2.460453697e-05 -159.4743612
-75.82146583 -2.460453697e-05 -224.9643622
43.68785417 -0.2080576045 -242.0052302
-112.5772858 -2.460453697e-05 -218.6613502
-107.8005458 8.011329395 -50.7338482
-107.8782858 28.9355894 0.3635637998
-10.85319583 -2.460453697e-05 -64.8117882
-107.8005458 16.8797944 -88.1934122
-117.3005258 8.497571395 -8.5154072
-70.40210583 -2.460453697e-05 -213.1699422
-107.8005458 38.2289174 -73.8929382
130.4996042 4.820014395 -59.9215742
-72.74350583 61.3153194 0.8971747998
-87.72557583 50.6279264 0.8971747998
73.44304417 -2.460453697e-05 -213.5662412
-102.8005458 27.9123574 -88.8288012
-67.03633583 22.6849964 0.8971747998
-102.8005458 24.3296254 -118.0912452
0.5182041694 -2.460453697e-05 -59.0703932
-100.7322858 30.5430514 0.8971747998
16.19073417 -2.460453697e-05 -115.7120992
-84.86385583 -2.460453697e-05 -99.1764212
71.99165417 -2.460453697e-05 -238.0586062
-107.8005458 11.7980614 -165.9493852
-127.0530558 -2.460453697e-05 -225.1992482
-86.68916583 30.1103134 0.8971747998
-107.8005458 47.7651294 -7.3092542
-107.8005458 32.4087464 -207.9630342
-118.4255358 -2.460453697e-05 -61.7821642
-121.1889658 -2.460453697e-05 -35.1142822
-103.8754258 -2.460453697e-05 -7.0957382
36.15556417 -2.460453697e-05 -72.7791542
-107.8005458 27.5822404 -13.8872432
116.3149742 8.757410395 -32.4461572
-71.00535583 -2.460453697e-05 -80.1581572
-55.21096583 -2.460453697e-05 -224.4472342
-2.383055831 22.0659874 0.8971747998
-107.8005458 23.1093854 -160.5355842
-60.86223583 -2.460453697e-05 -145.4157452
116.8019342 37.9849674 -33.9462302
-40.22192583 -2.460453697e-05 -225.9519332
-102.8005458 26.2072224 -30.3543922
-107.8005458 31.2169434 -68.9422002
101.7322742 -2.460453697e-05 -91.5840292
107.7351442 -2.460453697e-05 -25.0287262
-107.8005458 22.0347514 -197.7446072
-102.8005458 36.6864174 -235.4447292
-93.43742583 -2.460453697e-05 -109.1975222
-107.8005458 42.3289394 -167.4742512
-102.8005458 32.9389804 -35.5520612
-107.8005458 21.2676574 -5.8395632
103.5192442 51.3430244 0.8971747998
-11.33717583 28.2542674 0.8971747998
-127.3677258 8.162743395 -18.7598972
-127.5923758 34.9576974 -10.4282772
2.043964169 61.7655764 0.8971747998
-35.30962583 -2.460453697e-05 -67.3722992
-39.58886583 62.4402374 0.8971747998
19.20227417 -2.460453697e-05 -16.5677962
-107.8005458 41.1552034 -6.5909312
-28.41342583 -2.460453697e-05 -169.1651822
-102.8005458 41.8028684 -212.3055562
-85.84776583 -2.460453697e-05 -24.3331312
-24.34736583 -2.460453697e-05 -82.8309002
-116.9158358 47.3061844 -8.1239392
-102.8005458 12.7563974 -65.5706812
109.7534642 -2.460453697e-05 -100.2922722
-79.88554583 5.916789395 0.8971747998
-77.00179583 -2.460453697e-05 -216.2367542
134.3875342 22.8115354 -71.8871372
-28.98025583 -2.460453697e-05 -137.4088242
-107.8005458 38.1428764 -124.5751352
-67.49740583 -2.460453697e-05 -16.4764192
18.45806417 -2.460453697e-05 -3.9992162
125.5508542 22.5739294 -60.8728202
-107.8005458 16.0928714 -39.0525482
-37.15234583 -2.460453697e-05 -125.9999592
123.6431042 -2.460453697e-05 -242.9835012
118.5822542 -2.460453697e-05 -75.4517412
-102.3601058 -2.460453697e-05 -147.1037182
-59.06515583 -2.460453697e-05 -115.1309352
-73.33183583 -2.460453697e-05 -240.5807682
-119.5185558 -2.460453697e-05 -143.3558402
-102.8005458 43.8612024 -190.7836142
-102.8005458 0.3148043955 -243.2162252
-107.1267558 -2.460453697e-05 -215.2560632
116.6014442 -2.460453697e-05 -168.1680722
79.12879417 -2.460453697e-05 -178.3849932
-102.0206158 -2.460453697e-05 -186.3682012
-64.79830583 -2.460453697e-05 -217.4648122
-102.8005458 16.3746524 -31.6018212
-107.8005458 40.9845204 -187.9497062
33.58253417 30.1743804 0.8971747998
-107.8005458 15.6250354 -233.4680172
-50.64114583 -2.460453697e-05 -65.3008912
-43.04437583 -2.460453697e-05 -147.8476582
90.06020417 49.7971334 0.8971747998
-84.16316583 -2.460453697e-05 -130.5136872
-108.8033758 -2.460453697e-05 -136.8935272
96.00024417 25.0709454 0.8971747998
116.5716642 20.4404204 -17.0557852
-68.36009583 -2.460453697e-05 -50.5202352
-123.3830458 -2.460453697e-05 -171.3574712
111.7509142 37.5519544 -18.4008672
-89.05277583 -2.460453697e-05 -138.7539582
-102.8005458 17.9259224 -139.3739752
112.2456442 49.0425834 -19.9233082
-121.6190658 2.868073395 -4.3497732
-107.8005458 32.1386654 -162.1379762
-114.3567358 3.724313395 -5.5197752
-130.9975458 -2.460453697e-05 -81.2893792
-117.2175158 30.0387834 0.1292917998
127.8166642 16.8348124 -67.8463612
-72.90350583 -2.460453697e-05 -67.8797602
-107.8005458 49.8079634 -182.5127722
-102.8005458 3.718910395 -72.7542842
-107.8005458 30.4053484 -222.0902832
42.13664417 3.324222395 0.8971747998
109.6495142 -2.460453697e-05 -170.2397152
122.0382542 -2.460453697e-05 -48.2681722
-90.77798583 -2.460453697e-05 -73.9038592
-107.8005458 31.9600704 -109.2058042
130.9399942 40.9975004 -61.2764952
-128.3383258 -2.460453697e-05 -20.5568712
27.54178417 -2.460453697e-05 -4.8478462
-122.9495758 0.2641383955 -14.2639382
-107.8005458 17.5056934 -130.0197172
112.8737242 16.7540334 -5.6747932
68.59541417 -2.460453697e-05 -167.7317152
-102.8005458 30.0822474 -120.5888062
-129.2338558 -2.460453697e-05 -198.6863762
-129.6696158 -2.460453697e-05 -125.2173152
-107.8005458 25.9832554 -60.7376212
119.2524642 49.9999754 -31.7514352
5.230204169 -2.460453697e-05 -45.0390982
-102.8005458 36.4951294 -114.9237172
25.13477417 -2.460453697e-05 -107.9248512
-92.81277583 -2.460453697e-05 -13.7112482
-60.84279583 -2.460453697e-05 -57.8493772
131.1309842 21.2803894 0.8971747998
19.30538417 -2.460453697e-05 -75.6192542
-88.88049583 -2.460453697e-05 -59.7617732
-127.3287758 52.5499104 -18.7202622
-35.89084583 -2.460453697e-05 -191.9013852
-50.03249583 -2.460453697e-05 -109.3795292
-104.7088458 14.1263884 -4.8624752
-102.4895858 67.9999754 1.4122568
-102.8005458 44.2941734 -81.2035642
121.9262142 44.4251724 -33.5350212
114.3790242 -2.460453697e-05 -93.4485222
79.14988417 -2.460453697e-05 -232.7693222
66.82365417 67.9999754 2.2499958
111.9997642 22.6137324 -2.9849632
-107.9089158 -2.460453697e-05 -154.0490112
-107.8005458 44.0145524 -13.2323292
-22.72797583 38.3211894 0.8971747998
-107.8005458 18.0148724 -178.0141182
-107.8005458 19.3721784 -114.8468662
86.94449417 -2.460453697e-05 -109.6481472
-98.28734583 -2.460453697e-05 -236.5033812
67.62711417 -2.460453697e-05 -231.4461252
-105.4539458 41.3752854 0.8971747998
-102.8005458 8.774462395 -122.5523442
-102.8005458 11.0198074 -227.2850832
-107.8005458 33.8335384 -103.3558932
37.46097417 -2.460453697e-05 -40.6922482
-102.8005458 35.9041384 -14.7570332
-63.61336583 -2.460453697e-05 -28.8607542
-102.8005458 32.7004844 -20.5444382
119.5601042 6.638552395 -42.4341662
-37.49050583 -2.460453697e-05 -113.5898902
-102.8005458 38.7605824 -64.1553432
-107.8005458 43.1492834 -31.4262872
110.3418942 -2.460453697e-05 -182.5335182
-107.8005458 29.5901274 -133.6249502
-130.7485558 -2.460453697e-05 -113.0765992
-116.5600558 -2.460453697e-05 -49.5031762
-107.8005458 8.977191395 -209.4500692
-72.89535583 -2.460453697e-05 -142.8736732
126.3170542 40.7884284 -47.0486032
42.25091417 25.9472114 0.8971747998
-102.8005458 24.0608124 -249.5775802
-102.8005458 7.269463395 -239.6607202
119.8445342 42.6998094 -27.1282912
-107.8005458 42.8968824 -61.0231372
-107.8005458 6.121306395 -215.1066332
123.3095542 46.5375884 -53.9744882
77.13089417 66.4847694 0.8971747998
-102.8005458 32.9683914 -129.3940572
121.5124842 34.5660904 -32.2618002
-122.2812758 -2.460453697e-05 -46.8329552
126.7944942 11.1877424 -48.5185032
-107.8005458 38.2960434 -136.9852402
-107.8005458 36.2938764 -242.3481302
-102.8005458 47.2150334 -3.4195652
-102.8005458 22.4299484 -182.7196522
-1.959175831 -2.460453697e-05 -8.7486082
125.9401842 44.7656194 0.8971747998
-107.8005458 46.3868484 -55.3887832
125.2727042 45.1109954 -60.0164232
53.05690417 -2.460453697e-05 -121.1317372
-107.8005458 42.9258284 -24.0377052
-21.77569583 -2.460453697e-05 -56.4917952
57.42983417 -2.460453697e-05 -0.6259372002
70.16969417 55.0995614 0.8971747998
-107.8005458 5.755803395 -183.4182082
-107.8005458 31.1055864 -188.4519772
-102.8005458 8.710424395 -151.9718132
-107.8005458 44.9700114 -95.4844682
-107.8005458 13.9152934 -215.2580182
114.9457142 46.7094744 -12.0513052
-24.23970583 -2.460453697e-05 -155.0631832
-21.48947583 -2.460453697e-05 -74.7577462
-107.8005458 8.703903395 -172.9923852
-107.8005458 28.0076074 -243.1150232
-102.8005458 43.6222544 -197.9841272
-133.7548258 -2.460453697e-05 -227.9732992
114.7830842 18.4072894 -27.7332662
-107.8005458 -1.648309605 -203.3044162
-132.4856958 61.6651364 -15.4077772
-103.1144758 10.8091234 -10.3734632
37.14887417 -2.460453697e-05 -61.8299922
-102.8005458 39.7956164 -224.9283712
53.06056417 -2.460453697e-05 -236.7915392
97.88259417 -2.460453697e-05 -206.0026872
51.31639417 -2.460453697e-05 -4.6743562
-107.8005458 11.9697644 -91.6218582
-22.94723583 15.1426484 0.8971747998
-134.2081658 -2.460453697e-05 -138.8574572
-107.8005458 10.9232134 -81.8634542
-107.8005458 5.971303395 -229.7251232
20.63803417 8.349926395 0.8971747998
-127.6084358 46.1235644 -10.4446202
-109.0102658 22.8566804 -0.2713672002
-86.10546583 -2.460453697e-05 -146.8550262
-102.8005458 22.2365404 -39.0976932
109.1166342 -2.460453697e-05 -163.8071842
-107.8005458 6.598426395 -74.0059962
-116.0827858 -2.460453697e-05 -73.6600052
19.26533417 -2.460453697e-05 -98.5817682
-63.02524583 29.4716834 0.8971747998
-37.32895583 -2.460453697e-05 -44.1330232
-107.8005458 41.7173244 -159.1840502
-102.8005458 35.2113164 -123.4586332
-102.8005458 34.4877294 -229.5453372
96.96079417 -2.460453697e-05 -242.0162132
-71.08706583 -2.460453697e-05 -169.7476282
128.4714842 7.838941395 -53.6803402
-85.09000583 -2.460453697e-05 -200.1934722
-102.8005458 21.7970704 -194.6856022
-105.3788858 -2.460453697e-05 -100.2550572
-11.18168583 -2.460453697e-05 -4.8042432
-87.58286583 14.3901174 0.8971747998
-0.6933658306 -2.460453697e-05 -32.1273352
130.0081142 39.8900084 -74.5904562
108.9552242 38.9237314 -9.7965992
80.99507417 -2.460453697e-05 -103.5542902
-103.9078158 12.4702724 0.8971747998
22.71537417 -1.329436605 -148.5767782
-102.8005458 44.5284434 -123.8756082
68.28720417 -2.460453697e-05 -12.8727492
-81.40763583 -2.460453697e-05 -28.9070302
-33.00022583 56.9396424 0.8971747998
-64.25663583 -2.460453697e-05 -202.6539692
35.93602417 -2.460453697e-05 -51.9972272
126.5428042 28.4543924 -47.7435502
53.84044417 -2.460453697e-05 -141.0643812
-107.8005458 18.3130724 -23.7956272
111.2518242 -2.460453697e-05 -224.4146722
-107.8005458 49.6599984 -140.3523852
-107.8005458 19.9688834 -135.2541922
-102.8005458 9.641629395 -192.9158512
-67.41961583 66.0278164 0.8971747998
-107.8005458 9.877068395 -65.3897162
-107.8005458 13.0787174 -159.9542312
129.5203842 19.4629024 -56.9077072
-102.8005458 42.5338754 -36.0441332
