# .PCD v0.7 - Point Cloud Data file format
VERSION 0.7
FIELDS x y z
SIZE 4 4 4
TYPE F F F
COUNT 1 1 1
WIDTH 1219
HEIGHT 1
VIEWPOINT 0 0 0 1 0 0 0
POINTS 1219
DATA ascii
94.28951565 -49.1481516 -129.8081323
354.2220957 -68.0000246 -133.7343573
159.1899757 0.06079339592 -129.8081323
-460.4915343 -152.9268106 -145.8081323
-37.72932435 -120.7933236 -135.8081323
-414.1183043 -26.7777866 -135.8081323
-373.0549843 -24.4233056 -26.08655634
277.6239657 -6.804225604 -135.8081323
-396.9571343 -47.4996096 -27.75795734
252.6256557 -2.460408291e-05 -114.6581093
259.8700457 -53.7795596 -129.8081323
171.6869357 -12.0351326 12.00550266
479.6224757 -12.8402856 2.349673665
-174.8156643 -2.460408291e-05 -95.90951534
-289.3263343 -2.460408291e-05 -102.3165653
426.5860757 -54.8189856 29.82978366
219.9458057 -35.0897646 15.38009166
-467.8860743 -2.460408291e-05 -42.38610834
232.7608857 -2.460408291e-05 -30.61670134
199.8562557 -67.0970816 13.97529366
76.85538565 -2.460408291e-05 -11.86146034
-443.5191843 -11.6866036 -129.8081323
-286.9242943 2.407780396 -129.8081323
324.9461857 -2.460408291e-05 -113.5521323
328.8640557 -2.460408291e-05 7.066982665
275.6763257 -65.3518346 19.27714866
429.5494257 -9.067962604 30.03700166
246.4975657 2.332527396 -135.8081323
472.2349157 -33.8948076 5.144673665
-24.07573435 -2.460408291e-05 -33.14805234
485.7504557 -65.3819736 -129.8081323
320.3857957 -2.460408291e-05 -96.58778134
-468.7981043 -123.2060386 -135.8081323
-344.0247943 -25.1969016 -24.05656834
-400.8388743 -68.0000246 -134.7172783
-170.9991943 -2.460408291e-05 -125.0513173
289.6579057 -2.460408291e-05 8.453842665
112.6643057 -48.7302766 7.878238665
-62.36866435 -18.0702946 -135.8081323
37.89989565 -23.4029966 -129.8081323
465.9659257 -2.460408291e-05 19.26334466
460.8454057 -2.460408291e-05 -96.55274834
197.7618257 2.206014396 13.82882666
55.18210565 -68.0000246 5.309796665
211.3295057 -11.0465306 -135.8081323
407.5960357 -49.9538746 -129.8081323
141.8246857 -34.7296226 9.917331665
399.1641357 -62.3846666 27.91225566
-18.37865435 -2.460408291e-05 -112.0089813
412.0031057 -2.460408291e-05 -25.86866834
386.1175057 1.584029396 -135.8081323
215.8511257 -51.4436516 15.09376366
118.3482657 -2.460408291e-05 -4.695306335
-467.6562843 -87.9878306 -145.8081323
384.3748857 -2.460408291e-05 -89.15143934
-287.8436143 -31.0883446 -20.12799834
-331.5410943 -67.5213506 -129.8081323
96.56704565 -11.3373716 -135.8081323
-188.0929743 -34.3920146 -135.8081323
-416.7172743 -2.460408291e-05 -63.32487834
-9.786474348 1.889610396 -135.8081323
-103.8776343 -41.4239976 -135.8081323
-374.2888743 -2.460408291e-05 -61.59240134
280.7385057 -52.6750136 -129.8081323
-19.79713435 -65.8086626 -129.8081323
314.1862557 -2.460408291e-05 -52.67464334
-77.36302435 -3.385035604 -135.8081323
140.1269857 -2.460408291e-05 -109.6571453
-407.9196043 -46.0460676 -129.8081323
-247.4742443 -2.460408291e-05 -126.1081973
-67.68885435 -18.1874026 -4.733280335
-45.97440435 -52.9619056 -135.8081323
-36.18759435 -16.1906736 -2.530498335
-386.7613643 -10.7096256 -27.04500034
161.0140557 -53.6227636 -135.8081323
25.43038565 -2.460408291e-05 -115.4578863
145.7201157 -66.8442166 -129.8081323
-262.2394343 -2.460408291e-05 -87.06045734
-288.8384843 -28.9491576 -135.8081323
279.7443857 -2.460408291e-05 -94.76014134
-470.1182043 -54.4286276 -32.87387734
-434.5965043 -92.4584296 -135.8081323
186.2483957 -2.460408291e-05 -89.06437734
472.1169757 -126.1160726 -141.9345573
184.1210157 -68.0000246 -134.7028433
189.5764257 -2.460408291e-05 -57.16461634
468.8115557 -42.0121556 -129.8081323
-423.8063943 1.547191396 -135.8081323
125.7652257 -2.460408291e-05 -88.56771734
328.4771157 -2.460408291e-05 -25.57267834
-196.9031543 -2.460408291e-05 -68.65252834
472.1169757 -69.6910576 -141.9425593
210.1324557 -2.460408291e-05 -83.74272934
-470.3119843 -53.8604466 -145.8081323
147.6891757 -9.207659604 -135.8081323
46.49494565 -2.460408291e-05 -62.25135834
223.8548857 0.7162593959 -129.8081323
-469.0263343 -2.460408291e-05 -78.21654834
-341.0813743 -12.8684936 -129.8081323
332.4880057 -13.0779776 -135.8081323
81.13362565 -2.460408291e-05 -40.26694834
-364.3120443 -2.460408291e-05 -41.33005534
-70.00380435 -2.460408291e-05 -21.55612534
-447.8921843 -51.4289906 -145.8081323
-85.61599435 -54.3159146 -135.8081323
-460.4320143 -106.3619596 -135.8081323
-443.7815743 -5.929180604 -145.8081323
-318.5673643 -2.460408291e-05 -60.57549134
214.7234657 -2.460408291e-05 -46.15162434
-302.8043343 -66.6944766 -21.17415334
272.2326157 -22.1147546 19.03634066
-258.7003443 -33.0352756 -18.09010234
-197.4999443 -16.5601516 -129.8081323
486.4538857 -2.460408291e-05 -82.51180734
-9.755604348 -2.460408291e-05 -62.90104234
-360.2036543 -58.8801326 -129.8081323
71.65788565 -68.0000246 -135.6624523
-84.06602435 -13.2804586 -5.878483335
-208.4133743 -2.460408291e-05 -122.2907313
119.6427757 -2.460408291e-05 -65.42749034
297.1871257 -2.460408291e-05 -40.60076234
81.00174565 -2.460408291e-05 3.536310665
131.7416057 2.203982396 -135.8081323
-32.77697435 -2.460408291e-05 -20.27108834
-472.2339543 -143.7955546 -135.8081323
357.1401657 -2.460408291e-05 -36.96100634
170.8687357 -2.460408291e-05 1.698267665
-11.76269435 0.7053593959 -0.8225433351
-9.535514348 -44.6741506 -0.6668033351
-439.7549543 -2.460408291e-05 -83.62241934
26.35980565 -2.460408291e-05 -28.02626534
29.92825565 -2.460408291e-05 -83.96848334
351.9108757 -2.460408291e-05 -99.46876834
233.4105557 -2.460408291e-05 -95.40775034
-2.876254348 -83.3272446 -145.8081323
-447.0054343 -2.460408291e-05 -120.5784323
390.2510357 -66.3822976 -135.8081323
408.6222457 -13.0391706 28.57363166
441.6058357 -25.0246176 30.88006766
-461.2338843 -62.5710996 -129.8081323
-126.0122243 -2.460408291e-05 -47.74767634
414.6338957 -45.6236956 28.99400666
315.2323057 -57.3586826 -135.8081323
-291.9127343 -2.460408291e-05 -64.54264034
-244.4290743 -51.5486876 -135.8081323
230.6242557 -12.1722066 16.12680066
-383.6429943 -17.8827016 -135.8081323
291.1707957 -68.0000246 21.05912766
-232.2818143 -2.460408291e-05 -97.65728834
297.7335857 -54.8038866 -135.8081323
-265.4847843 -66.2546116 -129.8081323
-392.6155943 -2.460408291e-05 -81.92371934
472.1169757 -159.8835676 -136.4448043
-50.71094435 -2.460408291e-05 -116.2000023
399.6919257 -2.460408291e-05 -115.3196373
-11.37603435 -121.8380636 -145.8081323
170.3868357 -2.460408291e-05 -34.31776834
-150.1742943 -2.460408291e-05 -111.2757243
-41.11061435 -2.460408291e-05 -95.00022334
-244.1807843 -20.9806406 -129.8081323
114.8787957 -18.2801976 -135.8081323
178.3040257 1.629268396 -135.8081323
296.3649857 -27.5607076 -135.8081323
-464.4576843 -11.3850006 -32.47805534
314.4748357 -2.460408291e-05 9.445103665
96.87280565 -2.460408291e-05 -126.6840523
469.0732357 -2.460408291e-05 -62.39851634
238.6536257 -63.2488806 -129.8081323
-439.3839943 -4.623865604 -30.72473234
-7.159424348 -20.9547426 -145.8081323
-97.14501435 -2.460408291e-05 -58.28953734
-94.40350435 -28.1088966 -135.8081323
406.1341757 -2.460408291e-05 -87.55664534
215.2854657 -2.460408291e-05 -7.839908335
-469.2589743 -30.2231706 -135.8081323
272.0642257 -51.3265866 19.02456566
202.4651057 -55.0683646 -129.8081323
-183.5131843 -54.7792276 -135.8081323
-91.23561435 -2.460408291e-05 -13.40875534
234.3941157 -2.460408291e-05 -71.65879034
182.9578957 -2.460408291e-05 -107.3929423
197.5051157 -28.6178276 -135.8081323
-48.83311435 -9.322724604 -3.414758335
481.5471757 -2.460408291e-05 -42.03422434
-26.30375435 -46.1393646 -1.839352335
461.8868857 -2.460408291e-05 33.66705666
-440.3893543 -21.7997206 -145.8081323
-38.44711435 -63.6182026 -129.8081323
-279.5670443 -48.5750406 -129.8081323
-369.2971843 -10.1978896 -135.8081323
-10.77473435 -50.4496676 -135.8081323
269.3110857 -2.460408291e-05 -120.6725213
475.5820257 -98.8030916 -135.8081323
-358.9480643 -2.460408291e-05 -25.71284934
4.332515652 -128.8324826 -135.8081323
-440.7789443 -106.2207996 -145.8081323
472.5868457 -2.460408291e-05 -104.6967043
139.4837057 -2.460408291e-05 -16.84808334
-394.6692343 -33.4071126 -27.59797234
-453.3503543 -138.6777806 -135.8081323
-426.8468843 -26.6616736 -145.8081323
349.4719557 -2.460408291e-05 -67.05475334
365.1266257 1.834931396 25.53212166
-134.2450543 -31.6414526 -9.387342335
252.1353057 -30.4149786 17.63099966
39.82254565 -2.460408291e-05 -97.65556634
-416.7873043 -12.2515946 -29.14461734
1.197555652 -11.6048096 -129.8081323
69.86619565 -30.3821246 -129.8081323
-2.297844348 -147.2982466 -145.8081323
-381.4428343 -55.0727926 -135.8081323
12.11697565 -36.5099846 -138.9096343
-87.41190435 -2.460408291e-05 -41.86508434
-153.5485643 -2.460408291e-05 -21.18616434
-454.2788543 -2.460408291e-05 -93.09023334
-137.0559743 -65.5637946 -9.583901335
44.56307565 -12.0283486 -135.8081323
113.0093857 -38.2078046 -135.8081323
469.4180257 -36.7659196 20.02357366
9.557615652 -78.6204636 -135.8081323
-317.0557943 -32.2474866 -22.17071234
191.8647357 -34.8415266 13.41647166
-407.7141843 -2.460408291e-05 -41.64336834
487.2511157 -110.1243086 -135.8081323
56.87012565 -2.460408291e-05 -121.1364853
436.1888257 -2.460408291e-05 19.43806466
-9.777614348 -21.9983176 -0.6837323351
317.5768957 -32.0230096 22.20712166
42.10577565 -58.8550996 2.944306665
-306.0021843 -41.8301156 -21.39776834
-291.7289743 -2.460408291e-05 -27.92801134
156.4080857 -2.460408291e-05 -98.02243234
-427.1171243 -147.2307996 -135.8081323
275.4244657 -2.460408291e-05 -31.20174534
-124.5362543 -3.895020604 -8.708436335
430.8680257 -2.460408291e-05 -97.71660934
248.7720857 -2.460408291e-05 -36.01902734
17.07453565 -2.460408291e-05 -58.78833434
-434.1392243 -47.9527726 -135.8081323
243.7606257 -2.460408291e-05 -56.56561734
-118.6825943 -2.460408291e-05 -75.56996934
15.45084565 -31.0819886 1.080412665
291.7542957 -2.460408291e-05 -73.87210334
376.8999657 -40.1659586 -129.8081323
295.9464457 -14.6548716 20.69457266
-265.5461643 -12.7226576 -18.56880834
-311.9055743 -2.460408291e-05 -37.79939934
-431.3231643 -68.0000246 -130.2413263
482.2892057 -39.5779966 -12.27021734
83.79797565 -2.460408291e-05 -109.2138753
-91.78745435 -2.460408291e-05 -95.09938234
190.5463757 -0.7300836041 -129.8081323
103.2539257 -67.3276966 7.220201665
-374.4808843 -2.460408291e-05 -123.1908103
17.37772565 -2.460408291e-05 -38.49661534
-455.2708943 -28.5792606 -145.8081323
482.4929457 -136.7364486 -145.8081323
15.59523565 -2.460408291e-05 -88.83048234
-221.7014643 -56.2617536 -15.50288934
-239.0775943 -56.3496396 -16.71794634
-359.9520243 -30.8078386 -129.8081323
-27.97932435 -10.5360886 -135.8081323
449.4890357 -20.4621406 -129.8081323
-256.1752843 -33.0551726 -135.8081323
-48.13228435 -37.0199936 -3.365751335
-86.27555435 -2.460408291e-05 -120.5815583
-450.8969743 -12.9144166 -31.52979734
71.64669565 -59.0472896 5.010008665
477.4333457 0.4995493959 -129.8081323
403.2043357 -32.5512486 28.19477366
-201.7599643 -2.460408291e-05 -53.25208734
356.3612157 -41.3962826 24.91918466
-136.7579743 1.403983396 -135.8081323
315.5631757 -10.0005556 22.06630866
386.3489857 -45.2556826 27.01613366
-456.8674943 -79.7109746 -145.8081323
65.12164565 -55.1667606 -135.8081323
-297.6027743 -13.8485136 -20.81042534
-37.88302435 -5.113653604 -143.5931863
-343.3670343 -2.460408291e-05 -57.86855334
63.30595565 -19.6854406 4.426767665
-219.9681843 -2.460408291e-05 -91.95287134
-184.6139043 -48.3748726 -12.90947434
298.8526557 -14.2322006 -135.8081323
65.78904565 -2.460408291e-05 -41.73904434
-343.4741443 -56.7329376 -24.01806334
127.9803457 1.268097396 8.949240665
-412.2334943 -2.460408291e-05 -120.2984953
370.4177057 -35.3742816 25.90210966
264.6183457 -64.9248486 -135.8081323
489.9408357 -33.4046346 -145.8081323
-79.68101435 -29.6931876 -135.8081323
254.3410957 -2.460408291e-05 3.647073665
-455.3843043 -38.6449506 -129.8081323
-327.8907743 -29.6702576 -135.8081323
99.40991565 -60.0702196 -135.8081323
166.4159457 -57.5770486 11.63691966
2.249455652 -106.7011826 -145.8081323
189.0992857 -2.460408291e-05 -5.144846335
-331.7906943 -2.460408291e-05 -31.77348634
-150.8863543 -11.0709426 -129.8081323
-425.2277043 -88.6950956 -145.8081323
-275.0155943 -0.1562706041 -135.8081323
-6.620294348 -30.7980126 -135.8081323
375.8979357 -26.8280606 -129.8081323
-292.8415043 -2.460408291e-05 -89.41441634
393.6716857 -12.5657226 27.52818666
468.2406857 -2.460408291e-05 -12.48325334
-74.48125435 -43.0475016 -135.8081323
0.1389156519 -2.460408291e-05 -10.03182834
-235.4995543 -68.0000246 -133.2704973
-23.16591435 -67.2851436 -145.8081323
96.26595565 -18.4837566 6.731555665
99.69703565 -38.4257656 -135.8081323
-418.2272443 -40.1348246 -135.8081323
-58.31051435 -2.460408291e-05 -89.28413934
151.9659157 -68.0000246 12.78645766
-310.8251643 -12.7715706 -21.73502434
378.4723957 -2.460408291e-05 20.12024266
-202.6298443 -2.460408291e-05 -24.36029434
-47.54299435 -2.460408291e-05 -67.21728934
-167.7281143 -63.8379586 -11.72870534
-429.2373843 -11.0608876 -129.8081323
482.3331857 -14.7249796 -12.34541534
-102.0216243 -2.460408291e-05 -21.09001734
-102.2576243 -12.3603036 -135.8081323
291.0171257 -2.460408291e-05 -13.77495034
-333.4734443 -47.4723636 -23.31874634
362.5606357 -2.460408291e-05 -68.91728534
-93.70064435 -35.8774716 -6.552201335
16.09688565 -63.2918966 -129.8081323
450.9252857 -2.460408291e-05 18.55359666
195.1103757 -2.460408291e-05 -70.70121334
291.3183657 -65.1203246 -129.8081323
-473.5143843 -2.460408291e-05 -113.0226603
-150.9264343 -58.5472716 -129.8081323
177.3930057 -39.2692436 -135.8081323
241.8312257 -2.460408291e-05 -2.794981335
312.1966457 -2.460408291e-05 -9.625486335
266.4418557 -2.460408291e-05 -83.35206034
-389.2603743 2.229442396 -27.21980134
202.7072357 -2.460408291e-05 -40.77018334
-163.4771343 -34.3864276 -11.43144834
-278.8638243 -2.460408291e-05 -35.43605534
429.9893457 -2.460408291e-05 -111.5057073
282.0657457 -2.460408291e-05 -63.10596034
-168.1716543 -2.460408291e-05 -42.98729334
-30.80161435 -36.4853026 -135.8081323
487.4221457 -50.0365566 -129.8081323
-432.5567543 0.8399733959 -145.8081323
356.8050057 -2.460408291e-05 -4.584589335
-469.0780543 -21.7628056 -145.8081323
-52.42465435 -29.2501726 -129.8081323
-22.19468435 -17.0802126 -145.8081323
-388.9731643 -63.8964606 -129.8081323
224.0092857 -16.6980766 -135.8081323
36.82698565 -21.6679156 2.575177665
-34.90378435 -60.4883196 -145.8081323
-182.8883443 -2.460408291e-05 -80.30808634
228.1110457 -47.1862816 15.95106066
-436.9504843 -154.9406046 -145.8081323
18.23119565 -65.2715996 1.274834665
72.63155565 1.879541396 -129.8081323
-442.4636243 -60.5013396 -30.94008134
-49.40023435 -2.460408291e-05 -23.85435834
2.838385652 -55.2988316 0.1984636649
353.6775457 -56.0582106 24.73152366
93.65253565 -2.460408291e-05 -84.98462434
-442.9893243 -2.460408291e-05 -68.43505934
415.5033057 -2.460408291e-05 14.96852866
31.38188565 -2.460408291e-05 -61.44994034
-271.9904243 -2.460408291e-05 -78.56111534
-413.4509843 -65.3593876 -135.8081323
-113.1488843 -53.0820686 -7.912154335
380.6180757 -2.460408291e-05 -44.06952034
-303.0486843 0.3118123959 -129.8081323
-233.2495943 -29.7277296 -16.31041334
1.941125652 -32.5474106 -145.8081323
312.5041657 -10.3508286 -135.8081323
-10.07794435 -68.0000246 -0.0333523351
-82.80939435 -68.0000246 -5.223499335
44.60207565 -68.0000246 -135.0368053
-119.5648643 -13.7475746 -129.8081323
13.87751565 -2.460408291e-05 -106.7176613
339.4859157 -2.460408291e-05 -11.74705934
316.8395357 -32.3175136 -135.8081323
-107.3487143 0.2500443959 -135.8081323
-29.59013435 -2.460408291e-05 -86.26689534
168.9582557 -2.460408291e-05 -65.73801234
-440.0947643 -120.3555416 -145.8081323
338.1029857 -2.460408291e-05 18.44413966
412.2019057 -2.460408291e-05 -123.8409553
153.1714357 -24.9231436 -135.8081323
-223.1034043 -2.460408291e-05 -67.12756534
140.9759357 -3.374970604 9.857980665
379.2146757 -2.460408291e-05 -105.0987363
472.9571257 -65.2441666 -129.8081323
472.9411157 -2.460408291e-05 1.517760665
379.1115457 -60.5991586 -129.8081323
417.6822557 -41.5181036 -135.8081323
-416.5696743 -14.2510076 -135.8081323
-459.4692243 -8.012678604 -129.8081323
197.2019657 -2.460408291e-05 -112.3042693
147.6114657 -39.9530126 -135.8081323
-302.3357643 -57.0479656 -135.8081323
-233.7618643 -2.460408291e-05 -55.92089634
-21.00898435 -156.6400446 -135.8081323
-386.2848643 -2.460408291e-05 -68.74301834
254.3659157 -42.1473926 -129.8081323
-263.4625743 -2.460408291e-05 -104.2308213
-327.0879543 0.9934243959 -135.8081323
-148.2280543 -23.5489996 -129.8081323
-432.9756043 -31.0448436 -30.27661334
109.0266157 2.022493396 7.623867665
-373.8090643 -35.1848366 -135.8081323
149.3482457 -14.9448446 10.44342966
-169.3470443 -13.7442066 -135.8081323
-19.16880435 -140.5215516 -135.8081323
25.34547565 -39.8976216 -135.8081323
-177.1412243 -2.259769604 -135.8081323
-113.7550243 -66.9740146 -129.8081323
149.5100857 -2.460408291e-05 -78.90177834
-344.8472243 -2.460408291e-05 -75.25919634
425.7065057 -36.3505816 29.76827866
-8.077624348 -2.460408291e-05 -34.23791934
-123.4264643 -2.460408291e-05 -96.51387834
337.0571457 2.393359396 -135.8081323
-448.9095043 -46.0918436 -31.39082034
-98.47616435 -2.460408291e-05 -123.4564593
462.3655857 -14.8400176 22.23973566
451.8678157 -50.1307106 31.59765566
-456.3877643 -2.460408291e-05 -47.30135534
28.13683565 -55.8371986 1.967503665
-331.9312943 -2.460408291e-05 -119.5537873
375.1149957 1.704184396 -129.8081323
-332.4938943 -20.5007096 -23.25024934
-319.4774543 -39.7276896 -129.8081323
448.6042357 -14.2660586 31.36944366
-472.6509543 -60.9362756 -135.8081323
-317.9806443 -51.4213696 -135.8081323
-365.4721843 -68.0000246 -25.14130634
-331.2314043 -2.460408291e-05 -95.04523034
-262.1618143 -2.460408291e-05 -54.23877334
472.1169757 -44.4163556 -142.6137743
-219.9247443 -59.3502136 -129.8081323
230.4400257 -28.4703496 16.11391866
-140.0230843 -2.460408291e-05 -21.91693734
-37.88302435 -88.2277966 -144.2603863
-55.66402435 -48.0538666 -129.8081323
311.1685357 -2.460408291e-05 -40.35558234
54.71253565 -30.8725476 -135.8081323
-436.2312443 -2.460408291e-05 -42.19833734
360.2298357 -12.8876096 25.18970466
352.4152257 0.2779183959 -129.8081323
127.3556857 -24.7518906 8.905560665
-10.49722435 -104.4194986 -135.8081323
172.7248157 -14.4449696 -129.8081323
-397.1389643 2.199500396 -135.8081323
129.6723057 -60.0727426 9.067554665
-422.8830243 -113.1911076 -145.3964013
24.56411565 0.7305843959 -135.8081323
-115.0232543 -11.6610016 -8.043223335
-230.8237643 1.397163396 -135.8081323
271.6879557 -18.5453126 -135.8081323
-453.6359543 -131.2776536 -145.8081323
-267.1076143 -41.9660776 -18.67799634
-22.86048435 -85.4977526 -145.8081323
247.1027157 -3.653228604 17.27908766
-231.6737243 -43.7764496 -135.8081323
-51.49856435 -2.460408291e-05 -39.12294734
363.5073257 -2.460408291e-05 -107.9196163
55.68377565 -2.460408291e-05 -27.89636334
453.5379657 -2.460408291e-05 -75.82822434
-434.6087943 -2.460408291e-05 -111.2286453
-106.9722743 -2.460408291e-05 -49.34928934
428.3107957 -68.0000246 30.59212066
-233.5683543 -2.460408291e-05 -85.53128534
-469.0013343 -97.6929166 -135.8081323
-244.8665543 -2.460408291e-05 -102.8271623
393.4255357 -8.974952604 -129.8081323
-70.65177435 -2.460408291e-05 -62.84295634
-446.6730543 -109.9117786 -135.8081323
-229.1844943 -13.8965876 -129.8081323
241.8498457 -16.7887116 16.91177066
353.1135257 -23.9693296 -135.8081323
-312.9808343 -2.460408291e-05 -116.7161343
324.5973957 -22.3084406 -135.8081323
-457.5573843 -52.6756556 -135.8081323
427.5271857 -8.507876604 -135.8081323
12.11697565 -1.737571604 -141.7367173
472.1193557 -16.0567356 -145.8081323
3.939505652 -53.7924686 -135.8081323
-181.0114543 -26.5992416 -129.8081323
279.6062257 -41.1745066 -135.8081323
-331.7823843 -57.0104096 -135.8081323
-96.11445435 -54.0884716 -129.8081323
244.8606357 -2.460408291e-05 -123.9175043
190.0638857 -53.5982606 -135.8081323
92.29298565 -20.8986376 -129.8081323
-356.7297443 -2.460408291e-05 -103.6541423
262.4977057 -58.6480416 18.35560966
-18.68055435 -2.460408291e-05 -124.0334553
340.8663957 -68.0000246 -130.8056833
-138.7458543 -2.460408291e-05 -44.65034734
-374.8528543 -12.2253186 -26.21227534
114.0682357 -7.904611604 -129.8081323
-219.6476743 -2.460408291e-05 -43.10928234
15.09636565 -6.554448604 1.055624665
-188.6788143 -2.460408291e-05 -97.53150434
477.8486157 -27.6567596 -129.8081323
-430.6011043 -159.4944586 -135.8081323
382.8946957 -2.460408291e-05 -21.88372434
-217.4281143 -10.1433086 -15.20406734
232.8228257 -41.8727206 -129.8081323
-39.71291435 -28.5431416 -2.777012335
-115.1971843 -66.0120616 -8.055386335
-32.99314435 -113.3444666 -145.8081323
-351.5547743 -2.460408291e-05 -35.99259934
163.9446257 -34.5214916 11.46410766
449.0488157 -2.460408291e-05 -88.85157334
282.1794457 2.454177396 -129.8081323
-407.0568543 -18.2183236 -129.8081323
-218.4661543 -2.460408291e-05 -115.3292933
171.0418557 -2.460408291e-05 -106.9982883
11.48423565 -14.7459986 -135.8081323
478.6153757 -149.2047496 -145.8081323
-319.6096443 0.3764833959 -22.34934434
439.4188657 -2.460408291e-05 2.001155665
-171.7292043 -2.460408291e-05 -17.10293634
-156.5470743 -47.6723876 -10.94685134
-475.7610743 -43.9699996 -33.26846534
4.873615652 -20.8299086 0.3407816649
424.2696557 -2.460408291e-05 -55.56634634
452.4040957 -58.7864576 -129.8081323
-445.1652443 -39.1528686 -135.8081323
219.4372657 -2.460408291e-05 -115.3340743
-90.19977435 -17.0238336 -135.8081323
-455.0002343 -92.4224546 -145.8081323
210.5854457 -63.6925446 -129.8081323
55.32516565 -8.207246604 -129.8081323
301.4754557 0.8738073959 -135.8081323
-37.84664435 -7.907454604 -129.8081323
2.408775652 1.872332396 -135.8081323
6.589885652 -2.460408291e-05 -65.30110634
76.27360565 -2.460408291e-05 -69.35999234
458.8047257 -2.460408291e-05 -35.16175134
354.5806557 -42.8101606 -135.8081323
-366.3673843 -41.7093866 -25.61891434
-195.2094443 -47.2046026 -129.8081323
-422.8830243 -68.9290106 -145.7207613
489.3535257 -156.5394936 -135.8081323
-176.8935343 -2.460408291e-05 -58.54977634
403.2534457 -2.460408291e-05 -50.93165734
207.9009557 -29.0081546 14.53783366
-33.92386435 -125.7077186 -145.8081323
-8.873394348 -72.4029736 -145.8081323
70.29523565 -8.112526604 4.915505665
-1.448604348 -158.1912096 -135.8081323
263.5728657 -2.460408291e-05 -34.67650334
273.5733257 1.955329396 19.13009266
-433.3753543 -2.460408291e-05 -60.68670134
-469.2883843 -66.1142916 -145.8081323
304.5831057 -35.9602896 -135.8081323
376.2073857 -23.3541086 26.30696366
-424.1622143 -38.7462656 -29.66032234
-404.3384143 -2.460408291e-05 -111.0454353
-252.2713643 -2.460408291e-05 -80.90600134
425.2703457 -2.460408291e-05 -12.08863534
53.36944565 -56.6254566 -135.8081323
-449.1916343 -160.0000246 -144.3938673
152.5769257 -2.460408291e-05 -2.182776335
478.6694357 -2.460408291e-05 -55.72490734
243.4698657 -2.460408291e-05 -107.3958653
265.5140457 -2.460408291e-05 7.061974665
-461.2036543 -21.7637216 -135.8081323
325.1355957 -41.4769006 -129.8081323
-250.9214943 -5.512933604 -135.8081323
199.8982157 -18.3065966 -129.8081323
486.7056957 -59.2840046 -145.8081323
-133.1301143 -50.7478536 -9.309378335
28.00403565 -57.3612066 -135.8081323
-34.20336435 -147.9765426 -145.8081323
472.6618857 -45.5164056 4.404717665
466.2826157 2.455484396 -135.8081323
-23.79431435 -47.2563356 -145.8081323
-12.72074435 -137.2372326 -145.8081323
345.3921757 -2.460408291e-05 -89.82894634
-330.5075143 -2.460408291e-05 -78.98676334
-395.3818143 -2.460408291e-05 -102.7972123
345.6724157 -2.460408291e-05 -112.3950933
-29.50161435 -68.0339326 -135.8081323
-30.84879435 -30.5817226 -145.8081323
129.2599557 -2.460408291e-05 -124.6833143
187.2133657 -2.460408291e-05 -17.90059134
431.6320657 -60.8430226 -129.8081323
-397.3224143 -41.6139846 -135.8081323
-0.2179743481 -2.460408291e-05 -106.7557793
-198.9840643 -67.2457096 -129.8081323
-402.0364743 -2.460408291e-05 -88.61980134
314.7184157 -57.0008836 22.00723666
-204.1390143 -6.637071604 -14.27480334
298.3752857 -53.0336056 20.86441366
0.1244456519 -120.9928146 -145.8081323
11.87797565 -2.460408291e-05 -118.3229203
-436.7317443 -57.8472456 -129.8081323
-185.4449343 -2.460408291e-05 -24.17072334
443.3849057 -2.460408291e-05 -21.21715234
-432.3592843 -76.6964086 -145.8081323
103.9033057 -2.460408291e-05 -2.474119335
259.7800357 -2.460408291e-05 -96.22625934
-444.5035743 -144.2071576 -145.8081323
-430.8376143 -129.1225656 -135.8081323
481.8999657 -117.0463026 -145.8081323
-403.9045543 -58.2071786 -28.24376834
114.0191057 -2.460408291e-05 -30.73393134
-6.831614348 -126.2629926 -135.8081323
-419.4607343 -2.460408291e-05 -41.25003734
-436.7301943 -2.833969604 -135.8081323
452.9269457 2.181355396 -129.8081323
155.3597557 -64.0944916 -135.8081323
-451.3352043 -79.5388476 -135.8081323
293.1224957 -2.460408291e-05 -119.0436373
131.9726157 -22.0434016 -135.8081323
89.37012565 -37.9719876 -129.8081323
321.7218657 -2.460408291e-05 -65.89901434
-9.323244348 -42.7864216 -145.8081323
332.4770257 -36.5569876 23.24903966
129.9374557 -2.460408291e-05 -40.07059634
482.1302557 -41.9178176 -135.8081323
-196.4706543 -62.5546446 -13.73857934
-35.93808435 -49.9130446 -129.8081323
-434.9645943 -20.8916216 -129.8081323
-457.5159243 -121.7851916 -135.8081323
240.2739057 -20.9111756 -129.8081323
244.9891857 -2.460408291e-05 -79.17898434
-27.88396435 -105.1570556 -135.8081323
-318.4190443 -10.9035986 -135.8081323
-175.1421043 -35.6998966 -12.24714234
379.8128857 -57.7216546 26.55908466
455.9828157 -32.1117206 -129.8081323
-444.0675743 -69.5181516 -145.8081323
-405.9721943 -33.7060916 -28.38835234
457.3667957 -2.460408291e-05 -6.065316335
358.7543757 -9.275200604 -135.8081323
-299.5478643 -2.460408291e-05 -36.69989034
276.6430757 -39.6511496 19.34474966
132.8980757 -41.8612176 -129.8081323
472.9709757 -79.1570676 -135.8081323
-101.1851743 -49.2430286 -7.075570335
345.7492357 -15.6271276 24.17712266
-336.5064243 -37.3669126 -129.8081323
-173.5045543 -65.5307136 -135.8081323
-208.1248243 -2.460408291e-05 -86.78433134
71.35956565 -2.460408291e-05 -80.30438434
65.80469565 -2.460408291e-05 -9.544729335
-386.7829443 -25.3481586 -27.04650834
480.7210157 -97.8711956 -145.8081323
413.3804357 -18.2093956 -135.8081323
432.1843857 -2.460408291e-05 -86.52443334
-54.99877435 -9.547697604 -135.8081323
217.6102157 -53.7425016 -129.8081323
-121.0974243 -2.460408291e-05 -112.9510703
395.4111257 -2.460408291e-05 -84.12270234
-156.7309943 -46.9940136 -129.8081323
-406.2031843 -32.0690306 -129.8081323
-195.4790043 -2.460408291e-05 -43.49178334
369.0444057 -66.5662336 25.80607966
-73.11511435 -2.460408291e-05 -119.5823983
416.4735857 -60.5288206 -129.8081323
49.13040565 -35.4060656 3.435516665
60.28480565 -2.460408291e-05 -63.67620534
419.0875457 -28.0544116 -135.8081323
-29.72651435 -97.5898946 -145.8081323
-379.3388543 -2.460408291e-05 -112.3106393
-60.85616435 -67.6372656 -129.8081323
-15.77696435 -2.460408291e-05 -76.76249734
178.5000157 -2.460408291e-05 -58.75529834
-94.92661435 -2.460408291e-05 -30.02917234
490.5389357 -83.6000066 -145.8081323
396.8625257 1.516032396 -63.68004834
347.4121057 -66.1471576 24.29340166
431.4953157 -2.460408291e-05 -70.43069034
-460.1738043 -2.460408291e-05 -57.79032434
-381.5473143 -2.460408291e-05 -37.03330034
-182.3721643 -13.6817656 -12.75271734
-163.1180843 -6.719458604 -129.8081323
-128.8690343 -49.2534676 -135.8081323
-319.6963043 -2.460408291e-05 -125.5900423
-37.88302435 -77.9336126 -136.0297793
61.87576565 -2.460408291e-05 -103.4431463
294.9305957 -2.460408291e-05 -101.5306323
-459.7715543 -3.029601604 -145.8081323
-210.1235843 -56.3455966 -135.8081323
311.9626157 0.4914663959 21.81453066
-272.8331443 -55.0320256 -135.8081323
-294.6717543 -18.9835206 -129.8081323
391.7852857 -56.5918136 -129.8081323
164.4331257 -25.5919646 -135.8081323
112.7742157 -2.460408291e-05 -51.82900534
-457.8655643 -148.7798596 -135.8081323
-157.7604543 -2.460408291e-05 -101.8947543
-452.3903643 -14.4800706 -135.8081323
-176.6650243 -2.460408291e-05 -106.8148733
-145.4359843 -7.043809604 -10.16988834
-295.1058043 -58.3698356 -20.63581934
283.2445957 -21.6828366 19.80637266
77.93257565 -60.6493516 -129.8081323
-194.1506443 -7.921926604 -135.8081323
-351.5454343 1.971384396 -135.8081323
200.4359757 -41.3139346 -129.8081323
402.0965857 -57.3716686 -135.8081323
378.3140057 -2.460408291e-05 -1.070846335
-10.57524435 -65.3914796 -135.8081323
-422.8830243 -141.5412316 -145.7797613
-438.3035943 -139.5595676 -135.8081323
-16.63529435 -8.078735604 -135.8081323
-150.0939543 -2.460408291e-05 -53.35352934
-8.700334348 -149.9491216 -135.8081323
253.8759057 -5.561968604 -129.8081323
-451.4917443 -2.460408291e-05 -106.6095723
12.11697565 -57.8739856 -145.1176853
362.6770657 -61.3510806 -129.8081323
423.9950357 -2.460408291e-05 -31.54356734
182.7839457 -23.8545816 -135.8081323
13.32764565 -2.460408291e-05 -26.56897734
120.2280357 -56.5448526 -129.8081323
-355.7193043 -2.460408291e-05 -117.5852883
469.0154757 -6.115294604 10.72115766
-423.2433343 -2.460408291e-05 -80.98889134
225.4279657 -63.3398326 15.76344066
168.5387257 -43.7063226 -129.8081323
-360.2294343 -67.9901956 -135.8081323
261.7164257 -34.2958456 -135.8081323
-85.20094435 -44.7602206 -5.957844335
139.1591257 -32.5447486 -135.8081323
-277.2564243 0.8323723959 -19.38767034
-22.10039435 -2.460408291e-05 -61.06700734
-130.5104243 -2.460408291e-05 -73.42112734
-113.6294143 -36.5984626 -135.8081323
-253.0531243 -43.4765856 -135.8081323
-199.1994843 -2.460408291e-05 -94.52464934
216.0478857 -2.460408291e-05 -93.37120034
214.9009457 -0.6988476041 -135.8081323
-67.11699435 -2.460408291e-05 -100.9854583
482.2238757 -11.6919046 -145.8081323
-152.2709643 -2.460408291e-05 -125.8703123
-148.9193643 -34.0809776 -10.41347034
433.5620657 -26.8724226 -135.8081323
489.4913257 -13.2288856 -135.8081323
-373.8356843 -2.460408291e-05 -88.02616734
208.0464257 -11.0478156 14.54800566
-443.3038043 -95.6688956 -145.8081323
115.5422357 -2.460408291e-05 -95.97172834
400.4914557 -2.460408291e-05 -8.120717335
-65.96023435 -2.460408291e-05 -4.722697335
273.4061957 -29.9324756 -129.8081323
166.3873457 -2.460408291e-05 -121.1362753
-335.5396743 -19.9607626 -135.8081323
267.7786157 -2.460408291e-05 -20.69483034
164.4451657 -2.460408291e-05 -21.28872934
437.8272057 -39.6915416 -129.8081323
-168.2767743 -32.1806636 -135.8081323
-77.26576435 -2.460408291e-05 -34.21551534
213.6634757 -2.460408291e-05 2.832469665
262.0938157 -26.3168906 18.32736666
369.5556757 -2.460408291e-05 -118.1187893
-134.4265443 -38.4844296 -129.8081323
-253.6726843 -53.7112886 -129.8081323
449.1111057 -32.7439136 31.40488766
-250.1043943 -51.5529436 -17.48901534
486.2406357 -97.4643636 -135.8081323
129.9648957 -2.460408291e-05 -10.24526334
429.4164257 -44.8293516 -135.8081323
107.0482357 -39.5894146 7.485524665
-477.1625443 -21.2478926 -33.36646534
-436.7329143 -81.9470326 -135.8081323
81.74366565 -31.2429566 5.716057665
400.3222857 -2.460408291e-05 -36.05888134
-317.7253143 -23.0649936 -135.8081323
0.6150156519 -94.4925216 -145.8081323
-446.5949743 -2.460408291e-05 -39.49043434
174.7992757 -35.1282986 12.22313866
303.8025757 2.408222396 -48.66640834
242.5844457 -41.0134416 -135.8081323
333.8309657 -59.2739246 -135.8081323
467.5964157 -55.9869926 -129.8081323
26.08930565 -45.2552976 1.824326665
-460.1253543 -48.4888146 -32.17510934
10.15332565 -2.460408291e-05 -79.62797034
405.6673057 -5.275700604 -135.8081323
-294.2920443 -37.8645256 -129.8081323
284.1611857 -2.460408291e-05 -37.79249834
-69.51868435 -26.4312816 -135.8081323
224.8750457 -2.460408291e-05 -23.42641134
8.250625652 -148.3808436 -135.8081323
31.49378565 -31.9301516 -129.8081323
311.3160857 -2.460408291e-05 -90.99251334
340.1721157 -39.9308906 -129.8081323
-10.35568435 -2.460408291e-05 -52.30237134
-87.66203435 -8.446283604 -129.8081323
135.0373357 -8.546536604 -135.8081323
-239.6881343 -2.460408291e-05 -32.26869434
15.41980565 -29.9882996 -129.8081323
-461.5542643 -90.1390426 -135.8081323
305.2238857 -2.460408291e-05 -63.55743834
241.0455257 -2.460408291e-05 -43.28179534
-22.82313435 -120.5837006 -145.8081323
302.6948457 -2.460408291e-05 -16.96732934
461.9908757 -50.0000246 23.56955966
-293.6730943 -56.0447256 -129.8081323
-262.7245443 -9.875987604 -129.8081323
160.6960557 -2.460408291e-05 -88.35532734
-100.2365843 -2.460408291e-05 -88.74070934
88.78116565 -2.460408291e-05 -119.8813923
-67.75232435 -32.8213276 -4.737718335
167.6982457 -0.9326976041 11.72658666
-249.6727643 -27.6057276 -17.45883234
285.1304057 -11.4282616 -129.8081323
-437.0110443 -31.8847436 -135.8081323
-97.85947435 -2.460408291e-05 -43.69732234
-235.6657243 -39.9998666 -16.47936534
40.95057565 -2.460408291e-05 -18.56026834
-278.2773243 -2.460408291e-05 -70.02652034
-472.5650443 1.385621396 -33.04503734
-280.6142343 -26.2263876 -129.8081323
-359.9037843 -49.4570776 -135.8081323
38.87597565 -2.851322604 -135.8081323
470.1620257 -16.9795286 -129.8081323
247.3246457 -14.5020406 -135.8081323
47.36154565 -45.9577096 -129.8081323
12.81270565 -42.4420466 -129.8081323
-19.00529435 -25.2501956 -135.8081323
-281.0007943 -21.1140276 -19.64950134
6.454195652 -153.1203026 -145.8081323
-350.1923043 -7.642664604 -129.8081323
-270.4613243 -65.8246266 -18.91251034
-143.8545443 -2.460408291e-05 -62.05902534
400.9175257 -3.134485604 28.03486466
-437.7197343 -102.4757096 -135.8081323
-142.4658643 -56.9758906 -135.8081323
69.40634565 -2.460408291e-05 -94.97141534
361.7210857 -24.5286546 -129.8081323
99.41796565 -2.460408291e-05 -71.18904634
381.6135257 -7.888307604 -135.8081323
-238.4003343 -27.3367926 -135.8081323
255.7062857 -24.5319346 -135.8081323
-129.8144143 -2.460408291e-05 -16.87531734
-351.3860943 -2.460408291e-05 -64.60566534
418.0949157 -2.460408291e-05 2.930328665
-360.7264143 -10.5752056 -129.8081323
-183.8545043 -2.460408291e-05 -69.88940634
-340.1457743 -8.871125604 -23.78532134
462.0374157 -2.460408291e-05 -111.5607183
-50.88954435 0.9242903959 -3.558586335
465.8672757 -29.0995686 26.17399966
-431.4961243 -2.460408291e-05 -100.2870263
-44.24231435 -2.460408291e-05 -107.3416463
183.5358957 -9.847000604 12.83406266
258.8401857 -2.460408291e-05 -60.42341834
-382.2287543 -57.2038776 -26.72804934
-31.49430435 -159.5911896 -145.8081323
-123.4037243 -56.4199786 -129.8081323
-462.4890743 -116.7118646 -145.8081323
-17.63503435 -125.7038626 -135.8081323
-185.5074043 -44.5594446 -135.8081323
-254.8208843 -5.398604604 -17.81882434
-148.2244943 -39.7173126 -129.8081323
319.1169657 -2.460408291e-05 -125.2087233
469.6604957 -2.460408291e-05 -90.18512134
-5.376464348 -77.4237396 -135.8081323
176.4941157 -2.460408291e-05 -81.08199834
-337.5605743 -2.460408291e-05 -103.2706853
-77.02567435 -55.0913496 -129.8081323
-366.9014043 -2.460408291e-05 -98.51511434
476.7760457 -39.2084746 -2.721070335
-313.0146943 -2.460408291e-05 -48.10615434
-128.2823943 -2.974235604 -129.8081323
153.2794257 -2.460408291e-05 -120.3281283
-13.39193435 -11.6361346 -145.8081323
390.9612357 -56.1022936 27.33865266
208.6055057 -2.460408291e-05 -73.51340734
45.31645565 -9.992839604 3.168819665
-413.5334343 -2.460408291e-05 -50.18874234
412.2682757 -57.6005616 28.82858566
-79.26372435 -24.6517386 -5.542674335
-416.7283143 -2.460408291e-05 -97.00862134
196.8082257 -6.336057604 -135.8081323
74.76853565 -39.4642036 -129.8081323
403.8423557 -2.460408291e-05 2.793734665
269.6798457 -50.5954376 -129.8081323
233.8615857 -53.7309196 -129.8081323
-369.4314543 -2.460408291e-05 -52.49907834
-221.2943243 -11.0635306 -135.8081323
-471.2471343 -111.0825246 -135.8081323
-27.77166435 -59.3586106 -1.941998335
-195.2014443 -29.9691186 -129.8081323
137.5461257 -2.460408291e-05 -61.07160134
-465.1976043 -35.5794776 -32.52979534
-296.8128043 -7.000757604 -135.8081323
-19.53743435 -93.6785536 -135.8081323
-59.08054435 -9.643027604 -4.131328335
-6.192674348 -7.740469604 -135.8081323
-10.87072435 -108.2627606 -145.8081323
-413.2707243 -2.460408291e-05 -33.00912834
-424.9823543 -62.1643246 -135.8081323
21.66919565 -15.8690346 -135.8081323
-356.0807043 -40.2940626 -129.8081323
445.4374657 -2.460408291e-05 -61.89009834
334.7326557 -52.6031316 23.40676866
-166.6935243 -14.1146496 -11.65636034
444.1104857 -59.0364996 -135.8081323
-461.2510043 -2.460408291e-05 -71.56456734
10.29997565 -2.460408291e-05 -45.87338634
482.1034157 -134.6588846 -135.8081323
134.2993157 -2.460408291e-05 -81.65175234
301.8415357 -43.7630306 -129.8081323
-10.78174435 0.08153839592 -145.8081323
388.9677857 -2.460408291e-05 17.38202266
-461.6525443 -2.460408291e-05 -85.36024934
99.07084565 -2.460408291e-05 -33.80159834
-12.12140435 -2.460408291e-05 -103.9515933
-68.31627435 -52.4716166 -4.777153335
-2.621864348 -50.4780806 -145.8081323
-422.8830243 -4.735255604 -143.7865153
-320.9290343 -61.1776446 -135.8081323
-422.8830243 -136.1794866 -137.1127323
-269.2949443 -23.1224256 -129.8081323
-468.3688243 -159.3818516 -145.8081323
147.1929457 -2.460408291e-05 -37.64093434
231.7228157 -1.671683604 -135.8081323
-349.1383343 -34.9163936 -24.41414234
432.3626457 0.7091833959 30.23372866
171.0549057 -59.8318436 -129.8081323
391.6576557 -2.460408291e-05 -125.3675133
-331.1341443 -8.328746604 -135.8081323
393.0991457 -44.7592416 -129.8081323
-390.2632043 -31.4369566 -129.8081323
-35.02980435 -149.4947616 -135.8081323
-202.2874243 -7.094578604 -129.8081323
240.7348957 -67.1183596 16.83380566
-338.9209743 -67.8075916 -23.69967434
12.11697565 -137.3329506 -136.2301343
266.2512857 -7.075823604 18.61808566
478.9247757 -150.7417306 -135.8081323
-171.7812443 -50.3760476 -135.8081323
73.86905565 -2.460408291e-05 -47.83118934
463.3978257 -2.460408291e-05 -70.77541734
-210.9876143 -34.2743066 -129.8081323
228.8668657 -2.460408291e-05 -60.63636134
318.8094757 -66.8128456 -135.8081323
462.1105657 -14.4052736 -135.8081323
350.4601657 -2.460408291e-05 -13.16414734
-119.7779143 -32.6758496 -8.375701335
278.6156357 -2.460408291e-05 -21.62334134
479.3504457 -52.3683416 -145.8081323
324.5246057 -11.4993646 -129.8081323
-466.8648543 -77.2454016 -145.8081323
492.0875357 -133.6121076 -145.8081323
38.18615565 -2.460408291e-05 -119.1216463
-272.1982443 -2.460408291e-05 -50.86140134
-339.1720443 -50.4815116 -129.8081323
-133.8326443 -67.7952846 -129.8081323
-199.4753243 2.283530396 -13.94872634
-364.2706943 -2.460408291e-05 -64.10892234
142.6676857 -2.460408291e-05 -52.40896034
-380.6895443 -10.3656826 -129.8081323
-264.5000943 -2.460408291e-05 -27.98586234
-10.99676435 -39.8558206 -135.8081323
78.61168565 -2.460408291e-05 -121.9465483
475.1001257 -113.4802246 -135.8081323
8.147695652 -2.460408291e-05 -2.065464335
34.88253565 -5.478052604 2.439208665
255.2901857 -39.9467396 17.85161066
-148.3524243 -2.460408291e-05 -84.74247434
-18.94322435 -2.460408291e-05 -7.803667335
133.3460857 -56.5091576 -129.8081323
302.5848557 -7.103903604 -129.8081323
382.4346057 -8.694616604 26.74241366
445.4967157 -3.775788604 -135.8081323
-111.7451443 -15.5953656 -135.8081323
185.4198757 -9.341793604 -129.8081323
-423.8389443 -21.1467666 -135.8081323
-471.8724843 -143.3167396 -145.8081323
303.3479457 -2.460408291e-05 -32.70400734
274.9209757 -2.460408291e-05 3.659504665
-7.971074348 -55.1432896 -0.5574063351
481.2900757 -79.7978796 -145.8081323
-466.0314543 -100.5136176 -145.8081323
-42.20692435 -61.9896986 -2.951410335
-396.6759343 -15.5771416 -135.8081323
474.3454557 -21.2803846 1.489586665
-242.9273143 -12.3548276 -16.98714534
52.21154565 -2.460408291e-05 -3.559957335
-42.74434435 -2.460408291e-05 -13.72789434
-1.748144348 -2.460408291e-05 -45.17481834
76.99398565 -68.0000246 6.862050665
-455.0443943 -43.9745606 -145.8081323
325.0680757 -30.2485326 -129.8081323
23.70475565 -2.460408291e-05 -125.2612963
-309.7483243 -38.6601516 -135.8081323
306.6729857 -59.0908366 -129.8081323
7.819855652 -131.0253176 -145.8081323
-7.306064348 -11.3342466 -0.5109053351
-118.9932043 -2.460408291e-05 -85.50179834
-11.59670435 -88.0904136 -145.8081323
-162.6158243 -2.460408291e-05 -74.42479034
-4.773284348 -2.460408291e-05 -19.84178334
215.8816057 -2.460408291e-05 -57.05859234
-166.4597143 1.453703396 -135.8081323
-424.8291343 -40.0152386 -145.8081323
-293.1259043 -68.0000246 -19.33652734
-189.6366643 -22.5970086 -135.8081323
241.0122557 -47.1533636 16.85320066
-85.95813435 -24.9172686 -129.8081323
-71.96309435 -35.5755616 -129.8081323
451.2783357 -39.7454006 -135.8081323
205.6403757 -2.460408291e-05 -19.09232434
-104.8892843 -58.5144606 -7.334587335
-137.3484643 -20.2079646 -129.8081323
335.9381357 -24.5998686 -135.8081323
8.332545652 -114.5827626 -135.8081323
370.6668557 -2.460408291e-05 -47.60748634
411.3763657 -27.0156546 28.76621766
289.7765457 -31.8432186 -129.8081323
289.8826557 -20.0981836 -135.8081323
119.3073957 -46.0955716 -135.8081323
-280.1289643 -37.2384766 -19.58853734
-453.2442943 -64.7157116 -135.8081323
338.9473357 -2.460408291e-05 -66.05762534
118.7527457 0.7852413959 -129.8081323
-415.7779043 -2.460408291e-05 -74.18399534
104.3835457 -9.781668604 -129.8081323
-31.41287435 -135.7384176 -145.8081323
-420.3521043 -6.786919604 -129.8081323
-114.3609743 -47.2441726 -135.8081323
-3.359154348 -134.1604676 -145.8081323
-83.54560435 2.124843396 -129.8081323
71.28375565 -25.4415656 4.984629665
426.4374257 -2.460408291e-05 20.84171966
-34.11012435 -2.460408291e-05 -49.73069334
417.8756457 -2.460408291e-05 -98.73388834
-12.97162435 -31.6887696 -0.9070793351
-238.4193243 -1.059116604 -129.8081323
67.76547565 -7.438521604 -129.8081323
242.1551257 -2.460408291e-05 -27.73745034
-23.52435435 -110.7457196 -145.8081323
35.09461565 -16.1587886 -135.8081323
190.6292457 -62.7649956 13.33007766
435.9509657 -52.0014126 30.48464066
-160.2075343 -66.2602086 -129.8081323
68.41014565 -43.8717256 -135.8081323
97.55555565 -2.460408291e-05 -19.48856034
-433.0777143 -53.7772656 -145.8081323
33.18348565 -2.460408291e-05 -35.08122634
-62.54838435 -2.460408291e-05 -27.87975734
151.1895657 -17.4811146 -129.8081323
484.1927057 -20.2367646 -129.8081323
-114.0663643 1.957986396 -7.976311335
288.0783057 -56.2243276 -135.8081323
173.5225057 -2.460408291e-05 -24.87149834
-454.3937443 -141.0067146 -145.8081323
-61.84146435 -25.9634916 -129.8081323
147.6314257 -59.6228526 10.32337866
-220.6144543 -32.5478696 -129.8081323
-458.8929143 -107.6569906 -145.8081323
87.66161565 -43.7739326 6.129880665
-259.8832243 -39.7666066 -129.8081323
139.8494557 -25.2023026 9.779209665
-393.2784543 -2.460408291e-05 -123.9202763
121.9201257 -64.9882076 -135.8081323
-106.7439043 -2.460408291e-05 -69.47415434
-228.8349343 -47.3435946 -16.00171034
340.9026157 -56.3562836 -129.8081323
425.8217057 -2.460408291e-05 -123.7904563
107.7657057 -2.460408291e-05 -108.8061853
432.6597157 -19.2921546 -129.8081323
-377.0070343 -49.0262206 -26.36291034
-250.8798143 -2.460408291e-05 -68.34517834
-314.7073343 -2.460408291e-05 -101.6686793
452.4535157 -59.8159216 31.63861166
133.0328357 -2.460408291e-05 -94.98661134
87.87337565 -2.460408291e-05 -17.00533434
-25.56566435 -56.7851096 -145.8081323
-444.8244243 -57.4632106 -135.8081323
-424.0233143 -112.5280876 -135.8081323
-448.9552643 -22.3937106 -31.39402034
-26.23508435 -77.1389786 -135.8081323
263.0899457 -47.7852506 18.39702266
-44.88390435 -28.4740686 -135.8081323
-3.627674348 -2.460408291e-05 -127.7814133
77.46492565 -2.460408291e-05 -25.76119234
371.4431957 -2.460408291e-05 -22.36390934
2.096685652 -86.1990466 -135.8081323
-80.39092435 -2.460408291e-05 -17.37939034
124.6791757 -2.460408291e-05 -113.2681793
282.8541757 -2.460408291e-05 17.36692066
174.4768557 -68.0000246 -134.9214303
-240.4539843 -2.460408291e-05 -77.24443234
266.0477957 -9.550896604 -129.8081323
-460.6715843 -53.6952506 -145.8081323
-184.8106343 -59.6749356 -12.92323134
-121.1738743 -29.9244266 -129.8081323
-55.12087435 -55.2095736 -3.854441335
-105.2040043 -62.5741086 -129.8081323
189.2344557 -2.460408291e-05 -120.3110693
36.08225565 -52.1546076 -135.8081323
-445.4695543 -32.2752186 -145.8081323
-352.4480543 -30.7070176 -135.8081323
-460.4548943 -160.0000246 -139.3053173
208.0170557 -33.8204156 -129.8081323
63.27419565 -26.5300226 -135.8081323
-290.3218843 -2.460408291e-05 -55.08292934
-425.5425943 -89.3067886 -135.8081323
356.3726257 -2.460408291e-05 9.334283665
205.2052957 -48.1287776 -135.8081323
297.0821257 -27.5816096 20.77398766
-389.4129643 -45.0345006 -129.8081323
4.956135652 -45.9887576 0.3465516649
-461.5576943 -42.7761636 -135.8081323
76.52950565 -15.4668306 -129.8081323
-133.2621643 -28.8616196 -135.8081323
276.8491157 -2.460408291e-05 -112.1485893
479.4461357 -2.460408291e-05 -75.08106134
170.5110057 -21.4898886 11.92327366
165.0259657 -7.468810604 -129.8081323
-172.8841043 -57.6925616 -129.8081323
-265.4003743 -56.5943136 -129.8081323
272.6787957 -2.460408291e-05 -54.31085534
99.56217565 0.3300903959 -135.8081323
-71.97372435 -63.6473096 -129.8081323
333.5217457 -2.460408291e-05 -1.231610335
-41.24759435 -19.5661026 -135.8081323
472.1169757 -59.8283186 -141.8617843
161.5640057 -49.4120056 11.29763866
384.1318457 -2.460408291e-05 -79.65904634
-23.08466435 -43.7017226 -135.8081323
-249.6837043 -13.2463846 -129.8081323
-87.99814435 -63.5005756 -135.8081323
-241.3119843 -67.6127926 -16.87419034
95.77547565 -27.3544246 -135.8081323
-320.5822743 -30.2489036 -129.8081323
-465.7226043 -10.9923126 -145.8081323
-139.1305843 -2.460408291e-05 -86.88258234
-211.5560843 -46.9883406 -135.8081323
225.7489157 0.8821793959 15.78587566
-3.034824348 -22.0435056 -135.8081323
446.8849557 -2.460408291e-05 -109.1107473
93.36417565 -2.460408291e-05 -94.43276234
-414.6831643 -50.8453206 -135.8081323
39.23312565 -31.2557906 -135.8081323
152.1584757 2.031989396 -135.8081323
-432.2272843 -114.5454476 -145.8081323
-378.1156643 -41.0782306 -129.8081323
320.9513857 -49.9398396 -129.8081323
363.9009357 -2.460408291e-05 -11.33645734
375.2643957 -14.8692126 -135.8081323
12.11697565 -25.3672776 -137.3433213
-379.5614043 -65.2622636 -129.8081323
-34.56938435 -111.9080606 -135.8081323
-465.9549643 -11.3081616 -135.8081323
464.4329357 -2.460408291e-05 -27.60243134
-257.5962043 -59.8121986 -135.8081323
-318.5069643 -2.460408291e-05 -75.24029534
293.8306857 -2.460408291e-05 -2.576798335
-321.5517943 -40.4839836 -22.48510334
-356.4263643 -60.5295826 -24.92377034
-374.6471543 -66.3501936 -26.19789234
-3.524204348 -51.5708696 -129.8081323
336.2283557 -2.460408291e-05 -80.32893134
-27.41787435 -135.2789476 -135.8081323
455.2733857 -24.9485226 -135.8081323
272.3361357 -2.460408291e-05 -72.70747134
-224.1358343 -31.7316586 -15.67311634
206.2509757 -2.460408291e-05 8.536072665
-160.6928043 -2.460408291e-05 -48.59998434
323.2935957 -2.460408291e-05 -50.57809434
481.7973657 -0.4707446041 -1.418286335
68.09489565 -41.6646956 4.761642665
348.0950457 -28.2720806 24.34115766
439.3216057 -5.495992604 30.72033866
-32.13369435 1.896654396 -145.8081323
-475.1278843 -2.460408291e-05 -48.26409134
471.8939057 -2.460408291e-05 -114.3831743
250.4963257 -2.460408291e-05 -6.226144335
-239.1478143 -56.3381786 -129.8081323
-70.18529435 -2.460408291e-05 -75.64561634
-407.5851543 -2.460408291e-05 -65.17455834
-114.9575143 -5.369547604 -129.8081323
-163.9772943 -25.0869266 -11.46642234
-460.3268643 -32.8564916 -135.8081323
-172.9095943 -2.460408291e-05 -84.58171834
-110.8556543 -2.460408291e-05 -18.17278734
363.9166057 -2.460408291e-05 16.35288466
193.7018057 -34.6226316 -129.8081323
-431.6521743 -124.2492176 -145.8081323
-466.1952543 -132.1294706 -135.8081323
-62.47230435 -46.0484506 -135.8081323
-431.9525743 -103.3136486 -145.8081323
4.583795652 -2.460408291e-05 -18.19098234
-192.6161743 -59.6479036 -129.8081323
37.99482565 -34.0399126 2.656841665
-441.6927543 2.216696396 -129.8081323
476.2575657 -34.5563756 -135.8081323
397.9465957 -20.7959856 27.82711766
355.4733257 -15.6505216 -129.8081323
-353.6256043 -56.2801896 -135.8081323
46.62417565 -2.460408291e-05 -91.35957334
-383.5031343 -2.460408291e-05 -121.0802853
410.5192757 -2.460408291e-05 -16.72265134
117.5074857 -32.7705026 -129.8081323
162.4639157 -11.5346296 11.36056666
-293.1975843 -2.460408291e-05 -118.3644293
-463.6404743 0.7126623959 -135.8081323
488.0433657 -144.1355226 -145.8081323
469.4511957 -9.368863604 19.96661266
407.8959357 -2.460408291e-05 22.86881866
54.13699565 -2.460408291e-05 -36.99636734
-249.0733943 -2.460408291e-05 -24.96004034
485.7981157 -4.354284604 -135.8081323
