# .PCD v0.7 - Point Cloud Data file format
VERSION 0.7
FIELDS x y z
SIZE 4 4 4
TYPE F F F
COUNT 1 1 1
WIDTH 1341
HEIGHT 1
VIEWPOINT 0 0 0 1 0 0 0
POINTS 1341
DATA ascii
8.71421 7.839805398 159.9999026
-0.0002699995239 13.2657444 56.2472366
214.87253 -2.460220776e-05 125.7710726
40.64765 -2.460220776e-05 -155.9281254
229.45626 52.5631834 -140.0000974
-0.0002699995239 1.957321398 -10.3228814
98.31954 67.9999754 154.8291556
26.11726 -2.460220776e-05 -125.6129454
209.45727 15.3730744 150.3792226
105.6347 -2.460220776e-05 151.4737746
-0.0002699995239 10.6941664 5.526765599
201.67749 -2.460220776e-05 35.9623716
86.00297 -2.460220776e-05 113.1689996
-0.0002699995239 11.0192174 -95.7575214
246.05595 22.3395304 53.9223656
168.07129 -2.460220776e-05 24.5763726
202.66471 -2.460220776e-05 1.284422599
219.52794 -2.460220776e-05 -101.0541574
44.4775 163.5991604 -136.0000974
102.10691 -2.460220776e-05 120.9753926
237.53203 -2.460220776e-05 -63.9366114
-0.0002699995239 31.5752214 -83.2455744
249.7777 -2.460220776e-05 -109.7486144
146.78552 40.9156004 159.9999026
184.37978 35.1489794 159.9999026
26.44091 -2.460220776e-05 114.6360946
158.51152 124.8061094 -140.0000974
47.13804 35.1249854 159.9999026
250.70729 63.8003904 -136.0000974
142.75768 18.1040994 153.9999026
156.31946 10.1574534 153.9999026
182.41698 54.5566924 159.9999026
138.89022 -2.460220776e-05 -156.6463284
171.39569 -2.460220776e-05 -14.6289874
208.34522 64.7238384 -136.0000974
157.5895 -2.460220776e-05 -113.0309474
65.36307 154.5349694 -136.0000974
102.52607 141.2322354 -140.0000974
-0.0002699995239 31.4805914 -3.395002401
219.34385 33.9483444 159.9999026
129.86279 56.9370914 153.9999026
72.55273 16.2380754 159.9999026
28.45472 -2.460220776e-05 51.3148506
155.06008 47.8896954 159.9999026
222.74534 52.7210264 153.9999026
128.53509 34.4194804 153.9999026
181.09523 -2.460220776e-05 71.6607706
237.86545 16.7557084 -159.9919614
235.73188 59.1781064 -154.3658444
-0.0002699995239 22.8692504 -121.4498734
220.88735 -2.460220776e-05 64.6694636
240.68218 -2.460220776e-05 125.9889776
244.43259 57.3576524 153.9999026
196.41202 94.0236634 -136.0000974
-0.5245799995 49.9999754 -35.8343614
128.10133 101.3838214 -140.0000974
-0.0002699995239 10.8541984 -151.4194194
216.04242 46.0758124 146.2944476
190.07975 -2.460220776e-05 -43.3325714
220.29031 22.5813484 117.0384366
214.06417 -2.460220776e-05 -148.8614294
-1.03898 45.6537824 159.9999026
122.75683 24.4884624 153.9999026
242.98968 -2.460220776e-05 -19.7867424
210.95002 -2.460220776e-05 152.4373386
96.43035 -2.460220776e-05 58.2837006
67.3538 53.4493574 153.9999026
162.67328 -2.460220776e-05 86.4988676
154.51149 -2.460220776e-05 -157.3321264
231.72253 10.2745924 81.8543936
96.71117 153.1517284 -136.0000974
190.5358 9.445738398 159.9999026
144.93386 -2.460220776e-05 101.0732896
148.60947 -1.316506602 -58.5010174
127.33774 -2.460220776e-05 120.7814026
208.86472 87.2411004 -136.0000974
29.01705 178.7296054 -136.0000974
174.72758 -0.5129756022 159.9999026
137.8183 -2.460220776e-05 -136.8549654
251.64428 7.642128398 20.5422426
11.9417 -2.460220776e-05 -46.0233124
27.08628 146.4224994 -136.0000974
38.27215 -2.460220776e-05 142.3734616
79.43705 66.8544614 153.9999026
6.52244 -2.460220776e-05 124.8998526
68.92356 -2.460220776e-05 -48.2768114
-0.0002699995239 35.9268844 -44.3599684
-0.0002699995239 26.5392204 -39.0573224
164.39415 -2.460220776e-05 -151.3791424
20.03278 -2.460220776e-05 -19.0669414
25.13209 42.2053264 159.9999026
149.44411 -2.460220776e-05 110.5685926
238.91969 31.5178774 75.8855646
125.27571 138.0681214 -136.0000974
71.37972 130.4612194 -136.0000974
193.05559 -2.460220776e-05 -79.1974964
242.77176 67.9999754 -155.6985654
30.51486 -2.460220776e-05 -135.7285794
39.23174 -2.460220776e-05 -23.3885864
245.72575 43.6684724 -136.0000974
233.74027 40.9975004 91.8262326
230.79279 -2.460220776e-05 -14.1507994
230.74106 22.8223244 101.0565526
-0.9001399995 184.9327044 -140.0000974
175.02119 -2.460220776e-05 -91.5805494
-1.71736 60.4916674 153.9999026
156.41547 -2.460220776e-05 -30.1235614
231.69576 49.3918624 81.9364296
39.34123 144.8320674 -136.0000974
221.00816 49.5855394 131.0115066
6.10526 -2.460220776e-05 -150.9764834
197.66125 -2.460220776e-05 17.3922276
43.73512 -2.460220776e-05 37.9717926
196.42472 -2.460220776e-05 59.0449066
226.37798 78.5132904 -136.0000974
249.60534 9.737197398 -136.0000974
209.39615 27.0834774 150.5673736
-0.0002699995239 20.3637854 -77.8647284
183.98327 49.8583954 -140.0000974
225.16535 -2.460220776e-05 3.843482599
63.10916 -2.460220776e-05 -94.8414524
213.27424 45.9658744 159.9999026
54.2949 119.9035594 -140.0000974
248.43527 41.3415854 46.5997096
148.19144 -2.460220776e-05 84.0498226
221.77164 -2.460220776e-05 52.4425446
-0.0002699995239 41.2959904 -122.5712604
160.3158 -2.460220776e-05 -101.1263864
44.03709 24.5399744 153.9999026
-0.0002699995239 31.0852944 58.6653536
103.02647 18.7533724 159.9999026
143.72479 119.7858974 -140.0000974
118.11617 67.9999754 159.5193386
55.2186 132.8211344 -136.0000974
114.47554 44.0547174 153.9999026
199.20753 54.6245964 159.9999026
7.57836 204.3274154 -140.0000974
218.99491 27.0823254 137.2074086
174.81004 88.8444424 -136.0000974
106.58755 -2.460220776e-05 -159.4996484
62.21476 47.5391194 159.9999026
138.85201 -2.460220776e-05 127.4705956
40.54443 198.5676254 -140.0000974
139.67264 -2.460220776e-05 137.6218396
168.04083 -2.460220776e-05 34.6602026
252.31017 -2.460220776e-05 138.6721076
-0.0002699995239 32.7004844 132.5582896
7.63919 -2.460220776e-05 153.7356806
209.44677 76.2275364 -136.0000974
116.7104 -2.460220776e-05 85.6915666
240.43298 31.6786644 55.0461136
127.23046 117.2109384 -136.0000974
-0.0002699995239 46.0331964 -57.3434254
192.39967 20.9286364 159.9999026
-0.0002699995239 18.4339414 101.6406506
76.49715 -2.460220776e-05 31.6556316
26.84698 -2.371712602 159.9999026
179.24854 10.1908094 153.9999026
19.7364 -2.460220776e-05 -65.4354104
165.91122 80.1396304 -136.0000974
244.28819 29.8119594 -158.0967234
224.49646 9.852853398 104.0939216
247.28797 -2.460220776e-05 81.9214696
21.54673 210.6287184 -138.3520374
17.31042 190.3236494 -136.0000974
224.08729 27.8613874 153.9999026
138.75056 -2.226109602 159.9999026
189.35393 -2.460220776e-05 115.5636446
80.25363 -2.460220776e-05 -13.7796034
155.17554 -0.3669876022 159.9999026
94.15628 -2.460220776e-05 97.6631386
188.39846 84.9867204 -140.0000974
-0.0002699995239 24.9331384 -132.6195404
222.05274 49.9999754 121.3512926
61.55971 -2.460220776e-05 -130.7084684
-0.0002699995239 11.4729184 -23.2307624
66.90943 -2.460220776e-05 -38.7986574
240.34481 6.600459398 -153.0046454
73.69678 -1.073310602 159.9999026
223.70076 -2.460220776e-05 -147.2720164
216.84677 62.3670964 -159.9385264
240.65793 64.4995714 -136.0000974
-0.0002699995239 24.3296254 35.0114826
207.19585 11.4381354 159.9999026
8.45511 -2.460220776e-05 -60.6486484
120.23283 -2.460220776e-05 8.439322599
242.24719 8.689244398 49.4631936
234.27112 23.0294454 90.1922186
12.25003 -2.460220776e-05 -1.467721401
56.46419 -2.460220776e-05 129.9301736
104.53641 11.5574864 153.9999026
241.23108 -2.460220776e-05 41.5749946
237.81401 36.9173794 159.9999026
-0.0002699995239 44.2502704 -104.8520994
153.81072 64.7741844 159.9999026
136.37626 84.3134444 -136.0000974
7.30913 -2.460220776e-05 6.607338599
243.00997 41.3028844 63.2970716
55.52282 -2.460220776e-05 -34.6809414
242.22879 49.9999754 50.0291686
30.82178 -2.460220776e-05 124.0111236
231.73818 38.3099184 -161.8000124
177.46879 67.2883284 -136.0000974
16.08058 50.2403364 153.9999026
23.65458 58.6528084 153.9999026
126.51474 -2.460220776e-05 -135.9625734
211.17733 56.3854654 -140.0000974
27.2722 -2.460220776e-05 -146.3608864
213.05535 55.3699614 159.9999026
198.77056 -2.460220776e-05 -64.9794614
219.5486 33.4979094 119.3214066
151.316 70.3380604 -140.0000974
1.2083 23.0974244 153.9999026
62.92474 -2.460220776e-05 -16.6094304
-0.0002699995239 49.2599484 33.8182886
62.57835 -2.460220776e-05 -72.8492054
-0.0002699995239 9.501712398 -53.6449594
9.01881 -2.460220776e-05 47.3265096
-1.84699 154.5526394 -139.7929254
66.96353 -2.460220776e-05 21.4660736
226.27574 -0.9041886022 153.9999026
35.32311 -2.460220776e-05 7.476714599
19.3817 164.1283454 -140.0000974
49.72724 -2.460220776e-05 -62.5158544
8.04523 -2.460220776e-05 -85.4111964
163.69783 -2.460220776e-05 72.5036916
56.24243 -2.460220776e-05 52.7820906
-0.0002699995239 39.7956164 -71.8256434
-0.0002699995239 27.2581104 113.4981196
236.08287 78.0361684 -139.6443134
147.21134 48.8742224 153.9999026
75.79032 -2.460220776e-05 106.9726356
90.11148 -2.460220776e-05 -138.2825734
134.08752 -0.06921360221 -5.448899401
237.9918 -2.460220776e-05 -117.0089314
-0.0002699995239 32.9332044 149.8254726
249.76803 37.3767884 -156.4797194
236.20236 15.8657934 -136.0000974
92.2312 -2.460220776e-05 41.8177766
23.26658 -2.460220776e-05 -33.9137304
155.10938 55.9504554 153.9999026
136.69962 -2.460220776e-05 47.2744386
129.08138 -2.243520602 153.9999026
-0.0002699995239 11.8886024 70.1018436
-0.0002699995239 49.4131554 -152.2922204
7.46455 180.9269644 -136.0000974
97.74017 122.8941854 -136.0000974
40.60868 -2.460220776e-05 -116.8818464
25.65837 189.5435054 -140.0000974
84.57054 112.7256094 -140.0000974
153.56628 -2.460220776e-05 -38.8686764
40.23778 134.5161444 -140.0000974
136.5521 -1.101185602 -118.3833814
-0.0002699995239 47.4725844 120.1189796
222.12763 67.2484364 159.9999026
221.38253 -2.460220776e-05 77.6509866
198.26134 73.4913444 -140.0000974
55.7416 169.8534134 -136.0000974
13.08685 153.3325524 -140.0000974
108.42634 59.9132594 159.9999026
92.91778 -2.460220776e-05 77.6888886
228.62403 -2.460220776e-05 -101.7477424
207.59339 -2.460220776e-05 107.5108916
224.21677 -2.460220776e-05 123.3433576
171.28178 -2.460220776e-05 89.8197506
220.35043 21.2475444 159.9999026
151.89079 -2.460220776e-05 94.3889856
227.0074 5.205031398 96.3669096
148.21333 78.8352034 -140.0000974
-0.0002699995239 26.3824094 80.1674186
106.82596 -2.460220776e-05 -141.4914184
57.32798 150.3964884 -136.0000974
122.6896 5.518868398 159.9999026
136.41408 125.0837884 -140.0000974
162.46329 14.2423964 159.9999026
90.20262 -2.460220776e-05 50.6021386
241.76464 4.096489398 67.1288096
-0.6092599995 -2.460220776e-05 133.4043756
-1.51583 -2.460220776e-05 -99.0565914
251.94578 54.1131274 -155.8371054
248.6649 24.3889404 29.7108406
-0.0002699995239 41.1988314 -146.2089294
7.85431 -2.460220776e-05 -113.2768754
229.00208 -2.460220776e-05 -117.8349954
-0.0002699995239 15.1203954 -37.9654674
218.39309 36.4742984 139.0597346
28.78051 -2.460220776e-05 -26.8502654
250.84611 32.2882254 22.9979436
-0.0002699995239 33.9783424 -161.2550754
72.27336 -2.460220776e-05 141.7282646
157.92834 -2.460220776e-05 -8.981521401
37.8025 180.3053134 -136.0000974
140.335 94.7651484 -140.0000974
105.19805 94.0724954 -140.0000974
176.91246 -2.460220776e-05 -0.2801254011
187.41092 67.9999754 157.2089876
246.9993 16.4852754 34.8368626
63.17514 177.1141884 -136.0000974
203.87027 -2.460220776e-05 54.1919816
35.58753 -2.460220776e-05 -69.7016054
230.24461 -2.460220776e-05 -43.5205004
142.46031 106.9222954 -136.0000974
249.90659 8.507200398 159.9999026
177.13195 47.2857574 153.9999026
230.99644 49.9407234 100.2707386
121.02057 87.4212824 -136.0000974
91.23826 131.7288654 -136.0000974
226.82306 34.0727814 -136.0000974
-0.0002699995239 27.7350884 95.6918016
78.80533 -0.4178286022 -109.5124894
7.98884 -2.460220776e-05 74.3407636
154.8842 -2.460220776e-05 66.3064266
79.971 124.9262134 -140.0000974
99.63141 -2.460220776e-05 35.5763426
227.68129 21.8828504 -140.0000974
170.74385 106.9721524 -136.0000974
71.6942 -2.460220776e-05 96.2407736
129.68073 -2.460220776e-05 60.7017816
24.82626 -2.460220776e-05 -94.9205144
194.75047 4.641589398 153.9999026
47.23202 -2.460220776e-05 -142.2352434
230.75674 35.9456124 84.8264926
235.13721 13.1073004 71.3446796
188.12395 -2.460220776e-05 -4.742353401
-0.0002699995239 44.9328104 80.6579786
45.66305 -2.460220776e-05 -12.5832384
-0.0002699995239 26.4548064 16.2483426
158.33507 -2.460220776e-05 127.5903976
8.07421 -2.460220776e-05 62.2382726
-0.0002699995239 4.545780398 -130.3070294
104.57679 1.449318398 159.9999026
45.47715 -2.460220776e-05 112.1718936
21.63415 36.9561334 153.9999026
141.85181 -0.3217586022 -106.5120624
247.26628 28.8762104 159.9999026
244.11268 -2.460220776e-05 -134.0952934
-0.0002699995239 24.0239834 132.0552836
11.83136 173.0915614 -140.0000974
221.69814 6.171023398 128.8869336
198.22584 -2.460220776e-05 122.5293436
64.60388 37.0154914 159.9999026
165.25349 -2.460220776e-05 -28.4394874
59.20391 26.0857814 153.9999026
30.1307 19.1367644 153.9999026
243.41127 -2.460220776e-05 117.1637436
203.70584 -2.460220776e-05 83.8917596
22.91473 5.916789398 153.9999026
49.19942 -2.460220776e-05 15.6142486
-0.0002699995239 35.2113164 29.6440946
74.30723 -2.460220776e-05 -21.7914904
87.01579 16.0579404 159.9999026
84.41459 -2.210184602 -120.9405524
67.49065 -2.460220776e-05 85.7304286
143.50093 -2.460220776e-05 6.732905599
221.99012 64.1974024 -140.0000974
228.23874 14.7079034 159.9999026
100.8411 -2.460220776e-05 144.3541196
-0.0002699995239 40.8147114 -21.7697704
41.8317 5.336401398 153.9999026
186.88348 -2.460220776e-05 -57.5224054
78.60312 -2.460220776e-05 117.4521126
133.65233 51.5617354 159.9999026
246.79844 -2.460220776e-05 -0.4744324011
117.83429 130.7201604 -140.0000974
78.56057 -2.460220776e-05 -1.960455401
-1.72838 49.9999754 57.5188216
42.7026 153.8693654 -136.0000974
36.27126 -2.460220776e-05 -82.3689584
108.03048 -2.460220776e-05 108.0636296
194.80332 -2.460220776e-05 40.9692766
112.58281 6.277913398 159.9999026
151.14613 31.4324034 153.9999026
-0.0002699995239 42.1305254 105.6528426
184.63174 -2.460220776e-05 13.7051236
-0.0002699995239 37.6452934 -62.3878654
247.15673 35.3441294 153.9999026
56.81714 14.3411684 159.9999026
239.95591 6.768275398 153.9999026
-0.0002699995239 14.1306914 -119.1978704
34.33324 32.4981584 159.9999026
72.82137 -2.460220776e-05 49.4991806
-0.0002699995239 6.728669398 41.5871396
50.90504 61.2086904 159.9999026
232.53621 -2.460220776e-05 40.3885546
223.93969 4.699659398 -157.8455234
163.50455 -2.460220776e-05 109.3964586
119.19217 14.0034564 159.9999026
56.55916 -2.460220776e-05 5.333452599
77.61101 -2.460220776e-05 126.5993366
94.17471 113.6874294 -136.0000974
200.63134 18.4245784 159.9999026
200.4582 -2.460220776e-05 -115.1292354
216.87805 -2.460220776e-05 23.6863296
-0.0002699995239 16.3746524 121.5009066
250.47968 59.7748584 159.9999026
195.29288 62.2917204 159.9999026
29.14406 -2.460220776e-05 -48.1508464
157.43272 65.9969704 -136.0000974
-0.0002699995239 3.242421398 -115.5615214
224.42459 30.7566144 104.3146486
22.56737 -2.460220776e-05 17.4415236
181.92907 -2.460220776e-05 -25.2822654
236.05183 15.4225734 153.9999026
-0.0002699995239 23.6212044 -50.3195844
212.44979 -2.460220776e-05 -17.1369874
176.26867 -2.460220776e-05 126.1101986
40.10754 58.8990404 159.9999026
217.70968 -2.460220776e-05 145.5780166
214.0521 -2.460220776e-05 -71.3119444
-0.0002699995239 23.1719774 -21.3204504
10.5998 67.9999754 157.4824746
-0.0002699995239 36.0831394 -103.3003994
228.74046 44.7656194 153.9999026
148.85519 -2.460220776e-05 33.0306756
6.95008 158.9254474 -140.0000974
96.75889 50.7320494 159.9999026
157.36732 85.1368504 -136.0000974
223.59474 27.7861564 -157.9473134
168.99678 55.8429634 -140.0000974
234.72042 22.4427244 72.6273316
228.93882 -2.460220776e-05 -3.536341401
168.86912 -2.460220776e-05 135.6691676
71.03816 6.672584398 153.9999026
211.2226 35.5057554 159.9999026
87.4197 -2.460220776e-05 11.9410566
166.69312 91.0982904 -140.0000974
225.35938 6.970130398 159.9999026
82.05208 -2.460220776e-05 -136.1981294
53.89044 45.8711034 153.9999026
169.98361 -2.460220776e-05 -105.4081274
157.80404 -2.460220776e-05 136.8797086
111.62505 141.3963804 -140.0000974
205.75808 -2.460220776e-05 -52.3798734
-0.0002699995239 16.9307754 -5.833775401
56.80645 161.7194534 -136.0000974
244.70525 14.2811324 -151.7179524
31.47065 194.0829224 -136.0000974
110.88711 113.8058054 -140.0000974
183.69862 -2.460220776e-05 -97.0410644
205.99104 36.7119874 -136.0000974
4.14375 -2.460220776e-05 103.9028666
137.15334 32.2435694 159.9999026
186.14166 100.3977594 -140.0000974
118.31564 115.9259474 -136.0000974
252.20206 -2.460220776e-05 62.6427666
176.47431 45.9637884 -140.0000974
158.75306 -2.460220776e-05 -50.5958634
234.54101 8.810680398 89.3612016
30.37342 -2.460220776e-05 107.4981096
2.87972 53.7658734 153.9999026
2.41367 195.4765674 -140.0000974
31.49219 1.954544398 153.9999026
237.33416 -2.460220776e-05 95.2038176
250.62012 54.4720954 -140.0000974
122.12262 -2.460220776e-05 18.4445136
228.02353 4.664984398 109.4193416
123.15388 53.4274714 159.9999026
111.50049 -2.460220776e-05 79.4517286
108.33245 -2.460220776e-05 21.0845556
56.16887 139.8159784 -140.0000974
144.25572 -1.229431602 -29.0947634
173.38007 -2.460220776e-05 -34.4506724
205.40597 6.296749398 153.9999026
200.74552 -2.460220776e-05 -138.1006184
232.35893 31.4375584 153.9999026
159.79099 21.4438474 153.9999026
-0.0002699995239 7.647714398 92.2111906
79.01015 26.3881464 159.9999026
168.92202 6.680132398 153.9999026
217.36444 -2.460220776e-05 -137.1770544
136.84372 -2.460220776e-05 106.6159426
243.03593 26.7686834 63.2170696
199.76107 -2.460220776e-05 -88.9134854
200.52534 -2.460220776e-05 -147.9646084
252.21819 25.5923604 18.7750186
249.20647 11.9051144 28.0443096
40.93115 170.8013144 -136.0000974
246.46295 43.2784934 36.4877916
209.74183 -2.460220776e-05 -5.212246401
107.14847 48.7065844 153.9999026
84.02401 56.4544084 159.9999026
213.83921 40.0869684 153.0752026
184.26121 -2.460220776e-05 4.492464599
213.82541 -2.460220776e-05 85.3137416
245.77862 26.9930704 38.5939166
234.91261 51.2639084 -154.6075974
198.2534 -2.460220776e-05 -126.2530734
65.23981 117.1738704 -140.0000974
221.74459 11.4777484 112.5630216
-0.0002699995239 40.4311264 50.7537306
164.00566 -2.460220776e-05 60.7762856
233.61291 10.2940154 -154.9911174
136.3617 13.4267864 153.9999026
23.80038 139.8217284 -140.0000974
53.11453 -2.460220776e-05 77.1327396
203.53032 -2.494980602 153.9999026
76.42016 12.8444804 153.9999026
215.72281 10.9913114 131.0979036
-0.0002699995239 30.8798544 47.5857096
105.88305 158.5052504 -139.6387684
199.12155 43.1463434 159.9999026
-0.0002699995239 44.2092144 17.3848666
189.58608 14.4180794 153.9999026
-0.0002699995239 45.3750834 -133.6891674
226.92429 65.7010194 153.9999026
36.76747 -2.460220776e-05 68.6004596
244.61743 60.6593664 -157.9995734
219.16968 35.6857904 -136.0000974
188.03894 62.6861654 -136.0000974
245.17169 28.2818124 -140.0000974
173.97612 -2.460220776e-05 6.959251599
-0.0002699995239 17.2164414 47.9525836
-0.0002699995239 7.269463398 -86.5579924
130.78605 -2.460220776e-05 101.6860306
56.08517 -2.460220776e-05 -113.6252884
209.1844 62.2802284 153.9999026
63.22667 29.0317164 159.9999026
185.54187 43.9854394 153.9999026
-0.0002699995239 14.3175704 -67.1243244
227.84405 59.0478374 -136.0000974
42.2023 189.6904744 -140.0000974
48.57614 -2.460220776e-05 31.8790446
164.09039 119.3820664 -140.0000974
66.55901 -2.460220776e-05 105.2858406
242.17114 67.9999754 158.3193806
250.88328 3.694091398 153.9999026
235.22718 47.3905524 -140.0000974
36.82236 16.1837714 159.9999026
228.60132 -2.460220776e-05 -67.2787964
0.9699700005 7.728924398 159.9999026
49.34753 53.5213264 159.9999026
252.0393 49.3461404 35.5074816
36.2084 -2.460220776e-05 -12.8658974
236.38833 44.7569824 159.9999026
4.50799 220.9960083 -140.0000974
237.98957 53.0910134 153.9999026
244.3226 -2.460220776e-05 -32.2086594
6.96241 15.3656474 159.9999026
74.66718 107.2635834 -139.0562894
153.95087 -2.460220776e-05 -128.4416754
130.8615 132.7426394 -136.0000974
183.00993 -2.460220776e-05 -71.4033814
152.31637 118.7869074 -136.0000974
199.19654 58.1924334 -136.0000974
34.04725 52.7754154 153.9999026
28.59216 159.8063924 -136.0000974
126.75001 19.7141934 159.9999026
100.51299 104.1420144 -136.0000974
193.62605 39.6034014 153.9999026
136.27815 104.7248694 -140.0000974
177.10267 -2.460220776e-05 -151.7610804
123.11694 -2.460220776e-05 69.8714656
53.30551 -2.460220776e-05 -55.5432754
211.04876 -1.307955602 159.9999026
-0.0002699995239 49.9032174 -1.502377401
244.75116 -2.460220776e-05 48.4884586
24.43419 -2.460220776e-05 -112.6191394
5.82074 -2.460220776e-05 -53.4582614
164.91228 -2.460220776e-05 -44.7910894
219.42873 79.0786944 -140.0000974
151.39589 108.8882484 -140.0000974
234.56831 38.5373004 73.0958016
96.23135 -2.460220776e-05 -148.1592474
199.15692 48.7177054 153.9999026
169.62393 67.9999754 155.3527236
160.23011 -2.460220776e-05 152.4767906
162.59198 -2.460220776e-05 -84.1944184
-0.0002699995239 35.6551294 18.2772756
17.99946 21.4404544 153.9999026
78.91814 173.1553724 -136.0000974
41.74115 -2.460220776e-05 -65.2958484
217.15043 -2.460220776e-05 -24.4770064
50.98485 31.0300464 153.9999026
-0.0002699995239 6.889743398 -4.605305401
210.50723 -2.460220776e-05 132.1952296
146.31726 65.6651574 159.9999026
215.84996 -2.460220776e-05 -56.2426324
208.02928 -2.460220776e-05 -32.7603794
59.10894 -2.460220776e-05 -158.8268534
-0.0002699995239 39.9553234 147.1168376
55.01239 -2.460220776e-05 99.8927446
182.08245 -2.460220776e-05 -46.2882114
28.77209 39.5174644 153.9999026
16.12118 6.590389398 159.9999026
71.439 57.1690664 159.9999026
85.95052 -2.460220776e-05 65.4052796
211.18766 -2.460220776e-05 -41.9416634
39.18691 -2.460220776e-05 124.2419736
187.27899 -2.460220776e-05 100.3395586
135.27129 67.9999754 154.9883916
210.65522 48.5108554 -136.0000974
-0.0002699995239 41.7119134 -1.161141401
64.32344 136.7937814 -140.0000974
91.5894 -2.481086602 2.347477599
170.42739 -2.460220776e-05 -78.3433974
230.61694 16.8348124 85.2563666
102.58069 -2.460220776e-05 66.6224186
130.52213 107.2975294 -136.0000974
206.67068 66.5928114 159.9999026
68.1593 124.0321824 -140.0000974
173.04075 -2.460220776e-05 107.6168716
31.97728 58.9421734 159.9999026
14.87602 -2.460220776e-05 127.7959816
153.64851 94.5312204 -140.0000974
182.30575 31.2717804 153.9999026
119.57497 27.5830264 159.9999026
251.92288 1.767850398 35.8652526
0.5208000005 -2.460220776e-05 10.9889226
33.47069 -2.460220776e-05 -101.8843694
221.86064 17.0754594 -140.0000974
164.03797 48.3359754 153.9999026
134.81245 -2.460220776e-05 39.7114556
186.81659 25.7921664 159.9999026
156.72174 -2.460220776e-05 -120.3812174
106.87663 20.7075484 153.9999026
149.68217 -2.460220776e-05 141.4897536
161.83771 39.6048664 159.9999026
147.16599 33.0707474 159.9999026
61.72785 -0.5807636022 153.9999026
-0.0002699995239 39.8743294 65.7370416
43.37371 -2.460220776e-05 94.2602346
56.51019 -2.460220776e-05 37.2083896
217.23897 47.6178074 153.9999026
103.97057 -2.460220776e-05 132.7526116
23.51626 -2.460220776e-05 84.8986726
133.75959 98.8499204 -136.0000974
140.30837 40.0117674 153.9999026
61.54216 -2.460220776e-05 -62.1656944
-0.0002699995239 27.5203314 -93.5796914
74.22713 122.6640214 -136.0000974
21.63717 13.4650384 159.9999026
109.58746 -2.460220776e-05 32.7851976
89.67347 22.8973844 159.9999026
243.22571 34.2538514 46.4510796
83.60337 60.8227724 153.9999026
18.75735 61.7441634 159.9999026
210.30628 -1.309079602 -161.8686564
244.83792 45.6268924 57.6711076
245.83484 -2.460220776e-05 -56.3697774
86.49339 148.0914414 -136.0000974
135.84809 23.2306694 153.9999026
118.68604 -2.460220776e-05 139.4335566
137.97208 131.0849254 -136.0000974
-0.0002699995239 43.6222544 -44.8813994
195.11313 32.8227954 -136.8488714
89.67596 11.7608344 153.9999026
90.00032 32.1346454 159.9999026
179.53861 18.7877024 153.9999026
177.46573 -2.460220776e-05 -122.2489944
205.68658 46.2928504 159.9999026
140.82663 52.7741524 159.9999026
230.76805 20.9440094 -162.0862814
109.319 44.2908714 159.9999026
154.11468 -2.460220776e-05 -22.8247144
98.82741 -0.1256566022 153.9999026
212.01323 12.1281804 143.6266266
92.83858 -2.460220776e-05 115.6101036
241.13867 54.6087564 -152.7703914
240.03822 -2.460220776e-05 -143.3295794
207.6947 -2.460220776e-05 121.6283856
187.25485 -2.460220776e-05 75.4953556
-0.0002699995239 28.3917904 -146.2441154
54.62592 58.8790554 153.9999026
204.53538 -2.460220776e-05 -95.2675974
237.83165 -2.460220776e-05 -150.9245824
129.72514 38.3119294 159.9999026
212.53049 -2.460220776e-05 -97.2367944
76.36789 39.9892654 159.9999026
140.98236 79.2746304 -140.0000974
132.02284 -2.460220776e-05 53.8481096
68.4091 24.9499944 153.9999026
182.09089 -2.460220776e-05 -86.9042474
72.06464 -2.460220776e-05 38.0544576
19.54887 -2.460220776e-05 -107.2804674
185.84464 -2.460220776e-05 -132.7453254
74.52589 45.9092084 153.9999026
237.87852 -2.460220776e-05 57.7400856
98.54868 29.6777554 153.9999026
155.70961 -2.460220776e-05 -58.6779354
138.73211 -2.460220776e-05 -144.0165884
157.80377 -2.460220776e-05 -93.5173174
96.0992 46.7882884 153.9999026
215.17653 31.2980554 132.7771546
92.68983 157.7244854 -140.0000974
119.11847 141.8174834 -136.0000974
197.85947 -2.460220776e-05 -105.2507944
-0.0002699995239 38.1827994 -13.4169504
151.9448 -2.460220776e-05 148.6723466
196.83438 46.4519134 -140.0000974
52.96058 11.2925794 153.9999026
181.15644 -2.460220776e-05 -143.4316304
-0.0002699995239 15.0579444 133.8319346
233.36777 -2.460220776e-05 -91.7940504
73.81718 32.5250614 153.9999026
248.56535 66.7022464 -150.5789024
202.07166 68.9279604 -136.0000974
222.80339 -2.460220776e-05 -57.9573314
144.3419 134.3555104 -136.0000974
214.63062 30.1545174 -136.0000974
20.5591 49.5027534 159.9999026
147.52792 23.4326524 153.9999026
132.79203 -2.460220776e-05 76.6978986
178.6884 60.8959244 159.9999026
43.40327 42.7319924 153.9999026
123.55052 -2.460220776e-05 113.9719466
198.97777 -2.460220776e-05 -14.3768454
47.36334 -2.460220776e-05 -0.8264954011
5.1018 44.7188204 153.9999026
16.69481 -2.460220776e-05 6.247701599
116.44655 36.9337334 153.9999026
-0.0002699995239 44.7681674 39.3554196
-0.0002699995239 47.7107454 -29.1064764
201.35231 27.9453914 159.9999026
235.90524 -2.460220776e-05 152.4106676
191.80146 1.837670398 159.9999026
139.65837 -2.460220776e-05 63.6805266
120.97861 31.3747974 153.9999026
53.6672 125.8874344 -136.0000974
-0.0002699995239 42.9350484 -83.7121544
223.90751 39.8922174 122.0882076
252.34114 60.1558604 -149.4647274
-0.0002699995239 17.7553644 -133.8551984
238.06782 -2.460220776e-05 102.7645286
178.05335 -2.460220776e-05 22.5116446
-0.0002699995239 39.5440684 126.9855136
173.07431 73.1260754 -136.0000974
248.54719 20.8652424 46.2551256
62.01073 -2.460220776e-05 -86.0173844
177.31522 114.3571044 -137.8206644
80.39023 46.0257134 159.9999026
251.0428 38.3031934 38.5746026
142.61917 -2.460220776e-05 74.2694036
54.90704 -2.460220776e-05 65.9904896
202.00502 -2.460220776e-05 -58.6912284
34.48482 66.6131744 159.9999026
144.35067 64.1961834 -139.3634034
135.33792 3.876309398 153.9999026
10.0394 -2.460220776e-05 -156.8377254
7.27187 19.0560854 153.9999026
55.96522 -2.460220776e-05 145.5539706
3.29804 -2.460220776e-05 -39.1588014
135.19599 -2.460220776e-05 115.3894786
211.7555 38.9237314 143.3061286
71.89624 66.5523684 159.9999026
-0.0002699995239 14.9365854 30.2939356
249.22589 6.361537398 -150.3839884
224.59119 20.7718014 103.8017146
-0.0002699995239 34.4877294 -76.4426094
144.68082 57.2617604 153.9999026
-1.95478 49.9999754 143.5273146
169.32667 25.5754384 153.9999026
85.42432 42.8777524 153.9999026
214.80004 22.6137324 150.1177646
165.79147 -2.460220776e-05 -144.4927834
184.84242 69.3760234 -140.0000974
226.05704 1.703257398 115.4715246
230.48567 54.4632024 153.9999026
116.72613 81.2693434 -139.2574424
55.6132 67.0663704 153.9999026
43.74756 184.0142824 -136.0000974
160.3577 31.6039464 159.9999026
244.40099 35.9379134 59.0159576
79.95547 63.2866834 159.9999026
9.71697 55.8589544 153.9999026
78.32552 150.1160334 -140.0000974
151.15493 4.468703398 153.9999026
76.58693 -2.460220776e-05 -159.7049864
224.523 -2.460220776e-05 140.9257146
176.833 -2.460220776e-05 -74.9211204
-0.0002699995239 3.455238398 121.4221886
106.59967 125.5029444 -140.0000974
94.3673 -2.460220776e-05 105.4196846
144.40413 -2.460220776e-05 -123.1997224
203.38235 85.6997484 -140.0000974
22.49432 -2.460220776e-05 68.1741456
53.62967 -2.412735602 153.9999026
-0.9749999995 67.9999754 154.1194466
204.14059 18.1707014 153.9999026
106.42577 67.4472174 159.9999026
242.41612 60.2233334 159.9999026
5.72704 -2.460220776e-05 -18.6710354
9.96226 26.1760724 153.9999026
104.84424 61.7655764 153.9999026
4.3845 -2.460220776e-05 87.6026286
248.82818 16.6703214 -156.7570534
233.66704 62.8119674 -136.0000974
103.08963 35.8302344 159.9999026
213.08818 81.8829354 -140.0000974
78.07533 33.2724324 159.9999026
240.13423 34.3798644 -136.0000974
163.20728 85.0884374 -140.0000974
213.5415 16.3201914 137.8089466
41.58383 -2.460220776e-05 11.6455406
-1.49691 4.316767398 138.7186856
174.4451 49.3887894 159.9999026
-0.0002699995239 20.7142164 57.6500226
219.4316 16.2708184 119.6811486
144.70058 -2.460220776e-05 -137.2547654
-1.54574 -2.460220776e-05 25.0407486
32.36358 148.3126034 -140.0000974
231.47142 2.848546398 82.6288576
216.87175 26.8387054 143.7417986
213.77364 31.6979084 153.2770346
27.29727 206.7328924 -136.0000974
230.04292 29.2062964 -156.0445624
27.13366 -2.460220776e-05 149.0681176
215.84031 20.3417204 130.7340436
237.12665 49.9999754 72.0527086
182.41069 9.178209398 159.9999026
77.1094 -2.460220776e-05 -140.9476584
-0.0002699995239 6.289910398 -79.7759024
194.46692 -2.460220776e-05 148.9682716
117.52382 45.3383984 159.9999026
46.68264 170.3404714 -140.0000974
195.11603 -2.460220776e-05 -98.5895764
244.5442 9.251113398 42.3936616
14.89521 60.3420234 153.9999026
252.33148 -2.460220776e-05 115.0732566
225.73826 -2.460220776e-05 28.4174386
227.06467 25.8976314 96.1892806
55.58807 32.3243654 159.9999026
58.22505 -2.460220776e-05 -138.6304354
220.86579 -2.460220776e-05 98.0892366
146.85523 -2.460220776e-05 -154.4377634
5.41396 57.8692234 159.9999026
219.40172 -2.460220776e-05 -15.0653444
52.94379 -2.460220776e-05 -48.7354414
80.82742 18.9014794 159.9999026
90.03713 -2.460220776e-05 -159.3228544
61.79095 -2.460220776e-05 91.6378786
118.81765 102.6009154 -140.0000974
126.71282 -2.460220776e-05 38.4605886
36.69979 -2.460220776e-05 -93.9456734
121.57717 125.5431584 -136.0000974
53.0429 180.4082074 -136.0000974
60.06651 -2.460220776e-05 -152.1041534
59.26833 116.7807354 -136.5909314
137.30855 -2.460220776e-05 28.3895716
-0.0002699995239 29.3155714 -118.3607414
70.25859 -2.460220776e-05 -70.3509084
20.33339 173.2166344 -140.0000974
231.01894 50.9752064 -162.0122474
22.10848 -2.460220776e-05 98.3582086
211.97277 33.8340314 -161.3767644
95.61496 12.7485734 159.9999026
237.23241 23.7325194 64.8962616
-0.0002699995239 13.7308124 -89.5647514
155.86084 -2.460220776e-05 -83.6888114
202.27851 -2.460220776e-05 -6.371633401
185.05868 -2.460220776e-05 39.4288666
237.0306 43.4725314 65.5176026
232.94995 60.5668264 -161.4424404
242.07787 39.6667234 -140.0000974
94.50525 -2.460220776e-05 142.0804936
85.43362 -2.460220776e-05 89.9870306
225.35337 8.949762398 117.6373276
111.43195 60.2555804 153.9999026
22.15974 -2.460220776e-05 2.338942599
17.56355 184.9330244 -140.0000974
116.18167 -2.460220776e-05 153.4916226
33.97359 -2.460220776e-05 -53.5466524
165.17359 114.1245464 -136.0000974
133.86966 60.1518204 159.9999026
172.45951 -2.460220776e-05 -8.023840401
72.69407 -2.460220776e-05 -148.6980284
79.29825 54.4072934 153.9999026
40.43804 -2.460220776e-05 83.2385576
32.55347 -2.460220776e-05 -75.6556844
180.04175 104.9940914 -140.0000974
176.24332 -2.460220776e-05 -60.4635134
123.43831 8.349926398 153.9999026
134.7704 19.2575904 159.9999026
15.2929 -2.460220776e-05 121.1349556
216.88171 47.0744394 -159.9282154
-0.0002699995239 5.915584398 -15.6864204
51.60065 40.1097524 159.9999026
-0.0002699995239 38.3553044 74.9121706
-0.0002699995239 9.596743398 -45.1150094
35.76394 22.6849964 153.9999026
242.5005 13.5869254 -136.0000974
90.65767 34.9017594 153.9999026
118.99101 -2.460220776e-05 37.3906286
138.26861 4.549500398 159.9999026
239.95511 22.6257874 56.5166746
80.46255 165.4717464 -140.0000974
174.79193 -2.460220776e-05 -84.9558784
210.12541 10.2498784 -161.9218894
225.79125 49.9999754 115.3158016
-0.0002699995239 23.5411374 70.5766876
6.9741 -2.460220776e-05 -29.1456964
228.77043 0.3747193978 159.9999026
168.84274 -2.460220776e-05 -71.9164854
-0.0002699995239 26.9075944 -156.1806704
10.10889 -2.460220776e-05 55.9433566
126.94413 -0.3690756022 159.9999026
223.86767 20.4668604 122.2105576
251.03668 46.9826304 22.4112036
252.40325 48.4464424 153.9999026
5.49636 -2.460220776e-05 146.6999966
134.87131 -2.460220776e-05 85.5179526
223.0961 12.2694574 124.5850136
31.79492 -2.460220776e-05 72.9445706
192.5391 -2.460220776e-05 -29.7846844
243.2392 -2.460220776e-05 -127.5522144
100.41722 22.0659874 153.9999026
175.26355 61.2856904 153.9999026
64.13128 -2.460220776e-05 -79.2613964
-1.30729 -2.460220776e-05 -82.9107974
106.90992 12.9050484 159.9999026
131.57354 45.3078504 159.9999026
-0.0002699995239 8.174743398 -101.7004674
204.53255 -2.460220776e-05 61.5186986
179.87623 87.5352524 -140.0000974
242.31491 19.5900554 49.2539326
70.9525 145.6099794 -140.0000974
-0.0002699995239 21.8245404 7.493109599
80.63142 119.7411144 -136.0000974
224.33539 46.8818194 -136.0000974
179.9769 22.5149074 159.9999026
192.03965 -2.460220776e-05 20.8663156
-1.23459 179.7203614 -136.0000974
181.95464 80.4398414 -136.0000974
-0.3345399995 49.9999754 13.9505746
148.48789 95.2978574 -136.0000974
27.01638 154.3297264 -140.0000974
246.88752 58.1280554 -136.0000974
173.62085 61.9643694 -136.0000974
70.99077 22.6160694 159.9999026
188.928 53.7196184 159.9999026
122.06561 -2.460220776e-05 54.5209596
-0.0002699995239 27.2996894 -111.1101074
219.77435 -2.460220776e-05 -47.9891164
118.42473 64.4857474 153.9999026
-0.0002699995239 33.2795124 -32.8166644
-0.0002699995239 0.1715703978 96.7140416
203.38572 57.1915094 153.9999026
217.32637 -2.460220776e-05 -115.2689994
244.82203 36.4851614 159.9999026
16.11111 30.1103134 153.9999026
229.02567 -2.460220776e-05 92.9669456
177.88593 -2.460220776e-05 150.4921616
15.47305 -2.460220776e-05 51.5224646
73.94979 -2.460220776e-05 86.6767566
63.21141 62.4402374 153.9999026
30.75956 12.4629934 153.9999026
222.35874 34.1558954 153.9999026
70.15964 14.6812164 153.9999026
1.71413 -2.460220776e-05 -146.1549124
-0.0002699995239 34.7566264 -96.9168324
39.77503 29.4716834 153.9999026
78.45291 -2.460220776e-05 70.2718276
215.674 16.7540334 147.4279346
124.25608 81.7769464 -136.0000974
212.63474 -2.460220776e-05 -155.2044924
140.44437 -2.460220776e-05 -6.807487401
73.19706 139.1439354 -140.0000974
233.04324 34.3104104 77.7893736
177.88704 34.9198634 159.9999026
58.70645 174.6235574 -140.0000974
-0.0002699995239 12.7563974 87.5320466
212.55374 -2.460220776e-05 52.8104556
5.28702 168.4375894 -136.0000974
91.6871 97.4075344 -140.0000974
96.65922 19.9961844 159.9999026
4.65934 -2.460220776e-05 -97.0711894
25.79848 -2.460220776e-05 -63.1340264
237.74407 9.840953398 79.5033006
114.43133 96.5050564 -136.0000974
223.2066 27.8062844 124.2452296
187.40993 46.0942434 -136.0000974
234.61944 56.4649684 -140.0000974
87.4176 135.0842734 -140.0000974
238.38465 9.321692398 61.3507176
35.30287 -2.460220776e-05 136.6263086
44.52427 -2.460220776e-05 -58.2962964
246.78557 32.9671354 51.6769756
123.92315 -2.460220776e-05 -144.8321904
219.00848 -2.460220776e-05 71.6568336
231.09669 -2.460220776e-05 -126.4038994
62.12588 148.8081984 -140.0000974
43.13549 40.3959274 159.9999026
-0.0002699995239 27.9123574 64.2739266
100.82232 135.8274164 -136.0000974
212.31432 -2.460220776e-05 92.5482256
-0.0002699995239 43.8125464 -115.5724564
79.02587 6.955119398 153.9999026
225.98938 29.2142214 159.9999026
184.28319 53.1637354 153.9999026
178.27946 -2.460220776e-05 -19.9996814
170.73665 46.8185474 153.9999026
248.0421 48.4647994 47.8096136
223.3973 39.3103154 107.4765056
-0.0002699995239 20.2527994 126.5991116
142.46312 126.5199914 -136.0000974
69.93939 50.9435744 159.9999026
239.73416 -2.460220776e-05 -36.6692864
16.18443 207.5498214 -140.0000974
233.58794 -2.460220776e-05 76.6648486
136.38281 30.1743804 153.9999026
70.49072 165.5237704 -136.0000974
234.01408 7.190843398 74.8022616
-0.0002699995239 11.3318094 -144.3995464
194.15385 -2.460220776e-05 -6.855844401
6.54152 198.2653404 -136.0000974
38.38849 57.4624004 153.9999026
192.86048 49.7971334 153.9999026
244.74822 -2.460220776e-05 29.3673366
18.63711 -2.460220776e-05 22.5890406
29.94939 67.9999754 154.0388826
198.52426 31.4493804 153.9999026
231.64789 65.1253524 -155.5709644
-0.0002699995239 43.8488834 -95.6501444
219.37194 20.4404204 136.0469426
52.0435 166.5333784 -140.0000974
51.6852 18.7132614 159.9999026
55.09299 -2.460220776e-05 -82.1443884
15.11125 43.9464624 153.9999026
222.1999 -2.460220776e-05 132.0675006
61.59731 131.0509764 -140.0000974
2.67178 -2.460220776e-05 56.0648896
211.71144 49.9999754 143.7992396
203.82191 79.1835414 -136.0000974
249.39071 5.585493398 27.4783096
148.47112 47.2323614 159.9999026
29.89677 -2.460220776e-05 85.2229676
99.63501 118.3466494 -140.0000974
64.41819 46.7257734 153.9999026
234.16483 16.6999944 90.5192566
48.24237 181.4701264 -140.0000974
109.51161 -2.460220776e-05 -147.8794264
96.58648 144.2830014 -136.0000974
-0.0002699995239 29.0832274 7.973556599
244.2921 62.0420844 -151.8398674
12.02229 -2.460220776e-05 79.1988686
59.26047 -2.460220776e-05 -124.8330304
231.93658 43.3644064 97.3774186
229.73728 34.1349354 104.1460356
69.87694 40.5442494 159.9999026
123.34568 67.9999754 155.7479956
238.98913 28.6608584 159.9999026
8.04335 38.2631654 159.9999026
67.15171 -2.460220776e-05 74.1926316
72.66115 -2.460220776e-05 150.9102226
-0.0002699995239 45.8319254 63.3451196
74.43752 5.163588398 159.9999026
7.93599 1.609586398 159.9999026
-0.0002699995239 31.3991164 -61.8105574
141.97472 100.6690044 -136.0000974
51.52239 -2.460220776e-05 -39.4999764
190.68528 96.0899804 -140.0000974
187.04547 8.695761398 153.9999026
218.74883 44.7107574 121.7830496
112.53008 -2.460220776e-05 112.3983236
215.55751 45.0306694 -140.0000974
82.97804 -2.460220776e-05 20.8441796
247.36787 -2.460220776e-05 142.4896456
15.96674 -2.460220776e-05 141.1794366
94.3092 127.0694794 -140.0000974
245.42576 -2.460220776e-05 36.9585326
244.25986 10.3834574 59.4498536
80.8973 109.6600324 -136.0000974
50.58463 131.6340834 -140.0000974
170.89425 83.8871064 -136.0000974
2.98124 -2.460220776e-05 -135.6764434
185.01598 2.418994398 159.9999026
233.93126 21.2803894 153.9999026
239.64493 42.1040594 73.6535596
145.77611 82.9403824 -136.0000974
13.91978 -2.460220776e-05 93.3409546
46.13312 9.954976398 159.9999026
184.74097 -2.460220776e-05 65.9758716
72.7897 -1.365183602 -40.2917604
-0.6019499995 49.9999754 -107.1406764
25.99499 -2.460220776e-05 37.4177976
186.88013 40.8405374 159.9999026
14.70237 51.5863474 159.9999026
225.13438 3.831708398 102.1321856
183.79535 -2.460220776e-05 49.5484376
234.16463 -2.460220776e-05 -29.0151394
49.02826 -2.460220776e-05 -148.1795684
106.52173 87.5761014 -139.7752104
-0.0002699995239 42.7738504 -65.8797844
217.1793 -2.460220776e-05 59.6542056
204.65993 58.1198364 159.9999026
114.19675 153.3670264 -136.8662624
13.26655 158.0634394 -136.0000974
-0.0002699995239 28.0049274 107.2913296
204.44039 -2.460220776e-05 -69.9541234
217.61783 61.3513204 -136.0000974
32.03091 34.2507484 153.9999026
233.22127 14.4658834 77.2410636
127.99034 144.8419974 -136.0166104
114.91503 -2.460220776e-05 59.4654986
148.15767 -2.460220776e-05 -109.7110364
-0.0002699995239 24.7699454 86.1386536
238.33616 -2.460220776e-05 -100.6468294
217.35241 38.1704584 -159.7893204
131.44315 77.7787294 -140.0000974
-0.0002699995239 11.0340544 114.6624906
155.64071 57.3157364 159.9999026
235.82897 61.5005854 159.9999026
12.44982 -2.460220776e-05 133.4719726
33.51129 142.0937624 -140.0000974
-1.09912 -0.3202616022 153.9999026
228.3644 34.1799734 92.1892796
233.05692 -2.460220776e-05 -55.1407284
226.43009 31.7124314 98.1424056
173.37445 54.1610124 -136.0000974
71.21388 173.6391654 -140.0000974
238.04786 3.437580398 -159.9381354
176.16597 30.7604294 153.9999026
242.43619 -2.460220776e-05 -112.7448914
-0.0002699995239 38.7605824 88.9473846
162.47914 71.1340104 -140.0000974
58.72432 8.503058398 159.9999026
206.35322 -2.460220776e-05 -152.4763974
35.44886 173.8598294 -140.0000974
2.25194 7.646566398 153.9999026
1.46949 -2.460220776e-05 -66.8510654
180.07469 52.3712034 -136.0000974
43.75915 -2.460220776e-05 46.8281736
-0.0002699995239 38.8220964 -137.9454654
24.04342 182.3060154 -136.0000974
67.33626 158.7310574 -140.0000974
70.77941 -2.460220776e-05 16.6813836
232.32066 19.4629024 96.1950206
24.62351 31.6197234 153.9999026
-0.0002699995239 4.764007398 -151.9794164
65.30977 -2.460220776e-05 39.5128376
-0.0002699995239 40.2109964 33.1626576
223.29509 53.7654384 -158.0357364
103.31848 -2.460220776e-05 94.0323346
86.88515 6.324692398 153.9999026
113.95521 108.0666514 -136.0000974
219.16976 -2.460220776e-05 -152.2181054
97.55773 29.0858474 159.9999026
147.92033 40.9335134 153.9999026
22.90568 -0.1889476022 153.9999026
114.81772 -2.460220776e-05 134.7138596
211.59629 32.0436374 143.7959816
235.93307 42.9865424 85.0774896
232.02147 75.3273984 -136.0000974
167.02478 10.2101614 159.9999026
85.81716 106.0749144 -136.0000974
221.67418 -2.460220776e-05 -28.5481524
179.92887 -2.460220776e-05 -37.5564984
11.60777 194.8829284 -140.0000974
54.11532 145.5394884 -140.0000974
172.56941 -2.460220776e-05 74.6979666
29.90492 -2.460220776e-05 10.2290546
40.20174 162.0031444 -140.0000974
152.87106 42.2348424 159.9999026
226.10983 46.5375884 99.1282396
15.21606 -2.460220776e-05 -131.6619374
-0.0002699995239 32.9683914 23.7086706
-1.99027 49.9999754 71.4824146
235.77559 -2.460220776e-05 135.4297636
247.75459 11.0874854 48.6942686
249.98535 5.799153398 41.8284756
14.90868 -2.460220776e-05 -89.4135104
199.88059 -2.460220776e-05 44.2511726
66.39715 18.6870934 159.9999026
139.07739 63.2168254 159.9999026
229.11733 40.7884284 106.0541246
36.81412 150.3202634 -136.0000974
143.17877 9.514578398 153.9999026
41.89046 65.6916154 153.9999026
238.96623 49.9345034 -136.0000974
103.57935 -2.460220776e-05 138.9732536
172.63855 65.6007394 159.9999026
247.96722 29.3341194 153.9999026
231.11957 -2.460220776e-05 4.781257599
184.48523 63.8248334 153.9999026
95.13155 -2.460220776e-05 29.5600396
80.84911 -2.460220776e-05 102.6273086
126.04741 112.8728834 -140.0000974
166.51149 -2.460220776e-05 -123.4088504
19.18913 43.6453474 159.9999026
215.11532 5.306445398 132.9675216
165.90923 -1.268277602 153.9999026
-0.0002699995239 38.8207194 112.6567826
11.00315 207.2268534 -136.0000974
109.50583 -2.460220776e-05 97.3115276
89.85805 151.0559884 -140.0000974
12.56228 13.1876954 159.9999026
222.74872 44.0438364 153.9999026
240.50619 4.925349398 54.8220386
91.19486 1.837928398 153.9999026
194.60027 -2.460220776e-05 -60.6682954
55.75964 -2.460220776e-05 113.2921796
196.48475 -2.460220776e-05 92.3923476
192.88371 89.1812784 -136.0000974
81.78982 -2.460220776e-05 3.086197599
93.86821 165.4195744 -140.0000974
0.7796600005 -2.460220776e-05 -33.2654734
95.73798 99.3809564 -136.0000974
0.4884500005 206.1340824 -136.0000974
240.71891 30.1655064 70.3481286
243.418 18.4029154 -140.0000974
45.67025 137.0050674 -140.0000974
132.28399 126.6978554 -136.0000974
50.17004 -2.460220776e-05 37.6328636
220.78006 5.743083398 115.5329796
-0.0002699995239 44.5317314 -159.3683944
217.58336 18.4072894 125.3694616
86.09343 30.8445434 153.9999026
-1.99621 28.3021954 152.9999026
38.56838 -2.460220776e-05 -58.2323684
237.05724 30.1694954 81.6175536
161.0569 63.4808944 -140.0000974
139.94915 -2.460220776e-05 91.2727356
238.4307 19.2222224 61.2082396
198.23323 99.6835894 -136.0000974
115.78569 90.2386224 -136.0000974
153.22714 -2.460220776e-05 -89.0147964
-0.0002699995239 8.638118398 -113.0747594
244.20604 -2.460220776e-05 -11.3220584
161.61197 110.4013034 -140.0000974
78.97396 114.7011294 -140.0000974
206.40113 52.8639014 -140.0000974
109.95668 128.3176194 -136.0000974
-1.90857 14.1263884 148.2402526
-0.0002699995239 10.6422274 50.9300916
225.36701 28.9985924 117.5962106
215.53015 -2.460220776e-05 45.3979706
-0.0002699995239 5.069289398 53.7877966
-0.0002699995239 47.2363184 -78.2013634
47.72296 -2.460220776e-05 106.6960786
14.19499 -2.460220776e-05 -104.7630944
47.05672 151.9691554 -140.0000974
127.31508 91.3513984 -136.0000974
214.55119 37.5519544 134.7018606
-0.4071299995 -2.460220776e-05 70.4391816
213.29352 4.263595398 -160.9870324
211.91691 -2.460220776e-05 -10.7044564
47.63108 -2.460220776e-05 81.1879856
196.84931 49.2270084 159.9999026
88.67405 163.7870414 -136.0000974
171.53106 77.1641134 -140.0000974
192.31227 42.8330644 -136.0000974
-0.0002699995239 17.8783304 72.1808926
200.56202 -2.460220776e-05 -49.0342194
220.99543 51.4046554 -140.0000974
174.85585 39.9591714 159.9999026
244.03691 4.036480398 -140.0000974
117.83158 145.9285714 -140.0000974
251.19061 29.2384594 38.1196706
-0.0002699995239 30.0822474 32.5139216
140.26125 -2.460220776e-05 112.4104796
66.44039 2.929383398 153.9999026
134.42367 62.2704224 153.9999026
197.6592 -2.460220776e-05 -83.4292414
231.27176 7.838941398 99.4223876
20.98315 -2.460220776e-05 -129.0837104
227.21162 36.6666074 111.9192056
129.14341 139.9210524 -140.0000974
20.55434 11.9599814 153.9999026
97.79339 -2.460220776e-05 124.9472696
-0.0002699995239 33.5477404 96.4489196
205.24868 23.5744604 159.9999026
159.4256 100.4310964 -136.0000974
106.64177 114.2982694 -136.0000974
246.6244 47.8458314 -140.0000974
169.78614 -2.460220776e-05 -56.7746044
7.36425 63.3853814 159.9999026
247.605 4.674480398 32.9742986
68.29304 138.3484054 -136.0000974
32.54184 44.5161934 153.9999026
20.90039 38.0574304 159.9999026
91.24157 -2.460220776e-05 19.8931516
244.00655 40.2641694 153.9999026
222.50601 12.9423934 159.9999026
23.40945 -2.460220776e-05 129.6756796
38.54364 -2.460220776e-05 -49.5512414
131.39265 19.4646154 153.9999026
89.07949 141.6070514 -136.0000974
138.7363 -2.460220776e-05 101.1055006
139.2557 69.1691614 -140.0000974
-0.0002699995239 49.6336324 98.6495756
97.22898 138.0584424 -140.0000974
119.3506 134.6634764 -136.0000974
244.51 62.7656284 -140.0000974
156.64072 -2.460220776e-05 12.0383466
107.08207 -2.460220776e-05 145.5369776
245.49576 14.5975864 55.6463336
210.21801 28.4757514 -140.0000974
245.26463 27.7814964 -151.5528894
250.07049 17.8057724 41.5668666
158.76688 -2.460220776e-05 -152.7821454
29.58137 188.0588434 -136.0000974
143.16719 2.413804398 153.9999026
-0.0002699995239 25.1089664 -15.8623454
65.64793 -2.460220776e-05 27.1027686
63.48643 55.3698784 159.9999026
39.99238 33.6903144 159.9999026
5.24331 22.7798734 159.9999026
189.59927 30.8596524 159.9999026
171.0503 93.2275584 -136.0000974
-0.0002699995239 29.5198684 2.036142599
-0.0002699995239 42.7800494 5.996349599
-0.0002699995239 13.0691334 -1.543439401
150.74988 -2.460220776e-05 7.959782599
-0.0002699995239 31.0998544 41.8197976
240.10521 36.5306224 72.2369806
-0.0002699995239 19.8810844 -116.5171484
202.92486 91.7859994 -140.0000974
14.20356 202.4307074 -136.0000974
77.40548 -2.460220776e-05 146.4233406
-0.0002699995239 21.5998164 -145.8295494
225.81446 -2.460220776e-05 -72.3231424
104.84683 131.1884444 -140.0000974
66.3862 67.9999754 158.6555036
40.6537 177.2952614 -140.0000974
-0.0002699995239 7.935025398 10.5790856
248.51772 15.3880714 -136.0000974
-0.0002699995239 49.5184694 -89.0945854
70.82943 110.2672404 -136.0000974
18.98671 55.9979344 159.9999026
210.3817 42.5667744 147.5342926
41.49854 -2.460220776e-05 -111.2036634
57.83266 -2.460220776e-05 123.1081956
-0.0002699995239 27.3910814 147.6915186
123.22249 -2.460220776e-05 142.9472756
214.43372 67.0344484 -136.0000974
195.14783 -2.460220776e-05 -118.5872774
218.98778 29.9987834 -140.0000974
217.05781 40.8782244 126.9873766
151.2267 114.6178124 -140.0000974
25.76304 195.2738804 -140.0000974
74.38685 -2.460220776e-05 -16.0624544
166.96643 50.7472544 159.9999026
-0.0002699995239 12.0375164 -133.5412484
247.4919 51.3909394 153.9999026
249.81862 12.2009564 -150.2090834
240.49523 21.2660104 -136.0000974
39.1118 130.5832424 -136.0000974
-0.0002699995239 0.9490593978 126.5649826
73.58951 54.0767794 153.9999026
-0.0002699995239 22.9216024 144.0659496
204.84201 59.0869464 -136.0000974
30.48099 163.4230414 -140.0000974
