# .PCD v0.7 - Point Cloud Data file format
VERSION 0.7
FIELDS x y z
SIZE 4 4 4
TYPE F F F
COUNT 1 1 1
WIDTH 1199
HEIGHT 1
VIEWPOINT 0 0 0 1 0 0 0
POINTS 1199
DATA ascii
25.21983695 63.63553839 -9.738693325e-05
240.999993 78.44105439 239.9543376
-2.757937048 -2.460818291e-05 98.77560561
135.44256 -2.460818291e-05 110.7226926
-141.472427 -2.460818291e-05 143.3631946
-121.617035 -2.460818291e-05 103.5233826
89.03716395 -2.460818291e-05 233.7070306
63.15663195 14.47755139 -9.738693325e-05
207.284462 -2.460818291e-05 117.0104556
-159.248111 -2.460818291e-05 165.7359566
30.59959495 -2.460818291e-05 13.03553661
-22.28611105 -2.460818291e-05 64.24078661
3.116956952 -2.460818291e-05 188.3048426
236.999993 42.70762339 112.1656896
-188.292805 -2.460818291e-05 250.9935496
-249.509733 -2.460818291e-05 124.8302756
15.47890095 -2.460818291e-05 142.5220016
174.924947 17.49008339 -9.738693325e-05
-110.992379 -2.460818291e-05 159.8058286
189.89547 -2.460818291e-05 184.8508806
245.358841 -2.460818291e-05 191.7651116
183.220793 -2.460818291e-05 16.22916161
-11.74379105 -2.460818291e-05 31.20432461
253.733995 -2.460818291e-05 178.1391456
-18.05911505 35.10894539 -9.738693325e-05
94.30058195 29.18728239 -9.738693325e-05
240.999993 52.48204639 205.0865996
-197.820283 -2.460818291e-05 117.9456436
-74.51568105 -2.460818291e-05 201.1067996
-155.428121 -2.460818291e-05 16.43766761
163.773748 59.14075139 -9.738693325e-05
241.979565 -0.6581846082 -9.738693325e-05
236.999993 42.97926639 136.7123906
94.36330795 -2.460818291e-05 13.47625861
-34.17826005 -2.460818291e-05 225.5445226
139.422035 -2.460818291e-05 219.3509176
-70.93180505 67.99997539 -2.039081387
236.999993 22.05075639 183.8732006
-2.566921048 -2.460818291e-05 136.2790786
31.92934295 12.77669739 -9.738693325e-05
236.999993 66.52027939 203.3988566
-260.455267 -2.460818291e-05 89.57287861
240.999993 45.20789839 66.56786661
-99.48354905 -2.460818291e-05 87.27569861
-158.247693 -2.460818291e-05 141.5033476
-154.466455 -2.460818291e-05 223.3100436
35.15682395 -2.460818291e-05 206.6157846
230.317174 -2.460818291e-05 11.84697561
236.999993 44.75540839 252.4092686
240.999993 23.17351439 206.9074506
-187.70385 33.88369639 -9.738693325e-05
79.34855195 -2.460818291e-05 41.87006961
10.81969595 -2.460818291e-05 1.204599613
-39.94612405 -2.460818291e-05 42.10066161
236.999993 32.02915239 86.09113861
36.56357895 -2.460818291e-05 162.2491666
-23.03328505 -2.460818291e-05 17.06331161
-100.723624 -2.460818291e-05 50.72560761
153.483438 -2.460818291e-05 34.74418761
250.385264 -2.460818291e-05 65.27687661
9.241370952 -2.460818291e-05 128.1489136
-44.92793705 -2.460818291e-05 242.9638216
146.08702 -2.460818291e-05 240.8293296
-147.846676 -2.460818291e-05 101.6784806
-16.54288105 -2.460818291e-05 183.5625386
-73.82479005 3.258349392 -9.738693325e-05
247.992826 -2.460818291e-05 43.85785361
-68.75521205 -2.460818291e-05 39.96747761
35.74092595 -2.460818291e-05 73.49568961
-112.481901 -2.460818291e-05 188.4141856
166.143394 -2.460818291e-05 167.2440186
-72.99820405 -2.460818291e-05 245.1635426
236.999993 30.01306339 237.9804036
198.198642 63.06690439 -9.738693325e-05
227.38385 -2.460818291e-05 154.7464076
-173.753112 -2.460818291e-05 69.53551461
-132.346 -2.460818291e-05 209.7986806
-160.660701 -2.460818291e-05 55.05625461
56.71557695 -2.460818291e-05 151.1651416
117.913162 49.94049139 -9.738693325e-05
30.27351795 -2.460818291e-05 140.9965406
-103.488357 -2.460818291e-05 200.7059846
87.74150595 -2.460818291e-05 68.72413361
179.792912 -2.460818291e-05 149.8456356
-170.274069 -2.460818291e-05 185.6585426
151.623262 -2.460818291e-05 56.10446461
-143.938416 -2.460818291e-05 164.8659326
116.031923 15.11746239 -9.738693325e-05
-92.69390805 -2.460818291e-05 113.3557006
-110.445345 -2.460818291e-05 25.29210961
244.013718 -2.460818291e-05 233.1224646
-208.660545 -2.460818291e-05 189.2688266
117.762078 -2.460818291e-05 89.93713261
227.657965 59.94584439 -9.738693325e-05
-83.62467505 -2.460818291e-05 183.7845636
10.61582495 -2.460818291e-05 26.74289561
-56.78034505 10.52892339 -9.738693325e-05
-88.52554705 15.04908539 -9.738693325e-05
-82.84498305 -2.460818291e-05 130.5232306
7.423230952 -2.460818291e-05 70.60485661
143.710728 -2.460818291e-05 70.93486861
56.56147395 -2.460818291e-05 209.6729346
-72.85332005 -2.460818291e-05 106.8793956
129.903803 -2.460818291e-05 175.9836706
215.069551 -2.460818291e-05 237.6314276
-229.425954 -2.460818291e-05 9.509190613
174.4711 -2.460818291e-05 204.2612876
-94.05953505 -2.460818291e-05 37.48019761
124.425337 -2.460818291e-05 162.7697966
205.808812 -2.460818291e-05 58.36995061
-44.39525505 67.99997539 -0.5606133869
118.047272 -2.460818291e-05 12.75412361
240.999993 50.30054539 187.3552306
148.085026 12.29965339 -9.738693325e-05
12.76454095 -2.460818291e-05 241.3393136
-70.33296705 -2.460818291e-05 24.27186061
188.918719 -2.460818291e-05 238.4391376
-72.36716905 52.74929039 -9.738693325e-05
-195.229136 -2.460818291e-05 17.41555861
-176.436197 61.97449939 -9.738693325e-05
198.197965 -2.460818291e-05 210.4926216
-126.607683 -2.460818291e-05 88.82940261
236.999993 12.01951639 9.291093613
-7.621131048 -2.460818291e-05 224.2977186
96.69291895 14.34558039 -9.738693325e-05
221.358601 15.80841939 -9.738693325e-05
88.28381395 -2.460818291e-05 92.49161061
236.999993 41.03968839 26.62517361
260.655783 26.97588939 -9.738693325e-05
139.69991 67.38680439 -9.738693325e-05
-227.870792 16.14210639 -9.738693325e-05
170.387218 -2.460818291e-05 250.0163766
37.79526095 -2.460818291e-05 43.15991761
-86.66809805 -2.460818291e-05 238.7793346
236.999993 19.11975239 120.4279596
12.25990495 -2.460818291e-05 178.4322136
236.999993 60.32104639 154.0444906
-49.20444205 -2.460818291e-05 199.9937346
39.78197695 -1.268929608 -9.738693325e-05
33.60501595 -2.460818291e-05 59.40157861
-8.600199048 -2.460818291e-05 43.91838361
236.999993 73.18557539 221.4631066
-166.5727 -2.460818291e-05 122.2633256
140.031668 -2.460818291e-05 9.004703613
-108.732467 -2.460818291e-05 136.9463476
-235.020981 -2.460818291e-05 134.8398486
-244.606387 36.47260339 -9.738693325e-05
53.54722895 -2.460818291e-05 100.3807646
91.92869795 -2.460818291e-05 209.9337816
240.999993 11.07522239 166.5869036
-157.433583 40.21486139 -9.738693325e-05
236.999993 25.98535739 25.54323861
163.415284 26.15871339 -9.738693325e-05
-249.258754 -2.460818291e-05 193.9207016
98.89229295 58.13530939 -9.738693325e-05
-251.361816 -2.460818291e-05 246.7624966
-99.54820605 59.50723239 -9.738693325e-05
-246.54865 -2.460818291e-05 63.36990761
10.07215795 -2.460818291e-05 49.62217461
183.501975 -2.460818291e-05 46.75385461
101.68902 -2.460818291e-05 174.1293086
82.99369795 -2.460818291e-05 1.183917613
-156.663603 -2.460818291e-05 252.0940046
240.999993 30.02102339 192.0951396
209.020441 -2.460818291e-05 167.4357466
58.01758595 -2.460818291e-05 176.5710066
-10.98503205 -2.460818291e-05 115.9377536
-249.679565 -2.460818291e-05 212.4871386
163.565487 0.5079803918 -9.738693325e-05
240.999993 42.76005239 8.929086613
84.96437395 -2.460818291e-05 181.1576866
-96.84754305 -2.460818291e-05 169.8901036
7.860339952 55.80969139 -9.738693325e-05
155.445811 -2.460818291e-05 111.4303056
107.210322 -2.460818291e-05 34.22700461
94.50726495 -2.460818291e-05 145.5601766
13.96546395 -2.460818291e-05 90.63406361
122.214634 -2.460818291e-05 220.0586956
259.923624 -0.3053206082 205.3075196
17.77413795 -2.460818291e-05 201.3312446
203.188795 -2.460818291e-05 104.2638666
-222.976159 64.72097439 -9.738693325e-05
-209.075706 -2.460818291e-05 233.2075476
-57.66278905 35.21178939 -9.738693325e-05
73.86555395 -2.460818291e-05 129.5674466
-137.473078 -2.460818291e-05 231.5669566
-226.554438 -2.460818291e-05 199.5562046
201.369145 -0.08801160818 -9.738693325e-05
-137.841715 -2.460818291e-05 176.6344876
62.16374095 -2.460818291e-05 233.5504156
240.999993 25.67446239 6.395748613
116.710335 34.94904839 -9.738693325e-05
-119.837319 -2.460818291e-05 214.0248406
36.58643395 -2.460818291e-05 95.44136261
-224.419086 -2.460818291e-05 152.3457076
-187.563574 -2.460818291e-05 111.7655906
-61.88848705 -2.460818291e-05 225.4468226
209.713588 -2.460818291e-05 204.4874326
-122.707509 -2.460818291e-05 44.87351561
-141.674348 -2.460818291e-05 20.38565861
144.942485 -2.460818291e-05 179.1009536
146.049314 -2.460818291e-05 118.3864506
197.150182 -2.460818291e-05 126.3352716
-211.339629 -2.460818291e-05 6.465919613
58.80495195 -2.460818291e-05 54.42562861
169.086826 -2.460818291e-05 155.9668806
253.234156 -2.460818291e-05 248.5809086
245.359039 -2.460818291e-05 107.2883616
-9.825243048 23.97455939 -9.738693325e-05
-51.23776205 -2.460818291e-05 182.8053876
82.66997995 -2.460818291e-05 30.57026761
240.999993 10.23851239 209.8541776
180.983688 -2.460818291e-05 79.38631061
-166.842522 -2.460818291e-05 210.1406196
237.083686 56.05444039 47.36891661
-201.301974 -2.460818291e-05 85.37549461
-195.304007 -2.460818291e-05 61.76925361
21.83330595 32.58815539 -9.738693325e-05
-221.712815 -2.460818291e-05 246.0809966
240.999993 4.185333392 78.34937461
82.43054595 -2.460818291e-05 157.0569096
230.849421 -2.460818291e-05 179.7228476
-7.940683048 -2.460818291e-05 11.91035161
223.477251 -2.460818291e-05 99.59351661
-171.2162 49.88588039 -9.738693325e-05
218.86205 -2.460818291e-05 11.11848361
-120.873395 60.62931839 -9.738693325e-05
-66.57575505 -2.460818291e-05 180.3766886
-239.749132 -2.460818291e-05 163.0695146
-176.768021 4.462848392 -9.738693325e-05
-105.880644 30.32071539 -9.738693325e-05
236.999993 15.41241139 140.7277486
169.629005 -2.460818291e-05 178.0830806
42.28006995 -2.460818291e-05 20.04893361
-14.94907705 6.210408392 -9.738693325e-05
29.09825395 -2.460818291e-05 197.0286826
-60.74748305 -2.460818291e-05 162.1623936
-220.308757 -2.460818291e-05 222.8216956
159.004209 -2.460818291e-05 11.28059661
236.999993 55.80482739 249.9562356
123.81322 -2.460818291e-05 200.3943726
-236.633928 -2.460818291e-05 95.31452461
-82.98648505 45.79085539 -9.738693325e-05
254.827963 -2.460818291e-05 91.18177461
236.186016 -2.460818291e-05 133.9250596
240.999993 19.17684839 76.43235161
119.192457 -2.460818291e-05 59.75025461
240.999993 39.37061539 122.5189956
240.999993 54.96995239 227.9409206
-187.779516 -2.460818291e-05 203.3288046
-223.451884 -2.460818291e-05 75.97913461
-3.170239048 54.08211939 -9.738693325e-05
166.195494 -2.460818291e-05 121.9744556
-17.55327305 -2.460818291e-05 78.26934361
-143.422944 -2.460818291e-05 186.5094676
97.07698395 -2.460818291e-05 196.1624116
-179.816728 -2.460818291e-05 25.70743861
41.76327895 -2.460818291e-05 186.5940166
236.999993 66.38845539 104.6071936
-73.30229105 -2.460818291e-05 72.01117561
240.999993 50.52929539 160.7772746
236.999993 7.257714392 241.6763106
-120.175695 -2.460818291e-05 174.1803186
231.997488 36.75721039 -9.738693325e-05
236.999993 12.42864539 36.62325161
-143.795826 12.56994339 -9.738693325e-05
-33.64418505 -2.460818291e-05 92.06367361
187.437875 -2.460818291e-05 157.9865026
-214.612493 -2.460818291e-05 35.19905061
-237.641114 -2.460818291e-05 235.0457596
-132.537007 -2.460818291e-05 12.90822861
-242.110403 55.33703539 -9.738693325e-05
52.23075895 -2.460818291e-05 162.8357596
207.342531 44.24545939 -9.738693325e-05
141.441483 -2.460818291e-05 83.84693361
236.999993 26.79521039 159.9763076
236.999993 26.52599339 95.60015461
-3.427277048 -2.460818291e-05 211.8599266
93.49341295 -2.460818291e-05 48.60526261
236.999993 15.14856639 57.78751161
134.977237 -2.460818291e-05 165.7084566
55.85193595 -2.460818291e-05 10.21427961
147.027665 -2.460818291e-05 149.7403386
-257.16507 -2.460818291e-05 102.0126416
79.60624195 54.41300339 -9.738693325e-05
104.404705 -2.460818291e-05 6.882031613
200.561113 -2.460818291e-05 191.2501076
99.49687695 -2.460818291e-05 92.33339761
-142.705868 -2.460818291e-05 120.1516866
260.880593 -2.460818291e-05 62.42433061
45.56505395 23.36632939 -9.738693325e-05
-65.41033105 -2.460818291e-05 9.238340613
-32.14171905 -2.460818291e-05 149.7009566
51.18430295 -2.460818291e-05 136.7147006
236.999993 9.244359392 149.6343806
237.286467 86.91459239 183.4785586
-180.623078 -2.460818291e-05 142.1961316
260.424599 15.79901239 -9.738693325e-05
-211.540486 -2.460818291e-05 166.8301456
140.052245 48.53270139 -9.738693325e-05
-97.15924205 3.758804392 -9.738693325e-05
256.04722 -2.460818291e-05 36.69016861
60.08976595 -2.460818291e-05 91.83426661
177.175016 -2.460818291e-05 100.6135226
149.344934 -2.460818291e-05 215.2299566
-203.354626 -2.460818291e-05 74.83322561
214.971159 -2.460818291e-05 176.3706366
-182.033013 -2.460818291e-05 163.1932826
-237.660414 -2.460818291e-05 212.0113096
-239.03922 -2.460818291e-05 81.62333061
113.214838 -2.460818291e-05 133.5640076
-144.354896 -2.460818291e-05 242.3034836
76.31334095 -2.460818291e-05 190.3265946
187.234937 41.33815739 -9.738693325e-05
174.599994 6.828610392 -9.738693325e-05
-110.010516 -2.460818291e-05 94.44063561
-98.20520305 -2.460818291e-05 138.4549516
240.999993 10.76200339 227.3260596
-28.24260905 8.731849392 -9.738693325e-05
-232.447973 -2.460818291e-05 35.71817361
138.333579 -2.460818291e-05 38.66021461
236.999993 61.53975639 80.48041161
-250.910482 -2.460818291e-05 33.01312461
-74.35669005 29.51566839 -9.738693325e-05
254.542312 -1.623641608 18.73489061
85.21483395 -2.460818291e-05 250.6260226
240.999993 61.49051339 128.3470066
226.457591 -2.460818291e-05 35.63995461
-147.000189 -2.460818291e-05 71.64783161
113.315916 -2.460818291e-05 150.3917906
240.999993 8.626123392 95.18621061
173.075192 -2.460818291e-05 49.89001161
-177.283661 -2.460818291e-05 245.5082276
186.192078 -2.460818291e-05 224.0825796
210.20073 -2.460818291e-05 45.76755761
-220.863503 -2.460818291e-05 53.41231561
121.25173 -2.460818291e-05 99.86142461
59.47485095 -2.460818291e-05 199.5673656
170.777319 42.88123639 -9.738693325e-05
251.20473 -2.460818291e-05 225.4823776
-43.00858905 -2.460818291e-05 217.2033876
18.59228995 -2.460818291e-05 215.4706116
240.999993 81.42799339 200.6737846
65.27799695 -2.460818291e-05 122.3282796
120.930349 -2.460818291e-05 79.96251661
10.18658095 41.57477439 -9.738693325e-05
108.836076 -2.460818291e-05 58.26279861
236.999993 33.44100539 62.83203861
129.761353 -2.460818291e-05 88.68978861
26.73714095 43.67936239 -9.738693325e-05
201.763139 -2.460818291e-05 92.98596861
10.41665895 -2.460818291e-05 60.59691861
235.663823 -2.460818291e-05 49.86461961
-63.96672005 -2.460818291e-05 57.34412861
129.833682 -2.460818291e-05 50.30418861
54.26087695 -2.460818291e-05 119.7683186
33.26567295 -2.460818291e-05 250.5191176
-197.681633 28.98892539 -9.738693325e-05
222.677454 41.41720539 -9.738693325e-05
-146.940777 -2.460818291e-05 210.3724096
-61.83118805 -2.460818291e-05 81.55402661
116.405331 -2.460818291e-05 234.3991806
-42.98791205 -2.460818291e-05 130.1455566
69.63029295 -2.460818291e-05 252.1683936
-63.10148605 48.04459039 -9.738693325e-05
236.999993 42.65798139 173.4163676
50.38323695 -2.460818291e-05 241.7080186
-138.815447 63.98008539 -9.738693325e-05
-187.686138 -2.460818291e-05 82.10372361
102.430726 -2.460818291e-05 240.4264936
240.999993 92.38683139 202.9208226
-103.6808 -2.460818291e-05 12.61586561
2.553622952 -2.460818291e-05 160.6491516
73.28217595 12.41488439 -9.738693325e-05
239.881009 99.84778839 223.3238716
84.33041295 31.85784139 -9.738693325e-05
-163.514981 -2.460818291e-05 156.3476426
240.999993 35.52452439 211.5843236
96.18394395 -2.460818291e-05 25.04243261
-12.11318805 -2.460818291e-05 147.8266226
132.363328 59.21882839 -9.738693325e-05
52.67376695 -2.460818291e-05 33.37548861
-260.699473 -2.460818291e-05 51.54474661
-213.372248 67.99997539 -1.342941387
-127.756261 -2.460818291e-05 141.2233716
-135.545053 30.20812139 -9.738693325e-05
71.58843595 -2.460818291e-05 139.5328556
-30.10090105 52.77725139 -9.738693325e-05
-62.14906205 -2.460818291e-05 128.6162476
-158.91764 -2.460818291e-05 30.04198461
-177.193034 -2.460818291e-05 229.2606816
190.926712 31.83752839 -9.738693325e-05
-30.99782305 24.07007839 -9.738693325e-05
131.328208 -2.460818291e-05 138.8949206
-210.506451 -2.460818291e-05 144.9705706
-164.546776 -2.460818291e-05 11.86170161
-5.452502048 -2.460818291e-05 126.5459676
236.999993 11.24192539 185.0508376
-40.42978405 44.27593939 -9.738693325e-05
-177.982241 31.13503239 -9.738693325e-05
196.403413 11.63330139 -9.738693325e-05
-153.455641 -2.460818291e-05 6.317458613
236.999993 62.49129039 118.7487876
-136.135189 6.065618392 -9.738693325e-05
43.06914295 38.99586239 -9.738693325e-05
187.349835 -2.460818291e-05 128.5219866
-86.66283105 -2.460818291e-05 153.4045576
-27.63004905 -2.460818291e-05 203.6722066
240.999993 57.72938839 178.9167006
-194.608274 -2.460818291e-05 104.6425016
236.999993 77.01799139 150.9404656
236.999993 5.875109392 20.23877661
-138.223629 -2.460818291e-05 133.0181596
233.623874 -2.460818291e-05 166.0708056
120.972954 -2.460818291e-05 36.20867161
12.62647895 -2.460818291e-05 252.2732576
-155.721548 30.39343839 -9.738693325e-05
236.999993 85.60072539 214.6212876
236.999993 57.39511639 99.84439561
-26.96672805 -2.460818291e-05 218.6709666
-222.053708 -2.460818291e-05 177.3197586
236.999993 21.92960239 67.76877661
7.019822952 -2.460818291e-05 200.3904986
164.382775 -2.460818291e-05 199.1895216
236.999993 42.93291839 230.5609326
240.999993 25.18616439 229.4332986
187.246136 -2.460818291e-05 36.42450461
236.999993 68.76843739 133.6840016
188.227612 -2.460818291e-05 87.24144361
240.999993 10.10564339 120.6434626
165.038078 -2.460818291e-05 96.24485561
-249.209841 -2.460818291e-05 83.47688761
-75.80942605 -2.460818291e-05 144.9766086
-245.88298 -2.460818291e-05 150.6671176
201.055693 -2.460818291e-05 231.9056036
-235.058856 -2.460818291e-05 183.8623676
236.999993 5.695611392 109.5330376
-43.23359305 -2.460818291e-05 100.0623046
-137.864165 -2.460818291e-05 32.75818661
-145.746046 -2.460818291e-05 57.64888161
71.37527795 -2.460818291e-05 8.563119613
-203.720327 -2.460818291e-05 126.2367816
-131.769202 -2.460818291e-05 223.6299156
-135.104042 -2.460818291e-05 77.79747961
-98.51117605 -2.460818291e-05 235.1185536
23.73422795 -2.460818291e-05 100.1264096
-233.973077 23.73582339 -9.738693325e-05
-252.780426 53.31350039 -9.738693325e-05
38.52212795 -2.460818291e-05 114.4299296
-102.262474 -2.460818291e-05 149.8721946
240.999993 55.02610239 87.17684661
117.148104 24.76054339 -9.738693325e-05
-181.694191 -2.460818291e-05 46.92583861
236.999993 90.84805739 237.0028816
70.78261795 -2.460818291e-05 105.0038416
5.015012952 -2.460818291e-05 8.960008613
-228.244775 -2.460818291e-05 209.7513086
-260.562365 -2.460818291e-05 31.60716961
240.999993 76.71365439 229.6273016
-37.03049905 -2.460818291e-05 79.74596661
44.81231695 -2.460818291e-05 207.1208446
-118.433686 2.085835392 -9.738693325e-05
16.19500295 -2.460818291e-05 152.9363586
-193.258904 -2.460818291e-05 90.72572961
8.158608952 -2.460818291e-05 219.9471656
-46.80735805 -2.460818291e-05 174.2333656
240.999993 40.14809239 240.0399696
236.999993 44.05071139 209.5431606
-181.421674 -2.460818291e-05 194.0946106
-217.21678 -2.460818291e-05 90.57112061
19.61147495 -2.460818291e-05 23.31520261
-49.73054905 -2.460818291e-05 8.292113613
-43.99908305 -2.460818291e-05 120.5740096
135.111268 -2.460818291e-05 198.0340696
-79.10922805 -2.460818291e-05 160.3796886
-83.18137705 -2.460818291e-05 229.8382576
248.123949 -2.460818291e-05 27.94278861
-213.739804 -2.460818291e-05 123.2958856
201.105323 -2.460818291e-05 28.62249661
-190.629929 20.41076539 -9.738693325e-05
137.436666 -2.460818291e-05 125.4564836
236.999993 57.65833939 67.38429961
214.037502 -2.460818291e-05 70.23715061
-5.497104048 10.23782639 -9.738693325e-05
-198.862237 -2.460818291e-05 238.7627616
-77.61229605 -2.460818291e-05 191.2177806
-38.72833705 -2.460818291e-05 30.66402461
-251.775529 22.24034239 -9.738693325e-05
236.999993 47.62995939 195.5840726
-88.93864405 -2.460818291e-05 123.1945126
94.31579595 -2.460818291e-05 116.8403826
240.999993 51.32911139 139.9132856
188.451485 52.12944139 -9.738693325e-05
252.85812 -2.460818291e-05 141.7566576
-94.65326105 67.66554539 -9.738693325e-05
236.999993 98.43273639 252.3734096
-206.574335 10.34190839 -9.738693325e-05
249.347197 24.10103639 -9.738693325e-05
228.684588 -2.460818291e-05 219.5534346
137.651476 -0.8866596082 231.0655016
102.558884 -2.460818291e-05 72.53384661
-219.043299 44.63912139 -9.738693325e-05
-246.730905 -2.460818291e-05 74.33090361
83.88297295 -2.460818291e-05 110.7365326
-9.648298048 -2.460818291e-05 233.5270876
223.412819 -2.460818291e-05 185.5467546
-90.96073405 -2.460818291e-05 80.51285661
202.52419 -2.460818291e-05 73.38511661
213.925312 -2.460818291e-05 19.15653861
-246.557059 -2.460818291e-05 41.84337761
240.999993 70.88977539 194.9730836
-72.27689905 -2.460818291e-05 213.2421476
158.130941 -2.460818291e-05 218.6202026
-149.876232 57.09886339 -9.738693325e-05
-93.47153505 -2.460818291e-05 208.8218886
-102.761327 -2.460818291e-05 59.91536261
-163.929938 8.512985392 -9.738693325e-05
240.999993 6.694031392 197.6805816
106.093986 14.29244939 -9.738693325e-05
4.293840952 -2.460818291e-05 92.56507261
210.721006 61.12521339 -9.738693325e-05
236.999993 30.07512939 222.0025006
-232.680288 -2.460818291e-05 174.5999276
-188.026189 -2.460818291e-05 155.1818956
47.25887895 -2.460818291e-05 73.18417461
240.999993 32.03051539 152.7245486
-83.36221405 -2.460818291e-05 59.40115161
240.999993 35.20869839 2.018650613
251.354106 -2.460818291e-05 169.0956306
-113.978756 -2.460818291e-05 48.20654061
115.233023 -2.460818291e-05 28.84964661
54.65971195 18.53266039 -9.738693325e-05
236.999993 8.417551392 85.63266561
-57.87646705 -2.460818291e-05 138.6855796
236.999993 68.39799639 146.2104466
-121.586296 -2.460818291e-05 193.1341686
236.50097 -1.118831608 70.79782461
-248.951017 1.305678392 -9.738693325e-05
-0.8663080481 64.47572339 -9.738693325e-05
-163.680013 -2.460818291e-05 108.8188366
82.78430195 -2.460818291e-05 60.89572361
-259.439739 -2.460818291e-05 228.5164816
229.231515 -2.460818291e-05 244.2418566
236.999993 64.11508339 223.2751986
-127.157887 -2.460818291e-05 64.07263761
70.35859195 -2.460818291e-05 212.5945606
181.577433 -2.460818291e-05 198.3575056
-174.471862 -2.460818291e-05 90.48172061
-53.97045205 -2.460818291e-05 72.56709961
235.645682 15.49116839 -9.738693325e-05
-54.86204405 -2.460818291e-05 216.9880836
-50.85776305 -2.460818291e-05 61.14119461
-53.68721205 -2.460818291e-05 237.9424216
24.20182095 -2.460818291e-05 207.8874186
240.999993 14.03373239 175.5809596
-189.571218 42.86875939 -9.738693325e-05
230.911248 -2.460818291e-05 205.7198036
93.41255395 -2.460818291e-05 128.4004466
236.999993 64.67419039 241.4963866
-50.39006405 -2.460818291e-05 93.60100761
162.869555 -2.460818291e-05 186.3545456
217.304492 -2.460818291e-05 161.4116746
-26.79148405 -2.460818291e-05 109.0746456
240.999993 44.61236739 35.30142161
72.45868495 34.44766339 -9.738693325e-05
-7.173577048 -2.460818291e-05 61.04826661
61.68431595 -2.460818291e-05 143.5470026
93.94901895 -2.460818291e-05 220.4354946
-238.447666 -2.460818291e-05 56.75715061
-235.995961 12.11052639 -9.738693325e-05
236.999993 23.16748339 243.9271666
249.255479 -2.460818291e-05 79.09356561
147.008989 -2.460818291e-05 43.12557461
239.428042 -2.460818291e-05 152.7325816
-240.999518 44.67108139 -1.333862387
-129.53363 -2.460818291e-05 201.1966656
217.35667 6.501523392 -9.738693325e-05
27.89153595 -2.460818291e-05 164.8138236
-112.424413 -2.460818291e-05 106.5462246
181.030778 -2.460818291e-05 26.67168161
-252.367822 -2.460818291e-05 168.7521796
112.36305 -2.460818291e-05 117.0230776
-43.62412205 -2.460818291e-05 251.8834206
-66.77374605 16.20240439 -9.738693325e-05
-86.99371705 -2.460818291e-05 165.0821606
-47.78827905 10.51025439 -9.738693325e-05
176.191278 -2.460818291e-05 240.8050036
97.39302195 -2.460818291e-05 230.4071346
-89.71724005 -2.460818291e-05 190.3829496
128.846348 30.35770639 -9.738693325e-05
203.922622 -2.460818291e-05 151.4244646
240.999993 30.35200639 32.26794361
-146.701174 -1.370367608 -9.738693325e-05
240.999993 83.90100239 250.7606836
236.999993 32.23553139 118.7463586
232.628104 -2.460818291e-05 143.6704506
-35.15920805 62.22810339 -9.738693325e-05
237.587925 51.03151939 10.06707561
236.999993 31.38499939 46.65694961
7.598243952 -2.460818291e-05 108.8458376
-158.6833 -2.460818291e-05 126.4356666
-45.30762105 -2.460818291e-05 53.21997461
-36.03689505 -2.460818291e-05 188.1613576
-208.703916 47.19915039 -9.738693325e-05
9.736702952 8.749222392 -9.738693325e-05
236.999993 3.341542392 41.69928561
236.999993 64.61845439 166.7138906
-249.272401 -2.460818291e-05 181.5786146
236.999993 37.70230039 144.4475556
-193.690413 -2.460818291e-05 4.942580613
21.30882195 -2.460818291e-05 7.349768613
161.928673 -2.460818291e-05 230.9411416
236.999993 67.31985439 214.8202086
60.75822795 42.31014439 -9.738693325e-05
-56.48787705 -2.460818291e-05 109.9125456
76.22086295 -2.460818291e-05 87.06391961
240.999993 50.08020339 115.0077016
97.73924295 45.31593039 -9.738693325e-05
236.999993 22.26729939 134.9027986
212.862417 25.96325239 -9.738693325e-05
-261.334116 -2.460818291e-05 215.6691036
35.33435095 -2.460818291e-05 171.0017686
46.93433795 66.02171839 -9.738693325e-05
225.755036 -2.460818291e-05 66.53206961
249.902386 3.241272392 -9.738693325e-05
-24.88639805 -2.460818291e-05 93.17824561
4.346633952 -2.460818291e-05 248.2493196
-219.138886 -2.460818291e-05 109.3703766
-14.48189305 -2.460818291e-05 173.3412766
139.227516 1.980416392 -9.738693325e-05
-192.551418 -2.460818291e-05 134.0745756
240.999993 18.04819339 50.51422161
-172.676783 -2.460818291e-05 102.5621796
-208.962472 -2.460818291e-05 105.5681296
148.540273 -2.460818291e-05 138.0821996
-23.71725905 -1.343531608 -9.738693325e-05
-257.802511 31.54204939 -9.738693325e-05
236.999993 31.52821839 204.1588656
-131.648498 -2.460818291e-05 42.11269661
-57.41598705 -2.460818291e-05 196.9232836
146.049107 -2.460818291e-05 99.18949461
-214.214531 -2.460818291e-05 181.2168456
-3.077842048 -2.460818291e-05 107.5156456
236.999993 32.56190539 175.0828716
240.999993 38.75615639 189.8995516
-236.526349 -2.460818291e-05 125.3393516
236.999993 47.90994039 59.28963661
176.910236 -2.460818291e-05 38.80137161
-229.710385 -2.460818291e-05 52.60183961
-194.919511 9.101624392 -9.738693325e-05
31.32136795 24.54524639 -9.738693325e-05
217.71619 -2.460818291e-05 52.45409661
261.063061 -2.460818291e-05 127.8279746
-226.877474 -2.460818291e-05 116.0507936
142.051455 -2.460818291e-05 62.37644561
248.210933 -2.460818291e-05 201.5628946
-199.781669 -2.460818291e-05 193.3110336
34.78459895 -2.460818291e-05 148.4482126
115.921385 -2.460818291e-05 164.6503896
-211.985677 -2.460818291e-05 200.1898776
-251.987061 -2.460818291e-05 19.59295761
214.028159 -2.460818291e-05 104.4382036
184.693097 7.719476392 -9.738693325e-05
-78.94924605 -2.460818291e-05 87.88990861
-214.15633 -2.460818291e-05 43.86485961
122.168816 57.49724539 -9.738693325e-05
-242.270839 -2.460818291e-05 242.3732356
240.999993 41.95857639 88.40747361
-71.29272805 -2.460818291e-05 97.10990961
172.38665 25.76830839 -9.738693325e-05
231.010313 -2.460818291e-05 28.29314361
240.999993 52.78315139 148.5755706
-21.32644505 61.53489939 -9.738693325e-05
91.86531095 -2.460818291e-05 155.7093536
240.999993 6.194856392 137.9253766
-32.17568605 -2.460818291e-05 38.38400361
40.32759895 -2.460818291e-05 131.7674336
-93.10228805 -2.460818291e-05 56.03781861
133.082091 -2.460818291e-05 238.2988536
253.758911 -2.460818291e-05 160.4900566
181.452403 -2.460818291e-05 70.81283461
-27.82373805 -2.460818291e-05 53.76218861
-184.97049 60.20458239 -9.738693325e-05
46.27863295 -2.460818291e-05 41.90960761
240.999993 67.38150039 181.6996106
240.999993 49.35555639 215.1459006
-248.946065 -2.460818291e-05 109.1519316
-120.863601 -2.460818291e-05 18.65897461
-112.938027 24.32013539 -9.738693325e-05
236.999993 2.554379392 7.156197613
236.999993 23.14477539 199.3453826
236.999993 19.84987739 16.52799661
-109.298953 10.84713739 -9.738693325e-05
222.35913 -2.460818291e-05 233.1617726
-115.307194 -2.460818291e-05 67.01876761
154.882405 -2.460818291e-05 166.3226816
-163.938808 28.07599839 -9.738693325e-05
-0.4846700481 -2.460818291e-05 235.3150426
-93.74043705 -2.460818291e-05 104.8837856
226.056137 30.63228839 -9.738693325e-05
-102.011622 -2.460818291e-05 26.58789061
134.077157 -2.460818291e-05 25.33969661
236.999993 -1.923520608 214.1756316
176.873268 60.60114239 -9.738693325e-05
-17.10906505 -2.460818291e-05 123.2602246
247.630033 59.35179139 -9.738693325e-05
-253.900483 -2.460818291e-05 67.59039761
240.999993 67.83007939 113.5233326
-86.96538705 -2.460818291e-05 72.60789961
236.999993 54.23559039 131.9759736
223.219214 -2.460818291e-05 200.9272056
-121.83201 -2.460818291e-05 28.21402561
219.456973 -2.460818291e-05 82.15985361
-168.044419 -2.460818291e-05 164.9053036
63.36891095 67.64416139 -9.738693325e-05
-187.437825 -2.460818291e-05 58.75724061
-161.836301 -2.460818291e-05 227.3871496
215.704704 -2.460818291e-05 119.8371016
-239.753511 -2.460818291e-05 69.63452161
-25.67812805 31.54681739 -9.738693325e-05
32.46992595 3.439778392 -9.738693325e-05
160.748058 -2.460818291e-05 52.03948961
-72.95181705 -2.460818291e-05 80.41169961
-199.429277 -2.460818291e-05 153.3935526
-152.454184 -2.460818291e-05 40.83879661
129.392294 -2.460818291e-05 101.9576216
236.999993 46.20640139 101.0010036
-126.435385 -2.460818291e-05 242.3988896
-74.97063705 -2.460818291e-05 127.6176806
-210.809923 -2.460818291e-05 215.7835506
143.579704 -2.460818291e-05 17.90347761
236.999993 33.09697939 137.0182576
11.81561395 -2.460818291e-05 192.9782096
192.781991 -2.460818291e-05 230.5740526
243.220541 -2.460818291e-05 171.0846276
99.65167495 -2.460818291e-05 204.6957156
161.775106 -2.460818291e-05 36.29095661
146.212733 -2.460818291e-05 128.4081436
-94.50920505 30.99162039 -9.738693325e-05
191.568973 -2.460818291e-05 16.48840361
-165.889068 -2.460818291e-05 89.33480461
-122.084585 -2.460818291e-05 152.5829746
-210.963692 -2.460818291e-05 27.68835761
170.900115 -2.460818291e-05 17.50179161
108.059307 -2.460818291e-05 89.13485461
-157.963041 -2.460818291e-05 62.94414361
240.999993 22.90584539 103.9596976
92.65082095 -2.460818291e-05 177.6012356
-172.708732 -2.460818291e-05 30.03478961
200.515467 -2.460818291e-05 199.9789456
116.507137 -2.460818291e-05 183.0981276
207.328968 -2.460818291e-05 184.8722886
236.999993 47.03312639 180.8709056
-124.306394 -2.460818291e-05 11.11838461
86.40159695 59.13294439 -9.738693325e-05
-177.892453 -2.460818291e-05 132.6762456
-181.420182 -2.460818291e-05 72.62652261
-4.627722048 -2.460818291e-05 144.3191476
92.46140895 -2.460818291e-05 85.37409561
-27.26518305 -2.460818291e-05 143.0480036
-134.546668 -2.460818291e-05 108.1009646
-228.33634 40.85328639 -9.738693325e-05
240.999993 42.76357539 74.42714661
125.149854 -2.460818291e-05 117.9063146
-172.749131 -2.460818291e-05 12.23308261
216.137385 -2.460818291e-05 216.3561786
30.45229495 -2.460818291e-05 129.1456276
63.54240395 -2.460818291e-05 243.5109616
-242.574432 -2.460818291e-05 138.4790026
-223.567676 -2.460818291e-05 15.16318861
2.751889952 -2.460818291e-05 180.1729726
240.999993 60.15420839 200.3030046
-177.407499 -2.460818291e-05 62.05598861
-195.410896 -2.460818291e-05 221.5862786
-231.572946 -2.460818291e-05 76.19942161
-79.40315705 9.162362392 -9.738693325e-05
192.834536 -2.460818291e-05 50.77322361
-223.15654 51.76476039 -9.738693325e-05
103.702469 -2.460818291e-05 111.1367106
-182.571815 -2.460818291e-05 18.09881861
-186.36121 7.062549392 -9.738693325e-05
236.999993 4.616969392 231.9874976
236.999993 16.64334339 28.98963461
-11.44474305 -2.460818291e-05 23.13564261
234.697316 -2.460818291e-05 83.87025461
-4.392386048 -2.460818291e-05 152.8216626
236.999993 49.10992539 29.93322161
-9.996148048 -2.460818291e-05 53.49475961
-206.14726 -2.460818291e-05 47.41089761
61.36841695 -2.460818291e-05 38.20347461
-12.10529905 54.05298939 -9.738693325e-05
-141.478426 -2.460818291e-05 44.36376661
71.39165795 -2.460818291e-05 40.82272161
66.64403195 -2.460818291e-05 174.6361716
-116.692337 -2.460818291e-05 135.9391046
18.10721795 -2.460818291e-05 57.88743061
-76.66530105 62.78500939 -9.738693325e-05
236.999993 21.71464639 145.6740726
29.64773595 -2.460818291e-05 46.81222961
87.11465195 -2.460818291e-05 8.045446613
236.999993 18.44445939 227.8195056
-218.85273 -2.460818291e-05 196.0893186
-64.12734505 7.373636392 -9.738693325e-05
-120.273072 -2.460818291e-05 247.4829706
193.783207 -2.460818291e-05 93.15998861
258.043311 -2.460818291e-05 230.0038016
236.999993 43.82867239 128.5277666
240.999993 4.825899392 53.30557661
136.423973 -2.460818291e-05 145.0287086
108.817081 55.55282339 -9.738693325e-05
-106.164057 -2.460818291e-05 128.0174436
236.999993 8.638580392 157.5789686
115.213489 -2.460818291e-05 20.89049861
11.58960695 19.97120639 -9.738693325e-05
-35.58714705 -2.460818291e-05 200.3382586
-139.378019 -2.460818291e-05 206.1012386
236.999993 76.79399239 174.6814406
-252.959169 -2.460818291e-05 233.1088486
-202.783208 -2.460818291e-05 66.91483761
-79.44741805 -2.460818291e-05 220.7418136
191.279902 -2.460818291e-05 109.6274016
62.98730995 -2.460818291e-05 18.27176561
123.14491 2.298224392 -9.738693325e-05
236.999993 34.04609239 106.9427406
-89.86291505 -2.460818291e-05 134.1936456
105.82079 -2.460818291e-05 192.2983166
240.999993 0.4482073918 242.2208876
131.659977 -2.460818291e-05 217.8043716
-31.04742205 -2.460818291e-05 211.8924956
-63.18925905 -2.460818291e-05 240.5722756
195.999052 -2.460818291e-05 58.64963361
-216.398062 -2.460818291e-05 160.5869226
236.999993 38.88723439 82.17810261
207.946633 -2.460818291e-05 228.0594486
159.28354 -2.460818291e-05 79.46477161
213.65731 -2.460818291e-05 144.5730856
-105.804991 -2.460818291e-05 180.6579606
-195.119838 64.53192739 -9.738693325e-05
114.695787 -2.460818291e-05 217.6932326
255.314658 -1.020979608 195.5263206
231.764583 -2.460818291e-05 20.02848561
191.170345 59.51433839 -9.738693325e-05
-32.40111205 -2.460818291e-05 127.4401786
-63.57206205 -2.460818291e-05 103.0436506
-149.011218 41.19528239 -9.738693325e-05
-155.263258 4.517150392 -9.738693325e-05
136.007197 41.57109339 -9.738693325e-05
-242.365862 -2.460818291e-05 218.2932476
-34.50209705 3.328556392 -9.738693325e-05
236.999993 14.81758539 112.8904946
236.999993 55.60696539 235.5614766
111.369946 -2.460818291e-05 50.06296661
109.034381 -2.460818291e-05 140.1864336
214.781632 -2.460818291e-05 39.39780961
181.813539 -2.460818291e-05 186.5672026
139.424023 -2.460818291e-05 244.9273356
88.92527295 -2.460818291e-05 187.9000376
-186.118291 -2.460818291e-05 227.7061506
83.35042095 66.77653839 -9.738693325e-05
252.662747 -2.460818291e-05 57.81778261
-220.138278 -2.460818291e-05 133.6051086
236.999993 44.01065939 162.3259376
236.999993 36.93899339 52.11786061
44.17348795 48.91537039 -9.738693325e-05
236.999993 76.84031839 248.3290506
240.999993 34.79795139 229.4501626
55.66421995 -2.460818291e-05 227.9793926
240.999993 41.18103939 16.54826861
259.642385 -2.460818291e-05 83.94549461
223.314586 -2.460818291e-05 225.1795206
53.02101695 -2.460818291e-05 144.3249806
-117.055473 -2.460818291e-05 167.0617536
240.999993 27.45343139 14.81381561
-118.555147 67.99997539 -0.7679283869
86.17703495 -2.460818291e-05 240.9243286
259.734263 -2.460818291e-05 214.1164146
-243.505227 -2.460818291e-05 6.260093613
244.074793 -2.460818291e-05 184.1187736
240.999993 41.25137239 43.32789061
-169.755252 -2.460818291e-05 142.0386306
-151.273271 -2.460818291e-05 119.3632666
-31.97896005 -2.460818291e-05 159.9474626
-50.98298105 -2.460818291e-05 29.29047261
-80.65148505 -2.460818291e-05 45.78810861
241.22829 20.80996539 -9.738693325e-05
223.621183 -2.460818291e-05 177.0392426
77.41620895 -2.460818291e-05 122.7277676
81.88051395 -2.460818291e-05 49.14850861
38.21826095 -2.460818291e-05 199.5449506
13.70423895 -2.460818291e-05 135.0276556
-78.48994905 -2.460818291e-05 136.8741766
13.05337795 -2.460818291e-05 75.85424961
26.85167795 -2.460818291e-05 226.0041386
224.943802 -2.460818291e-05 6.342410613
163.403808 -2.460818291e-05 71.21571561
-173.056478 -2.460818291e-05 194.6076946
-240.999518 29.97070439 -1.937191387
208.802805 52.31441239 -9.738693325e-05
84.61996295 -2.460818291e-05 207.5794156
10.35426395 -2.460818291e-05 41.95236261
236.999993 25.80656239 74.39156261
102.165822 -2.460818291e-05 146.0131096
18.00053295 -2.386301608 -9.738693325e-05
240.999993 55.71396139 73.61832561
131.654471 -2.460818291e-05 69.79704661
-73.63671305 -2.460818291e-05 167.8100926
-68.36961905 -2.460818291e-05 206.6662426
40.36233795 -2.460818291e-05 179.0806816
213.617787 -2.460818291e-05 87.07670861
240.999993 79.49247539 219.8855246
112.115389 -2.460818291e-05 105.3639706
111.378216 -2.460818291e-05 40.60828661
141.50097 -2.489277608 212.4549106
123.858386 -2.460818291e-05 181.1456066
3.812624952 -2.460818291e-05 140.4199156
77.36427495 -2.460818291e-05 71.71971461
-230.71412 -2.460818291e-05 228.2916226
-24.59696005 -2.460818291e-05 39.93131761
236.999993 29.59791539 184.7778366
-213.854441 -2.460818291e-05 72.88320561
-32.79369405 15.10861339 -9.738693325e-05
-212.757529 -2.460818291e-05 223.5775736
240.999993 48.96517439 168.9410406
72.18370995 -2.460818291e-05 222.0106776
-15.25013405 -2.460818291e-05 164.7433736
204.01834 -2.460818291e-05 221.1855086
205.523672 -2.460818291e-05 65.94377061
-109.642558 -2.460818291e-05 152.3622896
236.999993 77.52707939 195.5752566
236.999993 13.71367839 215.2486336
-85.60412705 -2.460818291e-05 115.9655816
29.16082195 -2.460818291e-05 189.4758436
-195.230291 -2.460818291e-05 186.3252176
-219.334107 23.93701039 -9.738693325e-05
48.52248595 5.200595392 -9.738693325e-05
-2.399548048 -2.460818291e-05 166.3426736
-17.92089905 -2.460818291e-05 112.9649656
-212.99681 -2.460818291e-05 98.40791761
-181.48107 -2.460818291e-05 86.38426661
19.33639295 -2.460818291e-05 225.4854886
119.087363 -2.460818291e-05 138.2752446
-63.92801405 66.13775039 -9.738693325e-05
-37.90033205 -2.460818291e-05 141.5308986
-206.932251 17.85957439 -9.738693325e-05
-144.739047 -2.460818291e-05 112.9066816
61.23458095 7.202544392 -9.738693325e-05
236.999993 96.36113339 229.3073696
-51.70012105 28.42799339 -9.738693325e-05
214.914003 -2.460818291e-05 134.5330426
-88.29889305 51.04660139 -9.738693325e-05
52.19705395 -2.460818291e-05 215.7365726
236.999993 74.62895039 163.6748756
-171.996368 -2.460818291e-05 38.85481161
-40.39578605 23.66587739 -9.738693325e-05
-81.91948705 -2.460818291e-05 199.7370646
-29.61708905 40.51253839 -9.738693325e-05
153.461747 -2.460818291e-05 241.9316496
147.604663 -2.460818291e-05 77.28744961
236.999993 59.33164039 161.4280446
250.401957 -2.460818291e-05 101.8125126
54.42553195 -2.460818291e-05 127.2095986
236.999993 56.46726639 124.5871196
-232.836936 -2.460818291e-05 101.7128036
102.044839 -2.460818291e-05 103.8839296
-239.673083 -2.460818291e-05 44.65797961
-199.604361 46.98203539 -9.738693325e-05
199.151785 -2.460818291e-05 39.00408961
3.556063952 -0.9811136082 -9.738693325e-05
43.97419995 -2.460818291e-05 161.8537826
90.74607995 -2.460818291e-05 57.15305161
-40.18596805 -2.460818291e-05 61.63609461
62.61484495 -2.460818291e-05 60.76962561
-49.53111205 -2.460818291e-05 20.70629861
62.65390895 -2.460818291e-05 213.8677736
236.999993 39.83766539 155.3706126
-147.423155 -2.460818291e-05 15.73953461
-47.28063205 -2.460818291e-05 41.21200361
183.585849 -2.460818291e-05 6.120683613
236.999993 18.47615339 166.8329616
-138.455601 -2.460818291e-05 159.9217126
-72.31711505 -2.460818291e-05 186.0830226
240.999993 25.37485739 62.61876461
237.622406 7.643107392 1.856770613
24.41175395 -2.460818291e-05 90.68625461
-185.256838 -2.460818291e-05 135.0607756
248.234915 -2.460818291e-05 87.91262361
104.12795 2.590640392 -9.738693325e-05
-147.44815 -2.460818291e-05 136.9256116
-103.472688 47.91212539 -9.738693325e-05
202.359561 7.182672392 -9.738693325e-05
86.19356395 -2.460818291e-05 38.50377061
58.68962995 -2.460818291e-05 84.63445961
-261.328375 46.79945739 -9.738693325e-05
233.475043 -2.460818291e-05 113.9396766
159.851601 -2.460818291e-05 246.2721676
-222.745821 31.65495039 -9.738693325e-05
-253.420436 -2.460818291e-05 223.6355436
191.056688 -2.460818291e-05 76.27519361
70.81122095 -2.460818291e-05 196.2618366
-211.247191 4.750476392 -9.738693325e-05
-18.78928205 44.93270739 -9.738693325e-05
-242.975389 10.02143239 -9.738693325e-05
-109.150076 -2.460818291e-05 212.3113666
236.999993 9.896759392 73.18667661
242.529969 42.02828439 -9.738693325e-05
59.21742695 -2.460818291e-05 160.8161496
240.999993 51.97891339 51.93887261
138.969901 56.19613839 -9.738693325e-05
40.93952695 -2.460818291e-05 213.2649766
240.999993 100.9988424 246.8863056
234.78607 -1.625608608 -9.738693325e-05
-175.814527 -2.460818291e-05 118.2519706
-9.403285048 -2.460818291e-05 207.7497286
-62.36466405 -2.460818291e-05 48.14062661
-93.33714505 -2.460818291e-05 10.14134561
245.456723 -2.460818291e-05 217.3745246
131.150548 20.19420539 -9.738693325e-05
237.238185 53.02224339 -9.738693325e-05
70.42986495 -2.460818291e-05 23.98185261
236.710251 -2.460818291e-05 174.2015146
-147.280284 -2.460818291e-05 223.9431176
-43.78615905 -2.460818291e-05 88.68955661
28.77693895 50.59826439 -9.738693325e-05
-47.06350105 -2.460818291e-05 223.1677936
236.999993 7.361816392 31.49385861
-122.587706 -2.460818291e-05 58.49942361
127.716151 -2.460818291e-05 109.3951486
240.999993 46.16267439 82.13683761
116.037171 67.47428139 -9.738693325e-05
-182.976464 -2.460818291e-05 213.4684186
-217.09363 60.23631039 -9.738693325e-05
236.999993 52.19654039 106.3228536
-90.15576905 41.54341239 -9.738693325e-05
-81.09270705 -2.460818291e-05 248.6419266
61.40795295 27.08546839 -9.738693325e-05
-13.68862205 -2.460818291e-05 3.355899613
238.202519 -2.460818291e-05 191.3768206
-132.736169 -2.460818291e-05 27.75163161
-0.7990520481 4.708004392 -9.738693325e-05
-36.83511805 -2.460818291e-05 120.5649666
-204.587045 -2.460818291e-05 115.5973156
240.999993 55.49734239 244.0232256
236.999993 22.49990439 83.89157761
-78.66975705 -2.460818291e-05 6.541042613
-45.80504505 -2.460818291e-05 154.0291726
257.726504 36.10709539 -9.738693325e-05
236.999993 7.695215392 171.4640926
236.999993 60.43485439 207.1609576
236.999993 70.61064139 237.5035406
-243.483361 -2.460818291e-05 249.4189746
-113.87959 -2.460818291e-05 36.53675261
-220.829238 -2.460818291e-05 119.8547166
240.999993 78.65103339 180.3003876
240.999993 17.32252239 187.4220986
-160.819963 -2.460818291e-05 206.3107266
-143.317162 -2.460818291e-05 150.2564926
177.162871 -2.460818291e-05 114.7906576
-146.5452 -2.460818291e-05 89.27100561
-141.11683 53.60541539 -9.738693325e-05
156.945971 -2.460818291e-05 145.2693646
183.218115 -2.460818291e-05 205.2879156
-1.100884048 -2.460818291e-05 205.1308336
158.895359 -2.460818291e-05 131.6430466
236.999993 86.38522039 203.8450036
17.18589295 40.29696339 -9.738693325e-05
240.999993 23.09973439 249.8030286
-67.05187405 -0.6068446082 -9.738693325e-05
170.825895 -2.460818291e-05 235.9370186
-203.659701 -2.460818291e-05 32.47580061
150.521093 -2.460818291e-05 155.9218556
-10.10508805 -2.460818291e-05 106.5242826
126.329277 -2.460818291e-05 193.7660636
-125.182017 -2.460818291e-05 161.5888686
164.348173 45.85550839 -9.738693325e-05
9.177122952 -2.460818291e-05 152.0061926
-20.57026405 -2.460818291e-05 27.26130061
52.35997595 -2.460818291e-05 234.2333306
-116.930439 -2.460818291e-05 92.99211361
236.999993 75.03361639 205.1608246
-252.999015 62.80322439 -9.738693325e-05
-87.09732405 -2.460818291e-05 173.6988436
236.999993 23.25773339 235.9166676
72.30325595 -2.460818291e-05 78.96219161
-230.380782 -2.460818291e-05 156.2621916
236.999993 45.38199139 223.9405476
-71.44560005 23.08619139 -9.738693325e-05
166.83411 -2.460818291e-05 211.2285186
236.116109 -2.460818291e-05 94.96213261
251.683524 -2.460818291e-05 241.7072056
47.49231995 -2.460818291e-05 182.5014196
-64.56146205 -2.460818291e-05 173.5619536
-216.994245 -2.460818291e-05 147.6891386
253.661655 -2.460818291e-05 185.1728786
68.22022995 -2.460818291e-05 88.30855761
-220.044228 -2.460818291e-05 169.2925576
214.082089 -2.460818291e-05 244.9738186
236.999993 47.60244939 120.5534606
119.790217 -2.460818291e-05 5.956778613
-194.010523 -2.460818291e-05 79.06739661
-153.060309 49.13909539 -9.738693325e-05
156.626547 -2.460818291e-05 41.05073661
-128.61206 -2.460818291e-05 103.9958486
20.31780895 -2.460818291e-05 137.4492276
-96.67157205 -2.460818291e-05 218.2919576
236.999993 24.21048839 212.5679966
152.15176 -2.460818291e-05 9.828467613
-80.64200005 -2.460818291e-05 35.42760861
100.277255 -2.460818291e-05 125.3961106
1.255797952 -2.460818291e-05 221.1127216
51.29254995 -2.460818291e-05 203.1345346
236.999993 45.12623339 245.4289876
-175.951975 16.26929639 -9.738693325e-05
193.442428 -2.460818291e-05 132.2560386
46.63837395 30.26712039 -9.738693325e-05
240.999993 2.302528392 24.70967561
-116.87466 -2.460818291e-05 182.9973386
33.98675695 -2.460818291e-05 213.8096196
254.942444 -2.460818291e-05 132.8058286
-116.090083 54.55457639 -9.738693325e-05
-252.544256 -2.460818291e-05 45.40807161
49.55062495 -2.460818291e-05 48.05546861
121.318918 -2.460818291e-05 152.9515416
80.77057095 18.06928739 -9.738693325e-05
-54.54900205 66.71647939 -9.738693325e-05
240.999993 37.83357339 246.6864706
-167.092538 -2.460818291e-05 241.8627976
189.718449 -2.460818291e-05 164.5419276
240.999993 79.59534039 166.4022266
246.326166 -2.460818291e-05 50.58194861
194.349881 40.21922939 -9.738693325e-05
-135.093097 -2.460818291e-05 216.6311386
155.135861 -2.460818291e-05 183.9717816
240.999993 30.70361239 91.58508061
-23.43794705 -2.460818291e-05 252.3934706
142.752799 26.49733639 -9.738693325e-05
-7.026245048 -2.460818291e-05 93.33887661
125.672316 -2.460818291e-05 207.8637406
40.78425895 -2.460818291e-05 228.6077716
197.406071 -2.460818291e-05 185.1380416
-51.86729705 58.83576839 -9.738693325e-05
24.46670995 -2.460818291e-05 144.6713706
-111.344217 2.251190392 -9.738693325e-05
24.24045395 -2.460818291e-05 123.9127606
-227.612509 -2.460818291e-05 134.9827896
-95.42484705 -2.460818291e-05 46.37850561
236.999993 17.53113839 98.50567261
-126.582321 56.84447739 -9.738693325e-05
-145.358919 25.59168539 -9.738693325e-05
-81.64898105 -2.460818291e-05 207.9956896
-172.580001 -0.9541146082 -9.738693325e-05
-166.95651 -2.460818291e-05 70.34521161
-107.053603 -2.460818291e-05 80.31024261
-28.52341905 60.56154039 -9.738693325e-05
-106.524324 -2.460818291e-05 88.55560661
156.014638 -1.321776608 -9.738693325e-05
-132.254738 62.03319539 -9.738693325e-05
236.999993 102.0886924 241.4526816
-57.87286505 -2.460818291e-05 94.51519361
-235.145183 -2.460818291e-05 168.2332256
227.800268 53.12058839 -9.738693325e-05
238.999978 -2.460818291e-05 127.7088466
-58.03005805 -2.460818291e-05 232.6873416
189.333425 -2.460818291e-05 42.91186761
-15.51861105 17.63045739 -9.738693325e-05
-175.211077 -2.460818291e-05 146.3280996
-106.217898 -2.460818291e-05 224.7560426
-161.196983 -2.460818291e-05 149.9479916
240.999993 17.28008639 7.666247613
236.999993 93.53452439 223.1242876
-84.03876705 61.22745739 -9.738693325e-05
67.09914395 -2.460818291e-05 53.14866061
-69.20882405 -2.460818291e-05 131.2021266
81.96798695 -2.460818291e-05 163.8264476
-69.80815405 45.88293239 -9.738693325e-05
83.24883495 -2.460818291e-05 23.81636161
208.439485 -2.460818291e-05 236.2265726
-9.773712048 -2.460818291e-05 244.2776396
-161.087318 -2.460818291e-05 246.9616136
236.999993 65.42459339 195.1474016
-11.84433505 37.80249439 -9.738693325e-05
240.999993 73.55802339 215.9716886
240.999993 52.22129339 66.86978261
236.999993 36.16344939 91.51265761
158.593994 -2.460818291e-05 30.30668961
-233.050006 -2.460818291e-05 119.5339736
171.15533 -2.460818291e-05 103.6976936
-236.744496 -2.460818291e-05 225.2300036
46.38695595 -2.460818291e-05 66.39192361
194.86632 -2.447637608 -9.738693325e-05
-224.398627 -2.460818291e-05 159.3953176
240.999993 12.98563739 201.4527936
236.999993 7.048900392 205.4519606
161.949092 -2.460818291e-05 109.6248436
-244.552971 -2.460818291e-05 19.30356661
14.99334495 -2.460818291e-05 69.40527061
240.999993 7.841545392 12.73443961
-130.972553 -2.460818291e-05 70.05881861
21.62815695 -2.460818291e-05 45.55261761
87.06934495 -2.460818291e-05 173.8472686
