# .PCD v0.7 - Point Cloud Data file format
VERSION 0.7
FIELDS x y z
SIZE 4 4 4
TYPE F F F
COUNT 1 1 1
WIDTH 1201
HEIGHT 1
VIEWPOINT 0 0 0 1 0 0 0
POINTS 1201
DATA ascii
-40.25016127 2.362533393 -38.50548039
-40.25016127 30.88353139 -58.99403339
11.74453473 -2.300435607 -94.00009739
25.84928073 212.5589058 -9.738722702e-05
-40.25016127 3.811565393 -3.098274387
-16.16020127 14.10016939 -9.738722702e-05
-40.25016127 51.24373739 0.5748976128
-40.25016127 54.41807439 -15.60588339
-31.96245427 25.87193039 -94.00009739
7.315880725 0.6622343929 -88.00009739
-3.709912275 53.90549839 -94.00009739
27.96599973 136.5730914 -9.738722702e-05
-32.95369427 43.28483439 -88.00009739
37.74983873 166.5692994 1.835033613
18.96785973 160.3059214 -9.738722702e-05
-24.56126927 183.5566814 -9.738722702e-05
23.73008773 166.1485764 -9.738722702e-05
-40.25016127 57.77978239 -76.58342839
-40.25016127 69.81884739 -22.13294939
-32.49351727 51.19835839 0.02391861277
-16.81099727 223.7417303 -9.738722702e-05
-4.743193275 67.99997539 -90.64863239
-40.25016127 52.97750339 -9.496240387
40.61803273 35.95352139 -88.00009739
2.346241725 60.42851039 -9.738722702e-05
-40.25016127 16.13901639 -66.01101239
-40.25016127 49.74842939 -18.85319639
36.94220373 33.20923339 -94.00009739
36.13149573 90.12208039 -9.738722702e-05
18.89731373 14.78866339 -9.738722702e-05
12.62605673 100.1655164 -9.738722702e-05
-28.08091927 35.74205339 -88.00009739
-40.25016127 2.455622393 -15.96031339
-25.31746227 21.58611439 -94.00009739
-12.27059527 138.4457244 -9.738722702e-05
3.702624725 33.53549239 -88.00009739
-4.283349275 117.7268064 -9.738722702e-05
-21.41261127 147.0227124 -9.738722702e-05
37.74983873 64.02725739 0.9452996128
35.79870673 213.7253228 -9.738722702e-05
-16.82069127 84.52171939 -9.738722702e-05
20.24175773 88.16756939 -9.738722702e-05
18.93048973 229.9828138 -9.738722702e-05
-29.68098927 210.6167734 -9.738722702e-05
-25.91474927 59.45291639 -88.00009739
-27.35549627 245.2545249 -9.738722702e-05
-16.64051427 163.3179754 -9.738722702e-05
36.37389173 67.38466239 -88.00009739
24.74016073 64.73776739 -94.00009739
42.22030573 1.794072393 -94.00009739
39.72373173 13.17725039 -94.00009739
4.159227725 7.440018393 -88.00009739
-26.27597727 200.8921364 -9.738722702e-05
-30.07274927 25.25928339 -88.00009739
26.26937273 71.37565339 -9.738722702e-05
12.14469573 34.27900239 -88.00009739
6.233008725 -2.460711084e-05 -50.17761339
-20.14359827 33.45957539 -94.00009739
25.60918673 10.28345839 -94.00009739
-25.75518127 69.15046039 -9.738722702e-05
-10.82957127 -2.460711084e-05 -83.41601539
25.33723573 -2.460711084e-05 0.4533866128
-8.173909275 248.9295272 -9.738722702e-05
-33.58108327 -2.460711084e-05 -84.60023839
-36.66434627 240.3273572 1.334949613
-32.78268627 54.27616439 -88.00009739
-12.00742527 26.12524339 -88.00009739
11.98834773 143.7836324 -9.738722702e-05
22.76905073 39.16541239 -88.00009739
-0.5529832748 21.25153839 -9.738722702e-05
16.54817073 -2.460711084e-05 -22.66984439
20.31032873 35.20469239 -88.00009739
-21.26967327 54.22569939 -88.00009739
-1.659609275 20.15538839 -94.00009739
19.36194773 61.82786439 -88.00009739
24.03210173 252.1278021 -9.738722702e-05
1.141585725 14.03403239 -88.00009739
40.45468873 43.90244939 -88.00009739
19.33332273 28.40342839 -88.00009739
0.6095877252 35.41675439 -94.00009739
30.21329573 31.40762439 -9.738722702e-05
41.11105673 9.494666393 -94.00009739
-20.25878627 137.8342314 -9.738722702e-05
12.69282473 48.19113839 -9.738722702e-05
-9.780788275 124.2476074 -9.738722702e-05
2.726543725 56.64072439 -9.738722702e-05
-18.86862727 10.02647439 -9.738722702e-05
-42.79328127 -2.460711084e-05 -60.63429239
-11.92451627 -2.110256607 -71.03604339
37.15288773 -2.460711084e-05 -6.948655387
-30.83622127 38.37478439 -9.738722702e-05
30.37419473 -2.460711084e-05 -14.25014739
-6.975833275 160.0373864 -9.738722702e-05
-40.25016127 0.7729663929 -20.62022939
-34.98896927 -2.460711084e-05 1.348794613
-11.92291327 57.90783539 -94.00009739
-29.81341627 50.36063539 -88.00009739
-9.004434275 220.7951578 -9.738722702e-05
42.40654373 20.19603639 -94.00009739
19.15989073 204.2621374 -9.738722702e-05
-34.51581827 46.83483439 -88.00009739
-36.34005727 105.9654604 1.157277613
-20.28106427 40.05858439 -9.738722702e-05
36.44693973 46.43775639 -94.00009739
10.26857573 188.0045894 -9.738722702e-05
14.50051473 230.8815857 -9.738722702e-05
-27.53966727 67.99997539 -90.89772639
18.65147873 69.88548839 -9.738722702e-05
-13.40110427 59.90433439 -9.738722702e-05
-25.68854827 28.62951239 -9.738722702e-05
19.40631173 1.479610393 -9.738722702e-05
20.19007773 -2.460711084e-05 -53.33928239
33.96831673 108.2727714 -9.738722702e-05
32.59107273 -0.6748466071 -88.00009739
34.99547073 229.3218261 -9.738722702e-05
-10.61633627 251.4888991 -9.738722702e-05
35.61721673 -2.460711084e-05 -63.25719339
40.66530573 52.35996139 -88.00009739
-17.28960627 17.53962439 -88.00009739
-27.69382727 221.3177875 -9.738722702e-05
-2.387629275 246.2525101 -9.738722702e-05
30.02047773 48.26458439 -88.00009739
34.99879373 36.86763939 -88.00009739
-8.646186275 -0.2617616071 -88.00009739
-21.47515427 -2.460711084e-05 -83.30771439
35.45930473 -2.460711084e-05 -10.04178239
-33.58976827 33.95848139 -94.00009739
-9.483383275 210.3331324 -9.738722702e-05
15.74830373 -2.460711084e-05 -58.41746639
-20.79113427 40.81085539 -94.00009739
31.53065073 2.330232393 -94.00009739
-34.52587827 -2.460711084e-05 -3.479177387
-20.50439627 72.83017939 -9.738722702e-05
-10.21182027 0.8873183929 -9.738722702e-05
18.35524673 44.27974039 -94.00009739
2.038554725 56.52526039 -94.00009739
34.75049973 35.99662839 -94.00009739
-19.84277827 6.598348393 -9.738722702e-05
-16.51793327 67.01195639 -88.00009739
-30.87028327 237.6367874 -9.738722702e-05
-24.94374827 -2.460711084e-05 -53.51561839
-15.93398027 219.7130572 -9.738722702e-05
-2.903103275 151.6360864 -9.738722702e-05
22.35037473 176.5508974 -9.738722702e-05
13.42925573 -2.460711084e-05 -52.93689439
-28.01466727 1.723257393 -94.00009739
-28.31221027 -2.460711084e-05 -46.04454139
5.470691725 47.00979839 -88.00009739
30.62741773 92.25853339 -9.738722702e-05
19.96756073 67.99997539 -90.60054239
14.40996273 185.8528704 -9.738722702e-05
-38.59044527 51.53426739 -88.00009739
-42.40635727 66.23346139 -88.00009739
-8.636442275 5.633362393 -88.00009739
34.39243473 39.37135439 -94.00009739
-19.97131227 120.9728104 -9.738722702e-05
-20.03968827 67.99997539 -89.92275639
9.996391725 -2.460711084e-05 -58.52640839
25.28641573 41.23997839 -88.00009739
-32.08201027 244.3698775 -9.738722702e-05
17.01495173 61.28540839 -94.00009739
15.00856573 52.64121639 -94.00009739
16.36676173 179.9955234 -9.738722702e-05
-42.62713127 -2.460711084e-05 -27.99010139
22.87015273 67.99997539 -92.01117439
22.43153373 -0.5988686071 -88.00009739
19.62539573 181.5860284 -9.738722702e-05
20.54331673 129.9119374 -9.738722702e-05
37.74983873 199.8301704 0.3431776128
-26.88982827 108.3107694 -9.738722702e-05
-26.55639827 52.60530439 -88.00009739
5.065592725 116.8952774 -9.738722702e-05
14.84374273 -0.9020706071 -94.00009739
36.45408773 170.8230224 -9.738722702e-05
-37.84810227 11.81707639 -94.00009739
-8.468054275 85.15816239 -9.738722702e-05
-7.067307275 143.0989524 -9.738722702e-05
21.94816673 142.0068754 -9.738722702e-05
-16.57891627 -2.460711084e-05 -67.08934439
-34.31500927 2.597751393 -88.00009739
19.72439573 53.58338539 -94.00009739
31.86676673 166.5407304 -9.738722702e-05
-8.761994275 108.8408374 -9.738722702e-05
-19.51160627 11.15947039 -94.00009739
-10.59950727 193.4144094 -9.738722702e-05
-17.19770927 47.20429239 -94.00009739
2.928361725 -2.460711084e-05 -85.89138639
24.61830073 18.55341639 -9.738722702e-05
26.20665073 -2.460711084e-05 -20.70050039
-10.86610627 39.16869339 -94.00009739
-14.52919427 94.39626439 -9.738722702e-05
-28.35561927 25.03155339 -94.00009739
-27.41779427 -2.460711084e-05 -59.33107139
-17.13853127 9.134319393 -94.00009739
-0.3155672748 170.5053324 -9.738722702e-05
31.09590273 146.3375484 -9.738722702e-05
3.219429725 37.79231139 -9.738722702e-05
12.28040873 63.43675939 -94.00009739
-32.60303127 94.03585439 0.03472561277
-40.25016127 0.7764413929 -65.81458739
10.28393973 63.86300239 -9.738722702e-05
22.08600173 63.43974639 -88.00009739
8.946804725 67.25984839 -88.00009739
10.29307873 10.77049839 -94.00009739
-24.99393227 0.9395173929 -88.00009739
-21.67038427 241.3793481 -9.738722702e-05
-2.426604275 14.68240539 -94.00009739
-37.44079527 -2.460711084e-05 -24.45585739
39.16030273 2.523946393 -88.00009739
-35.88593327 109.6702364 0.9140776128
-13.62305827 52.57172139 -94.00009739
7.681658725 83.93975239 -9.738722702e-05
-14.87977727 -1.483852607 -88.00009739
-15.48206827 -2.460711084e-05 0.1400316128
37.37760873 40.48658639 -9.738722702e-05
-35.34065327 65.90300639 -94.00009739
19.47732373 67.01266639 -94.00009739
-20.55018527 -2.460711084e-05 -59.53573039
-8.536820275 -2.460711084e-05 -15.33833039
21.13870473 5.045188393 -9.738722702e-05
12.06487373 58.92995239 -88.00009739
-21.54688627 54.98561139 -94.00009739
3.332238725 140.7004674 -9.738722702e-05
-32.23224327 22.93394039 -94.00009739
43.18688273 67.99997539 -91.53469439
-2.895163275 -2.460711084e-05 -38.07182439
-4.246649275 67.26630039 -88.00009739
7.802431725 139.6847254 -9.738722702e-05
-36.79600427 25.80512239 -88.00009739
-7.469193275 64.57877839 -94.00009739
-8.483739275 53.78134139 -94.00009739
3.965154725 245.3700708 -9.738722702e-05
16.78861773 125.5975034 -9.738722702e-05
-40.25016127 2.323549393 -81.48824739
20.47636873 -2.460711084e-05 -77.10175439
-20.48646527 22.22392339 -88.00009739
23.05806373 9.290594393 -94.00009739
-3.737263275 -2.460711084e-05 -16.94815039
-7.539821275 18.08752539 -88.00009739
16.87362473 149.9659294 -9.738722702e-05
33.07894473 -2.460711084e-05 -13.94503839
12.90842773 -2.460711084e-05 -50.28439439
-40.63934527 -2.460711084e-05 -71.35229839
-19.19218527 52.50417139 -88.00009739
27.99830873 42.46097139 -94.00009739
-38.61063927 -2.460711084e-05 -55.98368239
14.74204473 162.2845284 -9.738722702e-05
4.945885725 55.46485339 -94.00009739
-34.16064127 145.3671254 0.2578216128
28.32883373 15.15605239 -94.00009739
36.00679473 57.54537339 -9.738722702e-05
-18.96303027 2.721581393 0.4836886128
-27.45416127 38.15776039 -94.00009739
-24.58126627 59.44825639 -94.00009739
19.39199273 81.74575239 -9.738722702e-05
9.372686725 201.4386294 -9.738722702e-05
-22.26317427 -2.460711084e-05 -29.53819039
19.05516973 137.7792814 -9.738722702e-05
36.20739673 -2.460711084e-05 -74.79023939
-42.81364027 20.87707739 -94.00009739
-25.74523927 -2.460711084e-05 -45.87300439
1.874308725 88.86608139 -9.738722702e-05
21.46257273 44.85635039 -9.738722702e-05
-20.74704027 -2.460711084e-05 -44.40678139
25.74912373 -2.460711084e-05 -87.77637739
31.24063673 35.47496439 -94.00009739
14.94271473 48.22240139 -94.00009739
22.02350773 24.16031939 -9.738722702e-05
17.45317173 162.3322994 -9.738722702e-05
12.37255573 125.8094504 -9.738722702e-05
8.112414725 144.3894074 -9.738722702e-05
-17.49482327 29.44890139 -88.00009739
42.40500873 64.24288339 -88.00009739
2.327624725 17.64019839 -9.738722702e-05
-25.98314027 32.28198439 -9.738722702e-05
22.71231373 33.55447339 -88.00009739
22.62524973 -2.460711084e-05 -78.33565739
-12.53140627 226.0381907 -9.738722702e-05
-30.46836327 26.93561739 -9.738722702e-05
41.29943473 17.00037739 -88.00009739
31.47245273 41.31713939 -88.00009739
-32.34412427 -2.460711084e-05 -2.389666387
-37.62670027 59.61207039 -94.00009739
20.52302373 14.60760939 -88.00009739
9.166741725 2.214342393 -88.00009739
8.166003725 137.2803294 -9.738722702e-05
-19.34900127 162.6236004 -9.738722702e-05
-4.483202275 77.04055039 -9.738722702e-05
20.15278073 -1.246154607 -88.00009739
-7.021774275 2.259895393 -9.738722702e-05
40.96493973 46.60298439 -88.00009739
-23.90648227 38.78191739 -94.00009739
-6.598934275 76.09982339 -9.738722702e-05
-35.76713527 -2.460711084e-05 -85.71599039
-14.29910027 63.09045939 -9.738722702e-05
34.07991573 -2.460711084e-05 -30.15961639
-40.25016127 2.080800393 -57.77670439
11.12227873 12.85273239 -94.00009739
-24.35732727 57.87170239 -88.00009739
19.40218673 48.04318839 -9.738722702e-05
2.188297725 -2.460711084e-05 -79.48552339
-25.39685527 -2.460711084e-05 -26.42014839
-24.55871727 61.09492139 -9.738722702e-05
-3.212615275 65.00491439 -9.738722702e-05
-8.032437275 193.2768594 -9.738722702e-05
3.371492725 161.3262304 -9.738722702e-05
-11.70710127 67.99997539 -90.58366539
-4.343743275 99.90246739 -9.738722702e-05
-9.162880275 -2.460711084e-05 -81.97848239
-9.169066275 223.9326678 -9.738722702e-05
2.000319725 68.21750039 -9.738722702e-05
25.02178773 119.9730564 -9.738722702e-05
22.61211373 15.55360539 -88.00009739
-40.56204427 65.17873039 -88.00009739
5.013284725 -2.460711084e-05 -41.97454439
17.73933273 205.8245944 -9.738722702e-05
-33.61818427 18.45401539 -94.00009739
24.85134573 69.28202239 -9.738722702e-05
-7.388097275 222.1098969 -9.738722702e-05
14.94886873 126.5345294 -9.738722702e-05
-17.01113527 39.35179539 -94.00009739
18.11531973 22.72230439 -9.738722702e-05
8.809604725 148.6540984 -9.738722702e-05
9.791122725 44.21159339 -9.738722702e-05
11.14091773 101.5430454 -9.738722702e-05
32.60311673 244.8236475 -9.738722702e-05
-28.16802927 47.37945939 -88.00009739
-29.93232927 -2.460711084e-05 -49.25853639
28.60768173 19.97483039 -94.00009739
30.51348473 231.8347346 -9.738722702e-05
-3.018419275 242.1116695 -9.738722702e-05
-11.27741627 27.96212239 -88.00009739
-36.29659227 3.417023393 -88.00009739
-32.46100827 23.01399839 0.02071061277
8.955101725 50.99342039 -88.00009739
-25.53477627 244.596042 -9.738722702e-05
-26.81746827 27.93447639 -94.00009739
8.832206725 -2.460711084e-05 -70.45232339
20.38523673 149.4421744 -9.738722702e-05
-35.71936627 -2.075605607 -88.00009739
36.76026273 195.2204714 -9.738722702e-05
-23.94225727 125.8595224 -9.738722702e-05
-36.61430727 7.197650393 -88.00009739
-34.48434527 160.2940454 0.3555986128
-24.17541827 -2.460711084e-05 -60.04959639
4.859999725 37.31926139 -94.00009739
41.01846773 14.42656339 -94.00009739
1.130874725 -2.460711084e-05 -37.92677139
37.53398273 172.2323474 -9.738722702e-05
-37.91656527 61.84606039 -94.00009739
37.60499373 -2.460711084e-05 -29.41490739
15.75151073 82.54806139 -9.738722702e-05
-11.27091627 190.6674524 -9.738722702e-05
4.466266725 171.6881654 -9.738722702e-05
25.59220173 51.54096639 -88.00009739
-28.63985627 182.0503714 -9.738722702e-05
12.58598973 231.1529791 -9.738722702e-05
4.855206725 37.29582739 -9.738722702e-05
-17.99107927 224.9617882 -9.738722702e-05
-33.15388327 29.74951339 -94.00009739
-31.00343527 79.97990539 -9.738722702e-05
40.02742573 55.57858739 -94.00009739
10.67837373 189.6106644 -9.738722702e-05
36.51791273 23.40616039 -94.00009739
-9.606363275 39.20110339 -9.738722702e-05
-8.397213275 123.3720754 -9.738722702e-05
5.509969725 35.31703939 -9.738722702e-05
6.052760725 137.2089694 -9.738722702e-05
-9.765549275 219.3855483 -9.738722702e-05
-36.99641427 10.48192339 -94.00009739
30.74442673 140.6442034 -9.738722702e-05
41.84504873 32.81859339 -94.00009739
-8.475632275 87.25839039 -9.738722702e-05
36.62290173 120.3273454 -9.738722702e-05
-22.75971127 242.4987781 -9.738722702e-05
-28.54449327 48.84745139 -88.00009739
22.76577773 62.10321239 -88.00009739
-10.93694727 62.21711739 -9.738722702e-05
-18.31174127 81.59497839 -9.738722702e-05
-1.296867275 8.277669393 -9.738722702e-05
41.93946673 -2.460711084e-05 -83.60649439
23.20015573 155.6712854 -9.738722702e-05
-34.28830327 32.78163139 -94.00009739
-5.117923275 52.79670439 -9.738722702e-05
-34.57672827 64.09173239 0.3854686128
32.49319473 71.58815739 -9.738722702e-05
21.88586373 249.8360007 -9.738722702e-05
6.566644725 5.882550393 -88.00009739
33.78186073 169.7762034 -9.738722702e-05
8.059680725 50.55740939 -9.738722702e-05
37.74983873 133.0340654 0.9435006128
14.72253773 59.89631139 -94.00009739
1.143901725 230.9890901 -9.738722702e-05
-11.75227627 250.8902425 -9.738722702e-05
10.28963173 -2.460711084e-05 -47.73819439
15.73141273 5.776920393 -88.00009739
-27.75002027 183.5398864 -9.738722702e-05
23.65907573 -2.460711084e-05 -19.22093139
29.19528773 96.49719139 -9.738722702e-05
10.16679273 32.07324639 -88.00009739
-32.85785327 25.13996839 0.05987261277
-19.67311627 40.49692639 -94.00009739
21.55672873 30.07274639 -94.00009739
-39.07506527 -2.460711084e-05 -48.96939339
-36.17354227 26.74185539 -88.00009739
-21.60628027 -2.460711084e-05 -31.08475539
21.67193673 -2.460711084e-05 -87.44342339
37.74983873 158.3966584 0.7996676128
1.954746725 -2.460711084e-05 -86.39272939
-7.550760275 211.7733624 -9.738722702e-05
0.03849872522 -2.460711084e-05 -47.96522539
0.4943347252 -2.460711084e-05 -22.33252539
-15.86557527 30.85846539 -94.00009739
26.84842373 67.03089239 -94.00009739
-15.19216227 13.69171539 -9.738722702e-05
2.325686725 21.66140939 -9.738722702e-05
-27.13518727 178.9887804 -9.738722702e-05
-42.74179027 -2.460711084e-05 -26.98884139
32.14593573 -2.460711084e-05 -66.17621139
-12.22167827 67.99997539 -89.18240439
-26.03404027 205.5607784 -9.738722702e-05
-7.931311275 200.9042874 -9.738722702e-05
-30.44246727 146.7777184 -9.738722702e-05
-24.01215127 56.95597039 -94.00009739
6.354753725 25.88556139 -94.00009739
22.04845873 67.99997539 -89.27270439
37.15919673 -2.460711084e-05 -30.16499239
26.10562473 41.21957339 -88.00009739
16.20271373 -2.460711084e-05 -23.39756939
-19.76549927 76.24495339 -9.738722702e-05
-2.200351275 -2.460711084e-05 -84.22805639
19.19365673 54.07942739 -94.00009739
35.65554073 -0.5618546071 -88.00009739
7.561422725 -0.004534607111 -88.00009739
9.877761725 146.8272934 -9.738722702e-05
33.28477073 33.28295739 -94.00009739
17.81186573 50.07954739 -9.738722702e-05
22.71687273 67.99997539 -91.41842739
-15.16459427 74.39382139 -9.738722702e-05
-27.52934927 35.53785239 -88.00009739
7.369503725 49.86253139 -88.00009739
30.80088173 149.8932534 -9.738722702e-05
24.20879173 -2.460711084e-05 -19.25691839
-22.20941127 242.4792168 -9.738722702e-05
-6.475170275 2.218577393 -9.738722702e-05
-32.60508927 -2.460711084e-05 -77.49532939
-15.46787927 -2.460711084e-05 0.6102086128
28.46400673 15.55335539 -94.00009739
-39.09826027 45.51534339 -94.00009739
-24.67218327 61.33560339 -9.738722702e-05
42.67036773 -2.460711084e-05 -45.05429539
22.51773673 108.0948184 -9.738722702e-05
-31.05163927 237.4855853 -9.738722702e-05
-17.48045127 119.1082614 -9.738722702e-05
-13.29728927 60.00124139 -9.738722702e-05
9.126431725 217.5835932 0.9474216128
-33.15598127 161.5189444 0.08929261277
-32.46100827 23.01399839 0.02071061277
-32.89418227 102.1784274 0.06345761277
-33.53084527 108.0498334 0.1262866128
-32.25821827 207.3607074 0.0006976127729
-33.66051127 90.57731739 0.1390826128
-32.49351727 51.19835839 0.02391861277
-32.60303127 94.03585439 0.03472561277
-32.85785327 25.13996839 0.05987261277
-33.08222527 41.37749839 0.08201461277
-34.48434527 160.2940454 0.3555986128
-34.48329127 81.14288839 0.3568276128
-34.26436227 246.762501 0.2872606128
-34.13254627 65.37721139 0.2508746128
-34.74208127 167.6494164 0.4335376128
-34.24730427 237.3131037 0.2822776128
-35.15182527 131.6323624 0.5583776128
-34.57672827 64.09173239 0.3854686128
-34.16064127 145.3671254 0.2578216128
-35.58243727 57.82327939 0.7529456128
-35.88593327 109.6702364 0.9140776128
-36.47107527 146.2868974 1.226375613
-36.34005727 105.9654604 1.157277613
-36.29896027 155.4534604 1.134001613
-36.66434627 240.3273572 1.334949613
-36.98290527 193.8702904 1.581046613
-37.36680327 48.17133639 1.900201613
-36.82778227 203.8749534 1.453143613
-37.69632627 139.9456014 2.169453613
-37.80518127 25.74046739 2.261529613
37.74983873 236.5957458 0.1596706128
37.74983873 133.0340654 0.9435006128
37.74983873 202.5630974 2.043167613
37.74983873 49.43708039 2.034136613
37.74983873 158.3966584 0.7996676128
37.74983873 158.6257224 1.880140613
37.74983873 43.39691439 0.003369612773
37.74983873 217.3538509 0.6740776128
37.74983873 131.8048764 0.4350636128
37.74983873 64.02725739 0.9452996128
37.74983873 142.8290254 2.246997613
37.74983873 199.8301704 0.3431776128
37.74983873 166.5692994 1.835033613
37.74983873 208.2235504 2.224794613
37.63521173 32.26311339 2.475420613
-5.952632275 0.4999753929 1.161960613
-21.94416527 10.49555339 2.191987613
-18.96303027 2.721581393 0.4836886128
-32.08201027 244.3698775 -9.738722702e-05
-30.44246727 146.7777184 -9.738722702e-05
-32.20975227 30.00903839 -9.738722702e-05
-31.73412327 24.83120339 -9.738722702e-05
-30.83622127 38.37478439 -9.738722702e-05
-31.28513927 147.1915894 -9.738722702e-05
-30.46836327 26.93561739 -9.738722702e-05
-31.05163927 237.4855853 -9.738722702e-05
-31.00343527 79.97990539 -9.738722702e-05
-29.62669727 93.68582039 -9.738722702e-05
-29.35962427 80.24959939 -9.738722702e-05
-30.89227227 61.36099639 -9.738722702e-05
-30.87028327 237.6367874 -9.738722702e-05
-29.68098927 210.6167734 -9.738722702e-05
-28.94029227 110.7733704 -9.738722702e-05
-28.92807927 189.9668884 -9.738722702e-05
-28.94153627 183.7552964 -9.738722702e-05
-27.13518727 178.9887804 -9.738722702e-05
-27.69382727 221.3177875 -9.738722702e-05
-27.34505427 86.37153339 -9.738722702e-05
-26.27597727 200.8921364 -9.738722702e-05
-27.35573627 150.3134024 -9.738722702e-05
-28.21837927 52.11681539 -9.738722702e-05
-27.75002027 183.5398864 -9.738722702e-05
-26.88982827 108.3107694 -9.738722702e-05
-28.63985627 182.0503714 -9.738722702e-05
-27.35549627 245.2545249 -9.738722702e-05
-27.80774627 156.5332924 -9.738722702e-05
-26.03404027 205.5607784 -9.738722702e-05
-26.12323427 62.60989639 -9.738722702e-05
-26.00952827 194.8751144 -9.738722702e-05
-25.97300427 206.5054514 -9.738722702e-05
-25.93819827 249.1393542 -9.738722702e-05
-26.13106927 179.0812564 -9.738722702e-05
-24.83135327 219.2857188 -9.738722702e-05
-25.75518127 69.15046039 -9.738722702e-05
-22.15283527 187.8662674 -9.738722702e-05
-22.22339627 200.4901054 -9.738722702e-05
-20.56566627 215.0146087 -9.738722702e-05
-24.05219427 137.3028584 -9.738722702e-05
-22.75971127 242.4987781 -9.738722702e-05
-21.67038427 241.3793481 -9.738722702e-05
-24.93192727 172.1007314 -9.738722702e-05
-23.51662727 232.2285423 -9.738722702e-05
-26.08562027 34.75896439 -9.738722702e-05
-22.20941127 242.4792168 -9.738722702e-05
-24.78578327 124.2303284 -9.738722702e-05
-24.56126927 183.5566814 -9.738722702e-05
-23.10476027 243.9845739 -9.738722702e-05
-25.98314027 32.28198439 -9.738722702e-05
-25.53477627 244.596042 -9.738722702e-05
-23.94225727 125.8595224 -9.738722702e-05
34.32767073 245.8760627 -9.738722702e-05
36.45408773 170.8230224 -9.738722702e-05
36.76026273 195.2204714 -9.738722702e-05
37.53398273 172.2323474 -9.738722702e-05
37.53355573 231.8034018 -9.738722702e-05
37.48945273 73.02373539 -9.738722702e-05
34.99547073 229.3218261 -9.738722702e-05
36.62290173 120.3273454 -9.738722702e-05
35.79870673 213.7253228 -9.738722702e-05
36.92380373 193.3911674 -9.738722702e-05
37.17906473 174.0178404 -9.738722702e-05
34.26875273 168.5228094 -9.738722702e-05
35.16286173 153.6343114 -9.738722702e-05
35.91673573 111.2722644 -9.738722702e-05
36.13149573 90.12208039 -9.738722702e-05
32.60311673 244.8236475 -9.738722702e-05
33.78186073 169.7762034 -9.738722702e-05
35.08731473 120.3347704 -9.738722702e-05
35.58783473 96.29109839 -9.738722702e-05
30.51348473 231.8347346 -9.738722702e-05
32.29526573 184.6070174 -9.738722702e-05
35.42370173 85.86364039 -9.738722702e-05
36.00679473 57.54537339 -9.738722702e-05
33.96831673 108.2727714 -9.738722702e-05
32.54480373 174.4631754 -9.738722702e-05
31.86676673 166.5407304 -9.738722702e-05
30.58604373 229.8562178 -9.738722702e-05
37.37760873 40.48658639 -9.738722702e-05
36.85593973 60.06029639 -9.738722702e-05
18.93048973 229.9828138 -9.738722702e-05
19.73945473 191.4047514 -9.738722702e-05
25.89667073 118.0298144 -9.738722702e-05
28.63288773 249.5520834 -9.738722702e-05
17.73933273 205.8245944 -9.738722702e-05
22.39788873 179.9413834 -9.738722702e-05
25.00714473 173.7592604 -9.738722702e-05
30.80088173 149.8932534 -9.738722702e-05
32.49319473 71.58815739 -9.738722702e-05
24.57391873 155.7132324 -9.738722702e-05
29.95287173 214.2673897 -9.738722702e-05
31.05348273 159.8469594 -9.738722702e-05
26.56383873 122.5982034 -9.738722702e-05
25.84928073 212.5589058 -9.738722702e-05
26.40867973 111.0769394 -9.738722702e-05
29.24477073 95.30939939 -9.738722702e-05
23.54756373 239.3086885 -9.738722702e-05
19.15989073 204.2621374 -9.738722702e-05
20.44464273 222.5806339 -9.738722702e-05
19.62539573 181.5860284 -9.738722702e-05
30.74442673 140.6442034 -9.738722702e-05
29.36741073 155.1639134 -9.738722702e-05
29.19528773 96.49719139 -9.738722702e-05
31.64407573 72.65835739 -9.738722702e-05
22.35037473 176.5508974 -9.738722702e-05
21.88586373 249.8360007 -9.738722702e-05
29.06138573 237.0436705 -9.738722702e-05
30.62741773 92.25853339 -9.738722702e-05
20.89221873 207.4814634 -9.738722702e-05
23.61588073 219.2108379 -9.738722702e-05
27.96599973 136.5730914 -9.738722702e-05
23.20015573 155.6712854 -9.738722702e-05
23.73008773 166.1485764 -9.738722702e-05
31.09590273 146.3375484 -9.738722702e-05
20.59598873 250.2786687 -9.738722702e-05
31.01290073 149.3653934 -9.738722702e-05
23.05617173 230.4585061 -9.738722702e-05
29.18526673 140.8028894 -9.738722702e-05
24.03210173 252.1278021 -9.738722702e-05
30.96401373 115.5365324 -9.738722702e-05
18.96273273 148.2087124 -9.738722702e-05
25.02178773 119.9730564 -9.738722702e-05
18.96785973 160.3059214 -9.738722702e-05
21.39204773 138.9114424 -9.738722702e-05
19.05516973 137.7792814 -9.738722702e-05
26.60765473 81.75206739 -9.738722702e-05
22.51773673 108.0948184 -9.738722702e-05
29.26493973 27.68230139 -9.738722702e-05
24.78996173 15.47486639 -9.738722702e-05
28.16219973 41.66783739 -9.738722702e-05
21.94816673 142.0068754 -9.738722702e-05
23.26935273 26.37922539 -9.738722702e-05
22.36928573 42.45270839 -9.738722702e-05
23.82140373 6.052624393 -9.738722702e-05
24.61830073 18.55341639 -9.738722702e-05
30.21329573 31.40762439 -9.738722702e-05
24.58712673 90.72750639 -9.738722702e-05
17.45317173 162.3322994 -9.738722702e-05
24.85134573 69.28202239 -9.738722702e-05
27.34952173 50.62962239 -9.738722702e-05
19.39199273 81.74575239 -9.738722702e-05
20.38523673 149.4421744 -9.738722702e-05
18.70212973 153.5117564 -9.738722702e-05
19.17413473 126.9981024 -9.738722702e-05
19.23183873 92.19793039 -9.738722702e-05
19.36522373 166.5550214 -9.738722702e-05
28.78204373 20.53137239 -9.738722702e-05
30.06798673 64.95920439 -9.738722702e-05
21.46257273 44.85635039 -9.738722702e-05
29.82514073 54.39941639 -9.738722702e-05
20.24175773 88.16756939 -9.738722702e-05
26.26937273 71.37565339 -9.738722702e-05
20.54331673 129.9119374 -9.738722702e-05
20.30881473 56.20594139 -9.738722702e-05
22.02350773 24.16031939 -9.738722702e-05
21.19462173 113.2083054 -9.738722702e-05
22.76323973 69.33771939 -9.738722702e-05
17.71941173 185.5317034 -9.738722702e-05
22.28239073 108.0448554 -9.738722702e-05
16.36676173 179.9955234 -9.738722702e-05
16.87362473 149.9659294 -9.738722702e-05
17.02052973 135.9690814 -9.738722702e-05
16.27374673 176.7653194 -9.738722702e-05
17.65199573 102.4166464 -9.738722702e-05
14.40996273 185.8528704 -9.738722702e-05
16.78861773 125.5975034 -9.738722702e-05
19.46833073 64.61877839 -9.738722702e-05
14.74204473 162.2845284 -9.738722702e-05
19.40218673 48.04318839 -9.738722702e-05
18.65147873 69.88548839 -9.738722702e-05
18.20231173 79.40884239 -9.738722702e-05
14.63915773 159.6062314 -9.738722702e-05
10.39065673 191.6246204 -9.738722702e-05
10.79860673 199.2403354 -9.738722702e-05
14.94886873 126.5345294 -9.738722702e-05
12.43500273 180.2138064 -9.738722702e-05
10.67837373 189.6106644 -9.738722702e-05
10.26857573 188.0045894 -9.738722702e-05
13.20619473 131.6619704 -9.738722702e-05
16.44340073 84.15844839 -9.738722702e-05
14.33538973 123.8856654 -9.738722702e-05
9.372686725 201.4386294 -9.738722702e-05
15.75151073 82.54806139 -9.738722702e-05
11.98834773 143.7836324 -9.738722702e-05
7.278950725 206.3846744 -9.738722702e-05
6.900905725 212.0921648 -9.738722702e-05
12.37255573 125.8094504 -9.738722702e-05
16.16095273 72.47259039 -9.738722702e-05
14.24039773 53.75918939 -9.738722702e-05
-4.274383275 32.24243439 -9.738722702e-05
-8.475632275 87.25839039 -9.738722702e-05
8.809604725 148.6540984 -9.738722702e-05
8.059680725 50.55740939 -9.738722702e-05
0.1640597252 150.1861784 -9.738722702e-05
-12.00852027 63.21385439 -9.738722702e-05
2.828402725 172.3084934 -9.738722702e-05
4.855206725 37.29582739 -9.738722702e-05
-0.07075227479 108.5752434 -9.738722702e-05
-2.115643275 11.93724039 -9.738722702e-05
0.6295327252 128.1504324 -9.738722702e-05
5.065592725 116.8952774 -9.738722702e-05
-2.889740275 40.20113039 -9.738722702e-05
4.753219725 82.48934539 -9.738722702e-05
17.81186573 50.07954739 -9.738722702e-05
11.14091773 101.5430454 -9.738722702e-05
1.874308725 88.86608139 -9.738722702e-05
4.031058725 68.88546739 -9.738722702e-05
3.081650725 15.26786339 -9.738722702e-05
15.19517673 40.00662639 -9.738722702e-05
2.346241725 60.42851039 -9.738722702e-05
-7.056656275 26.85312739 -9.738722702e-05
14.60805673 7.515028393 -9.738722702e-05
-3.825640275 52.34664139 -9.738722702e-05
17.69110973 49.43882939 -9.738722702e-05
8.112414725 144.3894074 -9.738722702e-05
5.509969725 35.31703939 -9.738722702e-05
1.078150725 120.2442384 -9.738722702e-05
3.371492725 161.3262304 -9.738722702e-05
-4.283349275 117.7268064 -9.738722702e-05
2.726543725 56.64072439 -9.738722702e-05
9.232033725 146.6491974 -9.738722702e-05
7.681658725 83.93975239 -9.738722702e-05
-13.42640827 42.83206739 -9.738722702e-05
-17.12415727 4.537868393 -9.738722702e-05
-0.3330212748 80.65396539 -9.738722702e-05
5.233595725 138.6059514 -9.738722702e-05
-0.3155672748 170.5053324 -9.738722702e-05
12.69282473 48.19113839 -9.738722702e-05
7.822810725 78.19321939 -9.738722702e-05
-0.9569292748 87.50064539 -9.738722702e-05
3.219429725 37.79231139 -9.738722702e-05
-7.408695275 56.48921439 -9.738722702e-05
-3.212615275 65.00491439 -9.738722702e-05
3.332238725 140.7004674 -9.738722702e-05
-9.606363275 39.20110339 -9.738722702e-05
-8.468054275 85.15816239 -9.738722702e-05
-6.475170275 2.218577393 -9.738722702e-05
9.877761725 146.8272934 -9.738722702e-05
9.308583725 50.08277039 -9.738722702e-05
9.543288725 86.21404139 -9.738722702e-05
8.832765725 66.48369739 -9.738722702e-05
-0.3030892748 29.76856839 -9.738722702e-05
-10.93694727 62.21711739 -9.738722702e-05
2.000319725 68.21750039 -9.738722702e-05
10.17987873 135.9575174 -9.738722702e-05
10.14566173 96.71804939 -9.738722702e-05
-8.150363275 49.02156239 -9.738722702e-05
-7.981779275 39.42353739 -9.738722702e-05
-5.117923275 52.79670439 -9.738722702e-05
-2.285580275 100.5188354 -9.738722702e-05
-4.343743275 99.90246739 -9.738722702e-05
19.66982273 21.38094439 -9.738722702e-05
11.81330273 44.46942739 -9.738722702e-05
2.742917725 91.28463239 -9.738722702e-05
-0.08780727478 7.601140393 -9.738722702e-05
-4.791727275 74.67532339 -9.738722702e-05
5.970719725 201.0202304 -9.738722702e-05
12.62605673 100.1655164 -9.738722702e-05
-16.16020127 14.10016939 -9.738722702e-05
5.895691725 39.17616139 -9.738722702e-05
19.71779273 10.55126639 -9.738722702e-05
10.28393973 63.86300239 -9.738722702e-05
16.18437773 34.76052939 -9.738722702e-05
-7.437445275 106.0238054 -9.738722702e-05
2.327624725 17.64019839 -9.738722702e-05
11.01733173 105.7630714 -9.738722702e-05
19.40631173 1.479610393 -9.738722702e-05
0.6427737252 138.5299344 -9.738722702e-05
-5.898253275 121.9241014 -9.738722702e-05
1.357001725 167.9724304 -9.738722702e-05
-10.11623927 21.76323239 -9.738722702e-05
6.052760725 137.2089694 -9.738722702e-05
6.898815725 57.72450739 -9.738722702e-05
7.802431725 139.6847254 -9.738722702e-05
2.325686725 21.66140939 -9.738722702e-05
-10.32210427 78.30370339 -9.738722702e-05
-15.19216227 13.69171539 -9.738722702e-05
21.13870473 5.045188393 -9.738722702e-05
5.197056725 130.9194654 -9.738722702e-05
4.402980725 34.11492739 -9.738722702e-05
-12.20281227 16.07342139 -9.738722702e-05
18.89731373 14.78866339 -9.738722702e-05
-6.598934275 76.09982339 -9.738722702e-05
-1.183125275 65.73847239 -9.738722702e-05
8.166003725 137.2803294 -9.738722702e-05
8.072359725 117.9186564 -9.738722702e-05
9.791122725 44.21159339 -9.738722702e-05
-10.21182027 0.8873183929 -9.738722702e-05
9.885586725 126.2472414 -9.738722702e-05
-7.021774275 2.259895393 -9.738722702e-05
-0.5529832748 21.25153839 -9.738722702e-05
-4.483202275 77.04055039 -9.738722702e-05
18.11531973 22.72230439 -9.738722702e-05
-7.143899275 88.02867039 -9.738722702e-05
-1.386502275 58.21153839 -9.738722702e-05
4.466266725 171.6881654 -9.738722702e-05
1.412956725 160.4360334 -9.738722702e-05
2.517956725 100.7673314 -9.738722702e-05
-1.296867275 8.277669393 -9.738722702e-05
3.308993725 22.00840939 -9.738722702e-05
-2.903103275 151.6360864 -9.738722702e-05
1.215057725 194.3539674 -9.738722702e-05
-7.167870275 114.6880054 -9.738722702e-05
-19.84277827 6.598348393 -9.738722702e-05
-13.29728927 60.00124139 -9.738722702e-05
-13.40110427 59.90433439 -9.738722702e-05
-18.86862727 10.02647439 -9.738722702e-05
0.1929617252 187.2206964 -9.738722702e-05
-15.30304327 49.33239639 -9.738722702e-05
-19.58156027 20.56709239 -9.738722702e-05
-14.29910027 63.09045939 -9.738722702e-05
-8.761994275 108.8408374 -9.738722702e-05
-15.16459427 74.39382139 -9.738722702e-05
-15.02609627 73.81140539 -9.738722702e-05
1.294027725 199.7019074 -9.738722702e-05
-8.397213275 123.3720754 -9.738722702e-05
-3.446480275 164.5498674 -9.738722702e-05
-12.79439127 88.03517239 -9.738722702e-05
-14.52919427 94.39626439 -9.738722702e-05
-9.780788275 124.2476074 -9.738722702e-05
-23.41881727 14.95007639 -9.738722702e-05
-7.067307275 143.0989524 -9.738722702e-05
-8.375657275 135.8186434 -9.738722702e-05
-23.18554327 26.05618739 -9.738722702e-05
-6.244588275 147.4252184 -9.738722702e-05
-20.28106427 40.05858439 -9.738722702e-05
-19.34900127 162.6236004 -9.738722702e-05
-15.24069827 241.8423887 -9.738722702e-05
-24.67218327 61.33560339 -9.738722702e-05
-22.56061727 85.63175539 -9.738722702e-05
-19.34783927 160.2264424 -9.738722702e-05
-21.41261127 147.0227124 -9.738722702e-05
-25.68854827 28.62951239 -9.738722702e-05
-24.55871727 61.09492139 -9.738722702e-05
-14.07905127 249.4984384 -9.738722702e-05
-15.93398027 219.7130572 -9.738722702e-05
-16.81099727 223.7417303 -9.738722702e-05
-20.25878627 137.8342314 -9.738722702e-05
-17.99107927 224.9617882 -9.738722702e-05
-17.78639627 199.4772994 -9.738722702e-05
-23.95401127 72.76101539 -9.738722702e-05
-15.90100027 228.013019 -9.738722702e-05
-19.50748427 169.5701394 -9.738722702e-05
-21.96819727 91.15211939 -9.738722702e-05
-12.53140627 226.0381907 -9.738722702e-05
-16.64051427 163.3179754 -9.738722702e-05
-11.75227627 250.8902425 -9.738722702e-05
-8.173909275 248.9295272 -9.738722702e-05
-10.61633627 251.4888991 -9.738722702e-05
-12.68086227 220.6775345 -9.738722702e-05
-18.23832627 149.7362664 -9.738722702e-05
-19.97131227 120.9728104 -9.738722702e-05
-10.38700327 227.2361232 -9.738722702e-05
-25.82683027 20.62298939 -9.738722702e-05
-17.55865827 144.9541694 -9.738722702e-05
-10.02430527 141.9956204 -9.738722702e-05
-5.835648275 245.6701756 -9.738722702e-05
-7.550760275 211.7733624 -9.738722702e-05
-1.977520275 240.427723 -9.738722702e-05
-6.526341275 212.1346914 -9.738722702e-05
-17.35370827 118.9796384 -9.738722702e-05
-19.76549927 76.24495339 -9.738722702e-05
-8.747458275 233.5951895 -9.738722702e-05
-11.27091627 190.6674524 -9.738722702e-05
-14.64383727 126.5456014 -9.738722702e-05
-12.41747027 189.3430474 -9.738722702e-05
-0.1798132748 231.0887755 -9.738722702e-05
-12.27059527 138.4457244 -9.738722702e-05
1.143901725 230.9890901 -9.738722702e-05
-9.765549275 219.3855483 -9.738722702e-05
-7.563813275 201.7705694 -9.738722702e-05
-9.004434275 220.7951578 -9.738722702e-05
-8.032437275 193.2768594 -9.738722702e-05
3.920659725 222.144242 -9.738722702e-05
-7.931311275 200.9042874 -9.738722702e-05
-23.17509527 42.26061939 -9.738722702e-05
-15.85905327 135.1971294 -9.738722702e-05
-17.47387527 80.40026439 -9.738722702e-05
-11.89722927 121.0724314 -9.738722702e-05
-12.45919127 149.1981264 -9.738722702e-05
-17.48045127 119.1082614 -9.738722702e-05
-9.169066275 223.9326678 -9.738722702e-05
-2.387629275 246.2525101 -9.738722702e-05
-10.93300127 196.4877304 -9.738722702e-05
-13.93016827 111.3190834 -9.738722702e-05
-16.85452627 96.36734839 -9.738722702e-05
-18.31174127 81.59497839 -9.738722702e-05
-3.018419275 242.1116695 -9.738722702e-05
0.3657587252 251.8778688 -9.738722702e-05
-7.038321275 224.1743332 -9.738722702e-05
2.086447725 236.2768074 -9.738722702e-05
-20.50439627 72.83017939 -9.738722702e-05
-7.388097275 222.1098969 -9.738722702e-05
-6.975833275 160.0373864 -9.738722702e-05
-8.415538275 174.2406084 -9.738722702e-05
-10.66672027 160.5841484 -9.738722702e-05
-9.483383275 210.3331324 -9.738722702e-05
-5.968183275 193.8839194 -9.738722702e-05
2.557475725 227.3622804 -9.738722702e-05
-11.85496627 167.2600884 -9.738722702e-05
-16.82069127 84.52171939 -9.738722702e-05
3.965154725 245.3700708 -9.738722702e-05
-20.53008927 76.46577339 -9.738722702e-05
-2.507024275 209.0325704 -9.738722702e-05
-10.59950727 193.4144094 -9.738722702e-05
5.449115725 243.0342697 -9.738722702e-05
10.88889973 230.8990321 -9.738722702e-05
12.58598973 231.1529791 -9.738722702e-05
14.50051473 230.8815857 -9.738722702e-05
-35.71936627 -2.075605607 -88.00009739
2.153396725 -2.113410607 -88.00009739
-35.69661227 -0.2224876071 -88.00009739
-8.646186275 -0.2617616071 -88.00009739
20.17178773 1.701398393 -88.00009739
32.84869473 8.128842393 -88.00009739
37.84336573 10.45600039 -88.00009739
-36.29659227 3.417023393 -88.00009739
-11.07532927 7.857426393 -88.00009739
7.315880725 0.6622343929 -88.00009739
7.561422725 -0.004534607111 -88.00009739
-36.61430727 7.197650393 -88.00009739
-41.92346727 10.01316839 -88.00009739
7.928040725 5.894326393 -88.00009739
-43.13749627 5.019285393 -88.00009739
-29.57407227 11.71611539 -88.00009739
-24.99393227 0.9395173929 -88.00009739
16.99881173 12.44090239 -88.00009739
9.166741725 2.214342393 -88.00009739
1.141585725 14.03403239 -88.00009739
-36.54126227 5.372553393 -88.00009739
-21.21604327 12.91192039 -88.00009739
15.45599973 6.986999393 -88.00009739
-8.636442275 5.633362393 -88.00009739
39.16030273 2.523946393 -88.00009739
15.73141273 5.776920393 -88.00009739
4.159227725 7.440018393 -88.00009739
-2.388299275 12.41162139 -88.00009739
6.566644725 5.882550393 -88.00009739
7.109930725 12.54371239 -88.00009739
-27.95728927 6.054725393 -88.00009739
41.21408073 0.3849263929 -88.00009739
-34.31500927 2.597751393 -88.00009739
42.86890473 13.48494539 -88.00009739
-6.034021275 15.80779939 -88.00009739
20.52302373 14.60760939 -88.00009739
28.21189373 13.66381539 -88.00009739
26.85087073 44.27747639 -88.00009739
26.10562473 41.21957339 -88.00009739
-11.27741627 27.96212239 -88.00009739
27.07798473 52.44820039 -88.00009739
31.47245273 41.31713939 -88.00009739
-12.64687227 40.80606339 -88.00009739
5.840373725 37.14538139 -88.00009739
-32.95369427 43.28483439 -88.00009739
-15.13133627 28.59825439 -88.00009739
4.003836725 28.02060639 -88.00009739
25.28641573 41.23997839 -88.00009739
-10.59113427 18.18718939 -88.00009739
34.99879373 36.86763939 -88.00009739
-28.54449327 48.84745139 -88.00009739
9.693116725 31.00066139 -88.00009739
24.22949673 35.50415439 -88.00009739
-20.21236827 19.49118039 -88.00009739
-17.49482327 29.44890139 -88.00009739
34.85426273 16.61894739 -88.00009739
-36.79600427 25.80512239 -88.00009739
-12.00742527 26.12524339 -88.00009739
-7.539821275 18.08752539 -88.00009739
-39.77948427 47.56411639 -88.00009739
-27.52934927 35.53785239 -88.00009739
22.61211373 15.55360539 -88.00009739
7.369503725 49.86253139 -88.00009739
-30.07274927 25.25928339 -88.00009739
22.53426473 30.57093739 -88.00009739
35.86468073 28.91109039 -88.00009739
5.470691725 47.00979839 -88.00009739
-2.100572275 50.04539639 -88.00009739
3.702624725 33.53549239 -88.00009739
-28.16802927 47.37945939 -88.00009739
-29.81341627 50.36063539 -88.00009739
20.31032873 35.20469239 -88.00009739
-19.19218527 52.50417139 -88.00009739
-28.08091927 35.74205339 -88.00009739
6.734941725 23.60483039 -88.00009739
32.22071673 38.98379639 -88.00009739
12.91964073 38.25388039 -88.00009739
41.29943473 17.00037739 -88.00009739
30.02047773 48.26458439 -88.00009739
-33.50328327 50.33856539 -88.00009739
25.59220173 51.54096639 -88.00009739
40.96493973 46.60298439 -88.00009739
10.16679273 32.07324639 -88.00009739
22.71231373 33.55447339 -88.00009739
-43.33303227 20.94791139 -88.00009739
41.92363373 19.37301239 -88.00009739
-0.2715352748 37.94019239 -88.00009739
-38.59044527 51.53426739 -88.00009739
2.483336725 52.52839739 -88.00009739
16.18371773 31.02499339 -88.00009739
7.784386725 49.44751939 -88.00009739
40.45468873 43.90244939 -88.00009739
-29.28056327 45.70159739 -88.00009739
38.77680673 39.88714439 -88.00009739
40.61803273 35.95352139 -88.00009739
-5.046528275 42.59004039 -88.00009739
22.76905073 39.16541239 -88.00009739
1.973229725 47.41940739 -88.00009739
-39.81209627 31.57334239 -88.00009739
-32.99833127 35.72052639 -88.00009739
-20.48646527 22.22392339 -88.00009739
33.76451273 22.43222639 -88.00009739
32.56443673 45.87160639 -88.00009739
-36.17354227 26.74185539 -88.00009739
21.02479373 16.97259939 -88.00009739
8.955101725 50.99342039 -88.00009739
-17.28960627 17.53962439 -88.00009739
-34.51581827 46.83483439 -88.00009739
-14.37466027 33.51725039 -88.00009739
12.14469573 34.27900239 -88.00009739
43.30888373 46.51635639 -88.00009739
-24.28873627 33.85557639 -88.00009739
22.98707773 24.84493239 -88.00009739
19.33332273 28.40342839 -88.00009739
40.66530573 52.35996139 -88.00009739
-34.03887627 26.14740139 -88.00009739
-15.89620027 53.09440639 -88.00009739
41.05200173 55.86314939 -88.00009739
-26.55639827 52.60530439 -88.00009739
-21.26967327 54.22569939 -88.00009739
-37.88404427 54.77368539 -88.00009739
-25.01626027 55.41160939 -88.00009739
-32.78268627 54.27616439 -88.00009739
6.016647725 55.82834439 -88.00009739
11.25405673 56.18920239 -88.00009739
18.36272673 58.05414039 -88.00009739
12.06487373 58.92995239 -88.00009739
-24.35732727 57.87170239 -88.00009739
-25.91474927 59.45291639 -88.00009739
-42.83826627 62.96088139 -88.00009739
-40.56204427 65.17873039 -88.00009739
24.16082773 61.28374939 -88.00009739
35.29692473 62.96000439 -88.00009739
8.946804725 67.25984839 -88.00009739
-19.51851327 65.38999639 -88.00009739
36.37389173 67.38466239 -88.00009739
-42.40635727 66.23346139 -88.00009739
-16.51793327 67.01195639 -88.00009739
42.40500873 64.24288339 -88.00009739
-4.246649275 67.26630039 -88.00009739
39.91770573 64.50757639 -88.00009739
22.76577773 62.10321239 -88.00009739
5.798378725 61.69541339 -88.00009739
-5.583408275 64.64191439 -88.00009739
-34.32840327 60.57375939 -88.00009739
31.56988173 67.44518639 -88.00009739
19.36194773 61.82786439 -88.00009739
-10.90142027 60.54954939 -88.00009739
22.08600173 63.43974639 -88.00009739
-21.80170327 1.920802393 -94.00009739
11.12227873 12.85273239 -94.00009739
-0.9477202748 12.10678639 -94.00009739
31.53065073 2.330232393 -94.00009739
-19.53878927 7.275191393 -94.00009739
-28.70924527 5.034349393 -94.00009739
-18.35111527 14.03003539 -94.00009739
-36.99641427 10.48192339 -94.00009739
-19.51160627 11.15947039 -94.00009739
41.11105673 9.494666393 -94.00009739
13.22012873 11.36480439 -94.00009739
-28.01466727 1.723257393 -94.00009739
23.05806373 9.290594393 -94.00009739
28.97419773 4.660990393 -94.00009739
-7.215745275 0.2581743929 -94.00009739
25.60918673 10.28345839 -94.00009739
-38.42830927 8.707001393 -94.00009739
5.596110725 10.22969539 -94.00009739
-17.13853127 9.134319393 -94.00009739
42.37317873 5.870149393 -94.00009739
10.02509473 1.807018393 -94.00009739
-37.84810227 11.81707639 -94.00009739
42.22030573 1.794072393 -94.00009739
-34.02441827 14.78152939 -94.00009739
36.71306073 4.588505393 -94.00009739
22.00110673 2.804860393 -94.00009739
10.29307873 10.77049839 -94.00009739
17.95451473 -0.2740436071 -94.00009739
-42.85304727 -1.121964607 -94.00009739
14.84374273 -0.9020706071 -94.00009739
-35.64574827 -1.176866607 -94.00009739
29.95429773 -0.9985486071 -94.00009739
11.74453473 -2.300435607 -94.00009739
2.800330725 63.26607539 -94.00009739
12.28040873 63.43675939 -94.00009739
-7.469193275 64.57877839 -94.00009739
24.74016073 64.73776739 -94.00009739
-9.460073275 62.65068039 -94.00009739
42.52511073 66.80000339 -94.00009739
17.01495173 61.28540839 -94.00009739
19.47732373 67.01266639 -94.00009739
-22.75888427 67.65658139 -94.00009739
26.84842373 67.03089239 -94.00009739
-37.91656527 61.84606039 -94.00009739
-32.57119527 67.84926339 -94.00009739
20.21665973 64.20287839 -94.00009739
-38.14571727 66.70663039 -94.00009739
-36.19686327 62.25351939 -94.00009739
-35.34065327 65.90300639 -94.00009739
8.126520725 60.71567939 -94.00009739
-37.62670027 59.61207039 -94.00009739
-24.58126627 59.44825639 -94.00009739
13.79595373 60.84821739 -94.00009739
-29.42960127 59.17342839 -94.00009739
14.72253773 59.89631139 -94.00009739
-39.95915927 58.90488539 -94.00009739
30.36063273 60.62760439 -94.00009739
-1.377376275 59.01486939 -94.00009739
-11.92291327 57.90783539 -94.00009739
-19.05611727 56.33250839 -94.00009739
-24.92985527 56.84341239 -94.00009739
-24.01215127 56.95597039 -94.00009739
2.038554725 56.52526039 -94.00009739
-21.54688627 54.98561139 -94.00009739
19.28667273 56.69155939 -94.00009739
40.83306673 57.03095039 -94.00009739
-11.21355027 54.25690739 -94.00009739
4.945885725 55.46485339 -94.00009739
-8.483739275 53.78134139 -94.00009739
-3.709912275 53.90549839 -94.00009739
-30.23655027 52.86804639 -94.00009739
40.02742573 55.57858739 -94.00009739
28.46400673 15.55335539 -94.00009739
13.67578873 22.18892339 -94.00009739
-17.01113527 39.35179539 -94.00009739
15.93053273 17.02534539 -94.00009739
-1.659609275 20.15538839 -94.00009739
28.60768173 19.97483039 -94.00009739
21.55672873 30.07274639 -94.00009739
33.28477073 33.28295739 -94.00009739
-33.89433127 20.54385839 -94.00009739
22.45360373 30.80738339 -94.00009739
34.13679273 53.84306939 -94.00009739
-20.14359827 33.45957539 -94.00009739
28.32883373 15.15605239 -94.00009739
-2.490102275 49.67249239 -94.00009739
15.78808073 29.79737239 -94.00009739
-6.937114275 32.26898139 -94.00009739
-15.86557527 30.85846539 -94.00009739
3.319208725 53.34453739 -94.00009739
40.28743973 17.21322939 -94.00009739
-8.205005275 40.67880039 -94.00009739
-13.38624327 22.58477539 -94.00009739
-42.81364027 20.87707739 -94.00009739
-5.232412275 18.52772139 -94.00009739
-34.28830327 32.78163139 -94.00009739
-28.35561927 25.03155339 -94.00009739
-31.96245427 25.87193039 -94.00009739
-32.23224327 22.93394039 -94.00009739
22.81955473 48.61354139 -94.00009739
18.35524673 44.27974039 -94.00009739
-20.79113427 40.81085539 -94.00009739
41.84504873 32.81859339 -94.00009739
-29.50063127 22.20784739 -94.00009739
-13.36520627 43.53768339 -94.00009739
-17.19770927 47.20429239 -94.00009739
-25.31746227 21.58611439 -94.00009739
-16.92714127 31.00760339 -94.00009739
34.39243473 39.37135439 -94.00009739
25.56935673 43.61888439 -94.00009739
4.859999725 37.31926139 -94.00009739
-20.05536127 48.36604039 -94.00009739
-18.44171627 37.86542139 -94.00009739
36.94220373 33.20923339 -94.00009739
12.03940573 39.84930539 -94.00009739
6.354753725 25.88556139 -94.00009739
16.81274273 49.95030739 -94.00009739
36.51791273 23.40616039 -94.00009739
-10.86610627 39.16869339 -94.00009739
-25.93834027 29.64347739 -94.00009739
-38.70263327 45.47120839 -94.00009739
23.90178573 23.95283739 -94.00009739
19.27927373 40.97120839 -94.00009739
-23.69513427 42.69349639 -94.00009739
-33.61818427 18.45401539 -94.00009739
19.72439573 53.58338539 -94.00009739
33.90095073 42.63161939 -94.00009739
-19.67311627 40.49692639 -94.00009739
0.6095877252 35.41675439 -94.00009739
-21.78744627 26.02915339 -94.00009739
19.19365673 54.07942739 -94.00009739
15.00856573 52.64121639 -94.00009739
-33.15388327 29.74951339 -94.00009739
-11.79794227 35.10083239 -94.00009739
32.62351373 33.32003539 -94.00009739
41.01846773 14.42656339 -94.00009739
35.77868573 24.87349539 -94.00009739
31.24063673 35.47496439 -94.00009739
