# .PCD v0.7 - Point Cloud Data file format
VERSION 0.7
FIELDS x y z
SIZE 4 4 4
TYPE F F F
COUNT 1 1 1
WIDTH 1157
HEIGHT 1
VIEWPOINT 0 0 0 1 0 0 0
POINTS 1157
DATA ascii
651.4390487 43.19934239 -249.7890494
536.0199547 22.11573439 -9.740720452e-05
659.4390487 166.6506294 -55.52030941
-632.6189183 27.78491239 -9.740720452e-05
-26.66522734 -2.460507994e-05 -87.49887341
655.4390487 249.9590053 -89.78931341
109.6008327 -2.460507994e-05 -16.20814041
606.6091107 -2.460507994e-05 -68.74757441
-636.7744683 -2.460507994e-05 -113.6114454
179.3713677 -2.460507994e-05 -118.7780654
655.4390487 101.2484824 -53.68097841
307.4677777 38.37625139 -9.740720452e-05
475.5972267 24.28834539 -9.740720452e-05
-579.9883383 38.38505439 -233.2377004
-657.2974483 12.12818039 -10.37337341
269.4385767 -2.460507994e-05 -105.6764564
-83.12930034 18.90313239 -9.740720452e-05
651.4390487 26.53244339 -19.01760441
651.4390487 1.411623395 -183.0195734
655.4390487 209.4533204 -165.0998364
659.4390487 181.3610324 -179.4196434
635.9992337 -2.460507994e-05 -67.48774341
652.0457507 25.49997539 -132.4915244
394.9400777 11.61641539 -9.740720452e-05
212.7634987 -2.460507994e-05 -9.422898407
659.4390487 197.5180904 -86.64396541
-465.9839383 -2.460507994e-05 -216.6361954
514.4737877 -2.460507994e-05 -7.263382407
479.2430457 -2.460507994e-05 -58.34290141
655.4390487 110.5333634 -155.3351134
-395.9150983 -2.460507994e-05 -67.41049741
-675.6846283 39.60340139 -9.740720452e-05
-128.8481903 -2.460507994e-05 -194.9663134
-351.5669943 -2.256153605 -9.740720452e-05
-452.0053083 -2.460507994e-05 -19.00680441
341.6934717 20.57919539 -9.740720452e-05
46.31007566 -2.460507994e-05 -47.61430941
482.9948087 -2.460507994e-05 -155.4499674
-380.6922993 -2.460507994e-05 -161.5345554
-433.8370183 -2.460507994e-05 -249.3264654
-580.2840983 -2.460507994e-05 -237.3467824
275.7643297 -2.460507994e-05 -230.6424284
-354.1412263 -2.460507994e-05 -29.61577241
562.3141477 -2.460507994e-05 -166.8700714
261.8266337 -2.460507994e-05 -200.6389604
-640.3720083 21.63439939 -47.39627941
-617.0005083 -2.460507994e-05 -15.32789241
-274.9275323 -2.460507994e-05 -37.70951041
655.4390487 100.6214144 -91.75451341
-85.73050934 59.12903839 -9.740720452e-05
-310.8406773 -2.460507994e-05 -16.60513241
-22.50350834 -2.460507994e-05 -228.7137764
-270.8243973 26.02125639 -9.740720452e-05
152.2758787 -2.460507994e-05 -74.87919741
-175.0734943 -2.460507994e-05 -236.6094454
-500.9918383 -2.460507994e-05 -57.60746341
-225.8493283 67.97903639 -9.740720452e-05
-619.6813983 38.13939239 -111.0750324
-595.5428383 24.24920439 -9.740720452e-05
184.5080037 -2.460507994e-05 -205.3490304
-598.6777783 22.73919339 -175.7173794
566.6036477 -2.460507994e-05 -240.8600364
-296.6993253 -2.460507994e-05 -125.4277234
182.5354417 -2.460507994e-05 -160.9147754
-569.5061783 -2.460507994e-05 -173.8305974
66.37579666 -2.460507994e-05 -57.94513241
419.8606427 56.12628639 -9.740720452e-05
386.9487447 -2.460507994e-05 -38.43466841
-474.1685883 -2.460507994e-05 -73.44911541
655.4390487 77.02009339 -204.0139824
-647.6834183 27.65964439 -24.89408541
599.7897867 -2.460507994e-05 -251.8257804
-62.59570234 -2.460507994e-05 -152.4178674
-190.0375733 -2.460507994e-05 -158.5616724
-539.2895583 -2.460507994e-05 -146.1983414
-180.1397883 -2.460507994e-05 -81.21241341
651.4390487 20.05413739 -173.7926984
202.5959367 -2.460507994e-05 -57.58498941
1.955985664 -2.460507994e-05 -185.8481924
348.3764767 56.61186839 -9.740720452e-05
-590.3511583 21.63957339 -217.5260854
-287.2560063 -2.460507994e-05 -171.0313524
-589.1385383 -2.460507994e-05 -54.55498741
-418.7620383 -2.460507994e-05 -17.16576741
655.4390487 56.14693239 -191.0886464
-230.8793873 -2.460507994e-05 -84.65361641
651.6048217 0.4999753949 -205.3804114
332.9722967 -2.460507994e-05 -126.4112534
138.7183587 67.99997539 1.145058593
133.0199297 -2.460507994e-05 -88.59247541
-32.70997634 18.43926639 -9.740720452e-05
181.6860677 -2.460507994e-05 -24.35168041
655.4390487 78.08199339 -232.8862984
29.55569666 -2.460507994e-05 -221.2124634
-30.40685734 -2.460507994e-05 -152.8498314
-111.8119763 -2.460507994e-05 -231.9652744
-185.3381563 -2.460507994e-05 -38.05062141
667.3246127 214.357761 -200.0000974
339.8619417 -2.460507994e-05 -183.1988764
-584.8675783 -2.460507994e-05 -195.9236264
143.9027537 -2.460507994e-05 -11.98342041
-150.4356353 -2.460507994e-05 -200.8254214
291.4929777 -2.460507994e-05 -81.79357541
-573.4732783 12.23493339 -9.740720452e-05
34.05156566 -2.460507994e-05 -190.0669444
-367.4228263 -2.460507994e-05 -230.5891804
655.4390487 169.5768774 -147.3096084
-671.2747083 -2.460507994e-05 -81.84052041
-361.5499673 -2.460507994e-05 -92.88047141
-212.0804473 -2.460507994e-05 -117.5943434
-0.6577983362 -2.460507994e-05 -158.8580694
659.4390487 188.8490464 -50.08678141
-326.1418123 -2.460507994e-05 -229.3352144
-56.18954434 -2.460507994e-05 -229.2194244
154.5859877 -2.460507994e-05 -191.3939744
596.0776347 47.08940839 -9.740720452e-05
659.4390487 37.11575539 -52.52680341
7.968906664 -2.460507994e-05 -38.45218541
651.9960997 0.4999753949 -53.97034641
-85.76627234 -2.460507994e-05 -131.1202654
666.0766387 223.5183282 -40.00009741
623.4769767 16.27216439 -9.740720452e-05
659.4390487 8.522278395 -142.3110094
225.3301977 -2.460507994e-05 -104.6983584
-136.0396133 -2.460507994e-05 -100.2582754
-547.9524683 -2.460507994e-05 -107.8748254
-349.2312793 -2.460507994e-05 -181.3621824
-671.1315483 -2.460507994e-05 -177.2103164
303.6188177 -2.460507994e-05 -241.1263634
659.4390487 150.4598154 -152.0041654
-104.2752453 -2.460507994e-05 -110.7791724
-168.0959633 -2.460507994e-05 -170.0352224
655.4390487 250.8934838 -167.7609774
-400.2534883 -2.460507994e-05 -96.81338341
-400.6776283 -2.460507994e-05 -225.3179434
594.3828197 -2.460507994e-05 -183.9200864
316.4609587 -2.460507994e-05 -5.977751407
-605.5765883 45.64489639 -154.4853214
-376.1917023 -2.460507994e-05 -66.62321941
126.9031177 -2.460507994e-05 -47.75568941
-344.0539643 -2.460507994e-05 -141.9755674
85.18434266 -2.460507994e-05 -51.26449541
-482.5794983 -2.460507994e-05 -37.00737541
-363.6535423 -2.460507994e-05 -140.5772604
655.4390487 93.95640639 -129.4585144
90.89219666 -2.460507994e-05 -225.2260994
-593.8884283 43.46614539 -190.4577234
608.6871367 -2.460507994e-05 -234.3642454
-228.0405413 -2.460507994e-05 -230.6640884
659.4390487 82.42504139 -57.15173341
655.4390487 88.68571039 -169.8625344
675.2774737 128.8189924 -40.00009741
547.3902727 -2.460507994e-05 -90.26403141
655.4390487 237.8581104 -129.8953434
669.0573567 37.74667539 -196.0000974
-633.6590783 -2.460507994e-05 -25.36599541
299.3103987 -2.460507994e-05 -126.9942874
558.5080797 -0.6309746051 -9.740720452e-05
484.7635107 -2.460507994e-05 -100.4797234
260.5696057 -2.460507994e-05 -243.9390544
375.7242737 -2.460507994e-05 -107.0055514
-397.9227583 16.17131539 -9.740720452e-05
659.4390487 53.27780539 -122.6076234
559.5206647 -2.460507994e-05 -204.4670764
-479.2576383 47.58831239 -9.740720452e-05
298.3823567 -2.460507994e-05 -39.58691941
-83.51166734 -2.460507994e-05 -58.43320241
-464.4712983 -2.460507994e-05 -1.116597407
-419.6418383 -2.460507994e-05 -124.3151574
220.1194887 44.70429539 -9.740720452e-05
-460.2306483 -2.460507994e-05 -36.67647141
-481.1798083 -2.460507994e-05 -136.0876294
-496.6201883 -2.460507994e-05 -15.06510041
-26.68361034 -2.460507994e-05 -130.2401934
-479.6814183 -2.460507994e-05 -232.9916954
632.9916267 -2.460507994e-05 -100.4130614
651.4390487 22.44388239 -211.7253124
465.2604497 -2.460507994e-05 -217.2205254
-635.7227383 -2.460507994e-05 -77.33515141
-547.6424183 -2.460507994e-05 -53.79976741
90.17537366 -2.460507994e-05 -192.9590764
-612.7821383 -2.326865605 -130.6921504
360.3180197 -2.460507994e-05 -71.03791141
671.6646277 -2.460507994e-05 -39.98609041
655.4390487 159.5859764 -185.3424594
126.8436377 22.29719739 -9.740720452e-05
245.6585447 55.25679139 -9.740720452e-05
427.8103107 -2.460507994e-05 -104.3337034
-375.3072243 6.422815395 -9.740720452e-05
-122.6262873 -2.460507994e-05 -140.7405714
248.1882987 -2.460507994e-05 -47.90175641
303.4783987 -2.460507994e-05 -202.0617744
472.6163907 -2.460507994e-05 -15.22100641
-316.3219043 -2.460507994e-05 -34.78280441
391.7851827 -2.460507994e-05 -79.39666141
249.1570357 -2.460507994e-05 -1.857364407
66.04448466 -2.460507994e-05 -226.8567434
308.3722067 -2.460507994e-05 -91.46164341
-520.6922283 -2.460507994e-05 -137.0854524
-569.3928283 -2.460507994e-05 -212.5853194
24.69209866 -1.932588605 -9.740720452e-05
659.4390487 137.6308424 -136.6169534
442.9020387 -2.460507994e-05 -212.8983494
655.4390487 130.3227134 -75.05892241
-260.1826053 41.55641339 -9.740720452e-05
-232.0669453 -2.460507994e-05 -45.44777341
659.4390487 12.60618739 -116.7510874
-199.1412643 33.68372839 -9.740720452e-05
-162.0247293 -2.460507994e-05 -70.93818741
292.3094447 -1.009501605 -9.740720452e-05
-248.2461513 67.99997539 1.471845593
164.0863857 42.48200839 -9.740720452e-05
0.1207056638 37.65903439 -9.740720452e-05
633.0967657 48.53146139 -9.740720452e-05
-333.3501303 -2.460507994e-05 -212.0268584
586.7429207 22.98303339 -9.740720452e-05
-506.0227583 -2.460507994e-05 -210.8703174
-523.1093683 43.30180539 -9.740720452e-05
-567.8885183 -2.460507994e-05 -25.27475241
655.4390487 228.775896 -191.2506054
655.4390487 166.8808124 -83.00940141
-670.5948083 20.64922439 -9.740720452e-05
-518.3290283 16.09265839 -9.740720452e-05
281.7135947 51.58087839 -9.740720452e-05
-201.3758193 11.41834739 -9.740720452e-05
30.98688766 -2.460507994e-05 -159.0699174
-52.16197534 -2.460507994e-05 -111.9828224
644.5407587 -2.460507994e-05 -239.1588354
376.9877747 16.98219539 -9.740720452e-05
659.4390487 141.4367084 -92.58871941
-151.7760213 -2.460507994e-05 -229.9617854
-163.9348103 -2.460507994e-05 -40.14085341
-290.1909183 -2.460507994e-05 -210.7748634
659.4390487 199.6931784 -125.9242274
655.4390487 210.8940334 -110.3068514
-255.3022933 -2.460507994e-05 -167.0739004
446.4976017 51.44342539 -9.740720452e-05
-442.9200983 -2.460507994e-05 -211.2261644
576.8227577 -2.460507994e-05 -9.579621407
-413.2117083 -2.460507994e-05 -197.2518874
-571.4655783 -2.460507994e-05 -45.75127641
-320.9042053 -2.460507994e-05 -82.75757241
-123.2960153 -2.460507994e-05 -115.7912814
632.5934167 -2.460507994e-05 -169.1338604
188.5057177 -2.460507994e-05 -102.7930884
595.6339307 -2.460507994e-05 -218.0463074
-660.3050583 49.45448739 -2.230454407
-428.5308783 -2.460507994e-05 -231.3285274
9.265569664 -2.460507994e-05 -98.66209241
-363.3118773 35.85534239 -9.740720452e-05
655.4390487 210.2456664 -73.66232741
412.2896547 -2.460507994e-05 -17.85746141
416.2158377 20.41124839 -9.740720452e-05
-94.39099434 -2.460507994e-05 -173.0880854
656.9047177 125.0487624 -196.6134384
323.9219037 24.51657939 -9.740720452e-05
85.90305066 -2.460507994e-05 -23.10308241
200.3554197 -2.460507994e-05 -164.5249314
-521.7739483 -2.460507994e-05 -36.65411141
651.4390487 91.49615139 -191.3173884
651.4390487 41.67906039 -94.07719241
-105.9331153 -2.460507994e-05 -23.98798141
-311.2964303 46.66272339 -9.740720452e-05
282.4705827 -2.460507994e-05 -167.2517114
48.70451266 19.16473239 -9.740720452e-05
563.0253647 -2.460507994e-05 -144.0183064
503.1061387 42.15140039 -9.740720452e-05
-505.4780283 -2.460507994e-05 -165.8196884
375.2513797 -2.460507994e-05 -20.01155041
-487.0692883 25.69084039 -9.740720452e-05
651.4390487 105.3963094 -108.6991764
659.4390487 208.6808284 -145.0473344
581.7489607 -2.460507994e-05 -251.9007284
-493.5056783 -2.460507994e-05 -195.2421024
476.9977037 -2.460507994e-05 -197.1912634
-115.1202293 -2.460507994e-05 -206.5607854
-390.6084863 -2.460507994e-05 -199.9893864
-243.4705943 -2.460507994e-05 -65.92745641
-349.5243233 -2.460507994e-05 -251.5484884
666.7017007 -2.460507994e-05 -193.4501744
380.0412017 -2.460507994e-05 -213.7486124
449.8571077 -2.460507994e-05 -150.7859804
112.3493227 -2.460507994e-05 -78.27363341
584.9774337 -1.628109605 -62.97331541
-222.1522883 -2.460507994e-05 -140.9700914
226.0100517 -2.460507994e-05 -72.27367041
-146.0504773 -2.460507994e-05 -30.23910041
497.0580787 -2.460507994e-05 -57.45891141
457.2649527 15.53453339 -9.740720452e-05
-602.3557683 -2.460507994e-05 -25.50251341
-449.6561883 24.96282939 -9.740720452e-05
-631.2428583 -2.460507994e-05 -51.23547141
-513.1718983 -2.460507994e-05 -84.11513541
519.0740977 16.63775639 -9.740720452e-05
509.1815137 -2.460507994e-05 -87.99307941
-554.2778983 25.66368039 -9.740720452e-05
-190.5396353 64.13211039 -9.740720452e-05
-653.2112183 -2.460507994e-05 -74.30773341
-16.55879734 57.42791139 -9.740720452e-05
-442.1392683 -2.460507994e-05 -155.6949224
-14.45300234 19.05048939 -9.740720452e-05
-394.7890903 45.43868639 -9.740720452e-05
316.9603257 -2.460507994e-05 -118.9381954
172.4495627 -2.460507994e-05 -46.24162541
-100.0372833 -2.460507994e-05 -90.08819441
-15.21009234 -2.460507994e-05 -100.9287924
511.5941347 -2.460507994e-05 -147.4982874
339.4231497 -2.460507994e-05 -32.93335541
130.5173707 -2.460507994e-05 -170.8587064
30.68604966 -2.460507994e-05 -119.7010614
147.2181657 -2.460507994e-05 -120.7934924
122.3962737 -2.460507994e-05 -200.5083324
651.4390487 75.51661339 -98.08771041
651.4390487 8.601655395 -16.79199641
474.4490097 -2.460507994e-05 -75.22402641
-569.8780783 54.18364339 -9.740720452e-05
10.27796566 -2.460507994e-05 -60.49794741
-339.2367083 12.72680039 -9.740720452e-05
181.0569217 65.34062539 -9.740720452e-05
266.8944987 -2.460507994e-05 -60.91976641
-59.19117634 -2.460507994e-05 -50.96918341
187.4826937 -2.460507994e-05 -222.5985464
-305.6177973 -2.460507994e-05 -48.63101741
523.5084247 -2.460507994e-05 -165.5365664
106.9718817 -2.460507994e-05 -167.0440544
674.7522077 2.191719395 -9.740720452e-05
509.0431337 -2.460507994e-05 -124.1163684
510.0359127 -2.460507994e-05 -184.9988414
-531.4693583 -2.460507994e-05 -227.8776974
541.6400727 -2.460507994e-05 -40.61712641
210.6858227 -2.460507994e-05 -94.90286641
-289.4461673 -2.460507994e-05 -15.46357741
-331.4009933 -2.460507994e-05 -19.34595941
-637.1157083 -2.460507994e-05 -193.6708424
488.8496157 66.87276039 -9.740720452e-05
-180.8687413 46.99451839 -9.740720452e-05
-313.4824813 -2.460507994e-05 -155.5055694
288.4969537 -2.460507994e-05 -183.5266734
-193.2372023 -2.460507994e-05 -117.2882164
-48.57299434 2.300213395 -9.740720452e-05
389.0069087 -2.460507994e-05 -242.0557084
651.4390487 53.75799439 -232.8553114
-547.4515683 -2.460507994e-05 -200.4165074
220.9909957 -2.460507994e-05 -201.4857164
-28.38850834 -2.460507994e-05 -49.89349341
438.2694757 -2.460507994e-05 -180.4428984
-298.7174923 -2.460507994e-05 -83.89236341
-150.8661553 -2.460507994e-05 -159.9283854
651.4390487 146.6370854 -168.4652134
-68.45592934 -2.460507994e-05 -250.8360994
-273.5054423 -2.460507994e-05 -202.2314304
618.2841737 -0.6588676051 -9.740720452e-05
369.5711377 -2.460507994e-05 -128.7711224
-588.6522883 -2.460507994e-05 -110.3944054
-421.5920483 -1.401096605 -9.740720452e-05
659.4390487 179.2407794 -160.9803354
-467.6252783 -2.460507994e-05 -245.2632494
655.4390487 176.9513124 -96.91905541
528.2717117 -2.460507994e-05 -205.9994234
-303.6816833 22.37020639 -9.740720452e-05
-600.9759383 -2.460507994e-05 -201.8453474
-165.0445313 -1.703297605 -9.740720452e-05
-446.0807483 -2.460507994e-05 -177.0432124
-134.3893003 -2.460507994e-05 -174.6409754
-42.90702534 -2.460507994e-05 -93.75007241
87.22200966 -2.460507994e-05 -87.70372941
-96.62992834 -2.460507994e-05 -249.2978484
-209.6610713 -2.460507994e-05 -211.4414074
-642.2520783 -2.460507994e-05 -250.2988764
-23.73446034 -2.460507994e-05 -66.86953841
-365.4845253 67.99997539 1.373265593
572.8556427 56.15538739 -9.740720452e-05
-365.9440743 -2.460507994e-05 -212.7986384
344.7149377 -2.460507994e-05 -15.93838641
262.5196967 -2.460507994e-05 -121.9957614
655.4390487 228.228912 -113.7275864
356.5554507 -2.460507994e-05 -186.3602084
54.17406366 -2.460507994e-05 -191.3454804
655.4390487 8.167251395 -75.92524841
-586.6101983 -2.460507994e-05 -13.87852941
-58.36538034 -2.460507994e-05 -183.3121564
659.4390487 163.2610684 -114.8160094
318.5236647 51.24399939 -9.740720452e-05
-546.7508483 -2.460507994e-05 -18.13435641
203.9566417 -2.460507994e-05 -192.1625554
659.4390487 50.96870739 -158.6717754
0.1977856638 -2.460507994e-05 -205.7804004
-141.3637493 -2.460507994e-05 -140.7641284
-157.3155053 56.63787239 -9.740720452e-05
250.5372317 -2.460507994e-05 -184.3955544
-558.6004383 -2.460507994e-05 -150.4134154
-562.0172783 -2.460507994e-05 -83.01026941
-658.0557283 -2.460507994e-05 -199.7581114
-457.3247483 67.99997539 0.4372225928
-342.2919233 -2.460507994e-05 -63.01546241
-621.8187783 51.39093939 -9.740720452e-05
-658.8034483 -2.460507994e-05 -21.80477041
-179.3850673 -2.460507994e-05 -136.3936304
-279.2147693 -2.460507994e-05 -234.8097574
-459.5560583 -2.460507994e-05 -114.9258544
659.9109037 26.33072939 -9.740720452e-05
216.6474487 -2.460507994e-05 -37.06437441
504.0249417 -0.3621986051 -20.28125841
-281.5308043 -2.460507994e-05 -132.4035494
-104.7469323 -2.460507994e-05 -74.05170641
659.4390487 129.5356954 -169.2464854
438.4641687 -2.460507994e-05 -131.0487674
-609.2935983 -0.9021256051 -159.2261594
61.28124666 -2.460507994e-05 -131.9594374
-544.2629383 -2.460507994e-05 -238.5227794
212.7866237 -2.460507994e-05 -138.4912214
-224.1567943 13.88426739 -9.740720452e-05
554.9932547 -2.460507994e-05 -226.2798834
655.4390487 144.7933074 -53.65817541
-670.5438983 -2.460507994e-05 -232.2459894
134.9928317 -2.460507994e-05 -234.0641534
652.0187617 110.8346494 -139.1025034
-157.1684603 -2.460507994e-05 -95.54415141
-311.2911593 2.869281395 -9.740720452e-05
494.2995407 -2.460507994e-05 -179.8574264
-630.9260283 9.321692395 -92.64928241
-399.8799783 -2.460507994e-05 -165.9504574
406.5373997 -2.460507994e-05 -129.9328974
597.4801587 -2.460507994e-05 -18.60681441
63.31726366 -2.460507994e-05 -169.7134214
-128.3028443 6.431901395 -9.740720452e-05
673.6031787 71.66635739 -196.0000974
11.88049566 -2.460507994e-05 -12.38583141
394.4881997 -2.460507994e-05 -102.0305164
-345.6337323 67.99997539 1.415742593
144.0977837 -2.460507994e-05 -204.1571514
-644.7876783 -2.460507994e-05 -13.07428541
247.1740527 21.59173739 -9.740720452e-05
658.4430177 120.4525924 -41.78204441
-653.7805283 -2.460507994e-05 -108.6020294
-601.0123183 -2.460507994e-05 -43.05160041
624.6204887 34.40683439 -9.740720452e-05
-476.8682383 -2.460507994e-05 -161.5880204
357.2679957 12.35691439 -9.740720452e-05
50.59330466 -2.460507994e-05 -16.30738441
-438.4064183 -2.460507994e-05 -86.95075141
-641.3025383 -2.460507994e-05 -170.1410574
338.0297947 -2.460507994e-05 -71.36207041
455.7923047 -2.460507994e-05 -78.71785841
460.8296187 -2.460507994e-05 -182.6085104
-141.9753833 44.72476339 -9.740720452e-05
84.54954666 -2.460507994e-05 -108.9449344
615.1382727 -2.460507994e-05 -151.2067794
-565.8505083 -2.460507994e-05 -120.0161704
168.3344587 -2.460507994e-05 -80.96862641
-84.54357234 -2.460507994e-05 -196.5987484
519.8784777 -2.460507994e-05 -107.2492904
111.1217147 -1.509300605 -9.740720452e-05
429.4378417 -2.460507994e-05 -50.69917441
-132.7903903 -2.460507994e-05 -63.63137441
666.2222857 93.74813939 -44.00009741
254.8139537 -2.460507994e-05 -83.62179741
-23.12672734 -2.460507994e-05 -250.3571894
-191.9148893 -2.460507994e-05 -96.09674241
374.0867937 -2.460507994e-05 -175.7561474
-128.7136213 -2.460507994e-05 -80.85632941
510.0771947 -2.460507994e-05 -40.63313641
-661.7172883 -2.460507994e-05 -46.48910841
-221.5120793 50.75620839 -9.740720452e-05
557.9106107 -2.460507994e-05 -40.51229741
675.0145717 49.76134039 -9.740720452e-05
-399.8518683 -2.460507994e-05 -133.3089314
-303.8839803 -2.460507994e-05 -249.5092524
410.4629577 -2.460507994e-05 -212.0536044
614.7974567 -2.460507994e-05 -215.6228414
-505.1180983 -2.460507994e-05 -248.1765734
-507.5555683 -2.460507994e-05 -146.8018774
674.5561047 105.9735164 -200.0000974
-611.3797083 -1.822512605 -9.740720452e-05
-620.7943783 1.944686395 -107.6504234
-235.0664503 31.80175239 -9.740720452e-05
-332.7182873 -2.460507994e-05 -123.4137554
508.6744817 -2.460507994e-05 -235.8832834
-278.6195823 10.10140039 -9.740720452e-05
447.0788307 -2.460507994e-05 -37.98111241
407.3886507 -2.460507994e-05 -170.8781514
442.5003527 -2.460507994e-05 -64.37789241
512.6367627 -2.460507994e-05 -200.9377004
650.8853817 -2.460507994e-05 -105.0345554
378.7788047 -2.460507994e-05 -66.73127041
142.7557887 -2.460507994e-05 -34.89842241
651.4390487 37.29029839 -187.6110354
-421.1654483 -2.460507994e-05 -141.5795084
-612.8779783 -2.460507994e-05 -182.2526364
316.3134337 -2.460507994e-05 -184.9817594
88.21291366 -2.460507994e-05 -138.4112644
-249.8468443 -2.460507994e-05 -13.04313841
305.3413637 -2.460507994e-05 -17.55106141
69.89262166 -2.460507994e-05 -80.64304041
659.4390487 11.85937339 -162.5880714
661.7694737 249.9844007 -40.18928941
408.0851857 -2.460507994e-05 -74.79554041
402.7407937 -2.460507994e-05 -31.18758941
552.6288657 -2.460507994e-05 -115.8448944
36.61650266 -2.460507994e-05 -134.8627824
-494.5669783 43.01260039 -9.740720452e-05
-419.8282583 -2.460507994e-05 -180.8948594
-554.0232383 -2.460507994e-05 -182.2729514
659.4390487 235.7081998 -97.64685141
-642.6735183 36.79750839 -56.49477241
-408.5767383 -2.460507994e-05 -35.00299741
-669.4752483 -2.460507994e-05 -128.1344254
548.9178727 12.06440139 -9.740720452e-05
651.4390487 25.62738839 -41.53071441
-405.1530683 -2.460507994e-05 -81.68569041
18.85762566 -2.460507994e-05 -233.4307764
-631.7786483 -2.460507994e-05 -217.9366114
314.0366087 -2.460507994e-05 -156.2912664
455.9440687 64.84437439 -9.740720452e-05
-635.5829383 30.11316239 -78.31738141
537.5782337 -2.460507994e-05 -22.80196841
349.8508337 37.88950039 -9.740720452e-05
-605.9960983 52.38286639 -9.740720452e-05
542.6307237 -2.460507994e-05 -198.7532124
-612.0470283 21.52508039 -9.740720452e-05
164.0049367 -2.460507994e-05 -115.0189004
659.5131457 69.85773539 -41.06544941
-595.3796183 -2.460507994e-05 -232.6748914
-152.2950423 -2.460507994e-05 -111.8943404
-618.9666983 -2.460507994e-05 -75.59830641
655.4390487 58.85969139 -67.28756041
-485.7722383 -2.460507994e-05 -91.69170441
279.8970217 17.19169639 -9.740720452e-05
358.0307107 -2.460507994e-05 -96.49553541
620.6851047 -2.460507994e-05 -61.65771241
-30.68420834 -2.460507994e-05 -172.3813804
14.85666066 -2.460507994e-05 -148.1170354
-519.9573683 -2.460507994e-05 -196.9523424
58.09063266 33.07381439 -9.740720452e-05
659.4390487 195.3813314 -171.2167354
416.3077977 -2.460507994e-05 -235.0456964
241.3193667 -2.460507994e-05 -153.2565084
655.1869797 58.82057139 -9.740720452e-05
-563.9203983 -2.460507994e-05 -229.5485334
603.1434967 -2.460507994e-05 -122.7288574
488.0492207 -2.460507994e-05 -211.8818284
-674.4517383 -2.460507994e-05 -97.19535641
117.2571277 -2.460507994e-05 -102.5250614
97.06383166 -2.460507994e-05 -249.4385784
-375.0260713 49.93294839 -9.740720452e-05
674.1364927 23.49106139 -200.0000974
-118.6106783 -2.460507994e-05 -46.72771541
-255.5155813 -2.460507994e-05 -55.60623041
587.5220557 -2.460507994e-05 -197.9731184
-484.6186083 -2.460507994e-05 -118.4069984
-525.5603083 -1.901558605 -9.740720452e-05
17.43334366 -2.460507994e-05 -187.9375994
526.3465237 -2.460507994e-05 -251.9165564
-419.0035683 -2.460507994e-05 -159.0332234
611.2616787 -2.460507994e-05 -185.4361084
48.96765866 -2.460507994e-05 -32.26333141
168.5691477 -2.460507994e-05 -154.0365444
-236.1281763 -2.460507994e-05 -195.3647494
139.9736747 12.53139839 -9.740720452e-05
-81.21020434 -2.460507994e-05 -224.7414864
414.6513587 -2.460507994e-05 -58.30102241
584.6018197 -2.460507994e-05 -45.45022741
187.8028107 -2.460507994e-05 -48.39402741
269.4622967 -2.460507994e-05 -26.03693741
192.1459057 -2.460507994e-05 -70.80744741
1.323302664 -2.460507994e-05 -128.6651764
659.4390487 54.06214439 -89.42056941
-56.74417534 -2.460507994e-05 -31.68555941
465.9495117 -2.460507994e-05 -161.5925894
-342.8338853 -2.460507994e-05 -167.2930094
392.1776757 -2.460507994e-05 -154.1359134
659.4390487 60.26282339 -144.4553224
141.3309347 28.03412939 -9.740720452e-05
57.65254666 -2.460507994e-05 -70.68981641
-544.7643483 -2.460507994e-05 -123.6477634
481.5324907 -2.460507994e-05 -250.2346664
-456.1595383 -2.460507994e-05 -62.95792241
-426.3701283 -2.460507994e-05 -47.60189941
-215.9332623 -2.460507994e-05 -75.31173441
148.3013177 -2.460507994e-05 -218.9829764
-536.1841983 -2.460507994e-05 -43.49940541
655.4390487 69.25728139 -116.7823544
322.2531927 -2.460507994e-05 -233.2844144
-216.3415433 -2.460507994e-05 -26.21909241
209.5506987 55.87430039 -9.740720452e-05
369.1742477 -2.460507994e-05 -37.11920841
586.5377077 -2.460507994e-05 -95.86002441
675.5858287 -2.460507994e-05 -230.3586204
538.1125037 -2.460507994e-05 -141.4401894
-34.31985134 53.19674339 -9.740720452e-05
140.3200947 -2.460507994e-05 -159.0663864
-581.1827183 19.16793439 -229.5614604
480.9689827 -2.460507994e-05 -28.55758141
47.92206166 -2.460507994e-05 -99.75170941
-310.6097513 -2.460507994e-05 -192.1192964
70.59727666 -2.460507994e-05 -186.1811334
660.1390447 153.0872144 -199.2667214
500.8755927 7.742642395 -9.740720452e-05
655.4390487 23.85402439 -239.9027864
-469.3330783 -2.460507994e-05 -87.96046441
-371.4571813 -2.460507994e-05 -38.90292641
209.1632297 -2.460507994e-05 -228.8007874
15.80929666 -2.460507994e-05 -116.1776834
-22.10932334 -2.460507994e-05 -188.6199444
-269.8116653 -2.460507994e-05 -100.0679704
-361.1478083 -2.460507994e-05 -69.09646741
153.9093487 2.787361395 -9.740720452e-05
655.4422347 188.9228304 -192.0322734
-605.9519083 10.69200939 -169.5116114
-621.8917983 49.92957939 -120.4544014
329.0850507 -2.460507994e-05 -147.0170274
-476.8323583 -2.460507994e-05 -202.3055504
-574.5237883 32.73482339 -250.0557334
-77.81686834 -2.460507994e-05 -90.54896641
-77.79446634 -2.460507994e-05 -144.0586294
-7.936082336 -2.460507994e-05 -36.69338541
-282.6828893 58.71081839 -9.740720452e-05
385.1684617 -0.00415860508 -9.740720452e-05
336.4936837 -2.460507994e-05 -243.9929124
108.5873847 -2.460507994e-05 -221.8209794
-101.8448383 28.09094139 -9.740720452e-05
-117.3454093 -2.460507994e-05 -173.7543754
-389.3978413 -2.460507994e-05 -0.1845744072
373.8839017 -2.460507994e-05 -232.4728474
659.4390487 58.37609139 -174.0297574
-309.2624163 -2.460507994e-05 -113.2368954
651.4390487 76.40815939 -68.44867441
-446.4095283 -2.460507994e-05 -125.3317584
95.13676366 -2.460507994e-05 -123.8563264
-29.66224234 -2.460507994e-05 -11.22914341
119.5756897 -2.460507994e-05 -135.4266914
660.8660877 203.8787424 -40.46569641
-588.0155383 48.53927339 -224.7148714
-124.0329363 67.99997539 2.318800593
-289.8551663 -2.460507994e-05 -53.39107141
-613.7050183 3.807383395 -145.6489844
641.2055897 -2.460507994e-05 -40.25939441
-658.3606583 -2.460507994e-05 -1.562661407
-223.7605393 -2.460507994e-05 -167.4086954
168.8373167 -2.460507994e-05 -186.6519404
-532.8189783 -2.460507994e-05 -74.84331941
-491.6561083 -2.460507994e-05 -175.9811144
-511.3913883 -2.460507994e-05 -17.66201241
-610.7105183 -2.460507994e-05 -235.5092124
-570.9602583 -2.460507994e-05 -8.286329407
659.4390487 10.14230139 -93.83901141
457.2151697 -2.460507994e-05 -16.19486241
41.02556266 -2.460507994e-05 -230.8467574
659.4390487 27.83928339 -71.47345641
171.8744657 -2.460507994e-05 -250.3147624
216.8318127 11.11270239 -9.740720452e-05
444.0497847 -2.460507994e-05 -250.6295364
-54.53689234 -2.460507994e-05 -79.87048841
-576.0231383 -2.460507994e-05 -251.6844754
-263.0341533 -2.460507994e-05 -239.3049774
238.5087877 -2.460507994e-05 -14.20308741
-588.0368983 -2.460507994e-05 -72.62582541
185.6834817 -2.460507994e-05 -132.2800844
-596.2422083 39.13331239 -9.740720452e-05
242.6941007 -2.460507994e-05 -234.3615994
226.5167277 -2.460507994e-05 -241.7994084
147.2252037 -2.460507994e-05 -102.9328194
29.11883966 -2.460507994e-05 -87.04217641
659.4390487 86.35313739 -91.26696641
453.8310567 -2.460507994e-05 -100.1058884
659.4390487 225.3805612 -55.39990141
674.7319337 248.5405262 -196.0000974
113.4998207 -2.460507994e-05 -41.48486241
403.2238097 47.37830139 -9.740720452e-05
547.7942517 -2.460507994e-05 -75.48969041
14.90509466 25.85212739 -9.740720452e-05
-67.94460534 18.26826339 -9.740720452e-05
604.7316497 67.93943239 -9.740720452e-05
527.8586417 -2.460507994e-05 -51.45865841
150.1466247 -2.460507994e-05 -249.2782024
-111.9976343 1.955419395 -9.740720452e-05
358.3826507 -2.460507994e-05 -153.4139864
-523.7854083 -2.460507994e-05 -103.1539054
-424.3804183 51.53021939 -9.740720452e-05
609.5354877 -2.460507994e-05 -105.4811674
582.1856677 -2.460507994e-05 -115.8988904
-538.9293283 49.32980939 -9.740720452e-05
-67.37521634 -2.460507994e-05 -14.13583741
-660.2611783 -2.460507994e-05 -217.1272654
-421.1164683 -2.460507994e-05 -62.90197441
567.1632037 -2.460507994e-05 -117.8750624
659.4390487 119.1027164 -109.7529374
655.4390487 39.00275539 -127.8955894
657.8136917 173.8762674 -42.31232341
130.6751607 -2.460507994e-05 -123.6627004
-292.3288183 -2.460507994e-05 -97.04488841
-268.6555153 -2.460507994e-05 -24.50642841
-86.15365534 -2.460507994e-05 -34.12895041
288.4781317 -2.460507994e-05 -96.07775541
197.2645177 -2.460507994e-05 -250.0820994
-310.7964763 67.99997539 0.6235075928
391.6607857 -2.460507994e-05 -189.1730224
540.9567477 -2.460507994e-05 -175.8057784
40.50528566 55.12714039 -9.740720452e-05
549.7884577 58.42639539 -9.740720452e-05
476.7816897 9.775471395 -9.740720452e-05
-656.7801883 -2.460507994e-05 -251.2367944
-67.45491734 -2.460507994e-05 -107.7149824
-375.2695983 -2.460507994e-05 -121.7968054
659.4390487 240.4495446 -158.4491084
-282.3963093 -2.460507994e-05 -68.18336041
-322.0128453 13.95642939 -9.740720452e-05
-212.5479543 -2.460507994e-05 -55.88035541
528.5802447 -2.460507994e-05 -222.2530204
-86.69366834 34.77198739 -9.740720452e-05
-97.94492834 -1.733285605 -61.36342341
-332.0566193 -2.460507994e-05 -73.51976441
-511.7937783 -2.460507994e-05 -69.69987241
-499.1666083 14.42953839 -9.740720452e-05
-599.7683283 8.141874395 -188.5422254
-247.0292373 -2.460507994e-05 -95.77835541
203.5102407 -1.742721605 -20.39097441
-491.3736483 -2.460507994e-05 -105.5761194
-205.9861213 -2.460507994e-05 -9.322608407
659.4390487 121.8409114 -144.7684884
-15.71746834 -2.460507994e-05 -116.1867994
609.2388187 41.22544339 -9.740720452e-05
280.3199727 -2.460507994e-05 -68.62917941
655.4390487 197.7906124 -66.48136241
-534.3441683 -2.460507994e-05 -161.1110524
349.2546897 -2.460507994e-05 -229.4178864
261.7429827 -2.460507994e-05 -169.8851594
-422.0042683 67.73066139 -9.740720452e-05
659.4390487 -1.934147605 -166.5404064
282.6623257 -2.460507994e-05 -47.76370541
-257.7046813 12.72677739 -9.740720452e-05
452.7197357 -2.460507994e-05 -129.5436534
236.2829647 -2.460507994e-05 -214.5863794
-656.2620083 34.75077539 -14.67390841
356.6395627 -2.460507994e-05 -46.96810741
-542.3011983 67.49832139 -9.740720452e-05
408.3100627 -2.460507994e-05 -105.5320044
534.6051707 49.74890939 -9.740720452e-05
277.1052057 -2.460507994e-05 -193.8204424
-39.90016834 -2.460507994e-05 -124.9139844
525.3197227 -2.460507994e-05 -151.4053804
-331.4139323 42.65751339 -9.740720452e-05
247.8949457 -2.460507994e-05 -100.5419454
-519.7266483 -2.460507994e-05 -176.6502544
645.7273657 15.92841039 -9.740720452e-05
295.7152277 -2.460507994e-05 -225.8287024
-516.4658283 -2.460507994e-05 -50.87959841
-590.6174683 33.07475539 -200.5245084
635.0430127 -2.460507994e-05 -84.38516041
-244.1557873 -2.460507994e-05 -26.94898441
651.4390487 120.4583624 -184.3454504
596.6955157 11.34116839 -9.740720452e-05
103.6442747 33.37362239 -9.740720452e-05
-616.0565183 30.19660139 -122.2312404
324.9756347 -2.460507994e-05 -63.43865041
437.5415367 -2.460507994e-05 -158.7263164
320.4768157 -2.460507994e-05 -211.3901024
120.7387647 -2.460507994e-05 -229.0362714
657.4406547 -2.460507994e-05 -244.9248914
-638.3142383 49.94072339 -53.72926141
-482.7541283 -2.460507994e-05 -62.24717541
530.4744507 -2.460507994e-05 -68.28269641
-613.9152683 30.23303239 -145.0033494
499.5709877 -2.460507994e-05 -221.9060344
658.0953947 134.5084284 -42.07466541
51.87206466 -2.460507994e-05 -160.1821814
426.0050817 -2.460507994e-05 -20.92042341
79.73592766 -2.460507994e-05 -159.4947144
-211.9566433 67.99997539 1.899521593
651.4390487 43.89363139 -110.4798204
644.8492517 -2.460507994e-05 -221.2318744
-276.5783713 42.47735239 -9.740720452e-05
7.267219664 -2.460507994e-05 -241.2822104
178.2176527 37.47778839 -9.740720452e-05
-629.4318583 16.99474739 -81.06654041
-335.9226723 -2.460507994e-05 -242.1840324
420.1747697 -2.460507994e-05 -84.30176941
-581.1235983 -2.460507994e-05 -98.32608341
-402.6211483 -2.460507994e-05 -211.5046674
655.4390487 48.02299539 -219.0444714
655.4390487 217.8602533 -176.2151684
655.4390487 251.787368 -129.7191024
-58.97291334 36.38370439 -9.740720452e-05
167.4693387 -2.460507994e-05 -223.2205734
179.2417627 9.578178395 -9.740720452e-05
664.4582647 40.48489739 -40.00009741
224.9757777 -2.460507994e-05 -169.6595334
600.1483667 -2.460507994e-05 -161.5407764
146.4726667 -2.460507994e-05 -180.1138744
572.2639417 -2.460507994e-05 -89.81264541
662.1424427 89.27124039 -199.8720624
101.5702907 -2.460507994e-05 -111.5604794
-462.8051883 13.73083039 -9.740720452e-05
-260.8488023 -2.460507994e-05 -143.8533434
-53.56402834 -2.460507994e-05 -127.9160414
640.3938087 -2.460507994e-05 -252.3872504
420.1659007 -2.460507994e-05 -190.9503074
289.9717807 -2.460507994e-05 -238.7228864
294.6377187 43.57520539 -9.740720452e-05
659.3016977 -2.460507994e-05 -30.33245841
195.7373417 26.22817339 -9.740720452e-05
96.69395666 -2.460507994e-05 -71.14363041
-145.5575173 11.40359339 -9.740720452e-05
-5.751893336 67.99773039 -9.740720452e-05
-341.0678723 -2.460507994e-05 -8.701795407
38.05968966 -2.460507994e-05 -58.70297141
130.8987977 46.51481639 -9.740720452e-05
-600.6634983 -2.460507994e-05 -78.33100541
534.4475227 -2.460507994e-05 -95.04502841
575.2996877 -2.460507994e-05 -72.68549741
651.4390487 115.7788804 -84.57610841
659.4390487 100.8086984 -146.4275474
-310.6276643 -2.460507994e-05 -67.35880141
619.0817787 -2.460507994e-05 -134.5630204
437.4399197 -2.460507994e-05 -226.5933014
659.4390487 77.82692539 -148.0496954
630.2758147 -2.460507994e-05 -236.9266444
662.6259777 17.65716039 -41.67161441
-218.5770353 -2.460507994e-05 -103.6922634
-366.9378553 -2.460507994e-05 -197.0233204
-181.8076563 -2.460507994e-05 -170.2511584
604.7836567 -2.460507994e-05 -82.33493541
280.0773047 65.89968239 -9.740720452e-05
628.0833677 -2.460507994e-05 -11.31805541
-643.4962183 -2.460507994e-05 -226.3231424
107.4539977 -2.460507994e-05 -144.9848944
-9.672889336 -2.460507994e-05 -233.4724784
-621.7056783 4.674480395 -121.0257014
-657.3937683 -2.460507994e-05 -164.7044564
-407.0552183 -2.460507994e-05 -239.4841314
659.4390487 33.00604139 -165.0385014
237.3593667 -2.460507994e-05 -34.88917841
166.4653877 55.99846039 -9.740720452e-05
488.6626257 -2.460507994e-05 -113.5400374
651.4390487 59.80112339 -13.18932941
232.2886677 -2.460507994e-05 -143.0617504
632.6619017 -2.460507994e-05 -155.0561304
659.4390487 40.44274039 -66.34619641
571.5167527 -2.460507994e-05 -40.52005541
659.4390487 167.7428104 -134.4396034
651.4390487 56.22671239 -204.6094244
280.7896527 -2.460507994e-05 -143.9748614
-313.2274423 -2.460507994e-05 -237.4103334
-185.8549743 -2.460507994e-05 -213.2100514
-376.6413813 -2.460507994e-05 -240.5442044
346.3705187 -2.460507994e-05 -122.0253714
377.1548547 33.66348139 -9.740720452e-05
-582.3309483 49.99997539 -240.7210644
659.6512757 199.7454444 -199.0067094
-99.14943334 -2.460507994e-05 -199.0089084
530.7125257 -2.460507994e-05 -121.0917004
656.5588197 52.71031039 -43.98423541
351.2152787 -0.6810646051 -9.740720452e-05
-453.0313683 -2.460507994e-05 -146.7890344
659.4390487 73.52276639 -171.4063024
364.4214157 52.68678739 -9.740720452e-05
-629.6657483 42.10405939 -80.34644041
619.4431437 -2.460507994e-05 -202.9236024
306.2689037 -2.460507994e-05 -62.33248541
-13.78063934 -2.460507994e-05 -218.3923624
655.4390487 34.44953439 -142.6869444
663.7666157 42.31594339 -9.740720452e-05
52.60024666 -2.460507994e-05 -220.8001364
-248.7398663 -2.460507994e-05 -180.7131684
525.2043007 -2.460507994e-05 -15.41642041
-550.7193783 11.70786539 -9.740720452e-05
-228.1039963 -2.460507994e-05 -7.234740407
284.0414487 -2.460507994e-05 -108.7959084
479.1903727 -2.460507994e-05 -126.5963784
-582.4408383 -2.460507994e-05 -177.5345304
-285.9202483 -2.460507994e-05 -154.0935744
417.8853887 -2.460507994e-05 -137.8611184
-345.6890973 -2.460507994e-05 -219.1717534
-359.8833213 -2.460507994e-05 -10.32172941
67.68503266 -2.460507994e-05 -247.4067544
544.5278007 -2.460507994e-05 -11.30320841
-51.51826534 -2.460507994e-05 -250.4770614
599.9275517 -2.460507994e-05 -94.99636641
-343.7040153 -2.460507994e-05 -49.67287241
-35.19995334 -2.460507994e-05 -185.0123614
675.1203157 8.121135395 -200.0000974
468.3144337 50.78927639 -9.740720452e-05
657.4071917 -1.156544605 -66.50009741
-422.1309083 32.75371239 -9.740720452e-05
-437.1788883 19.08096139 -9.740720452e-05
-604.2339483 -2.460507994e-05 -95.06044141
160.8863097 -2.460507994e-05 -63.88695541
-4.263495336 3.395281395 -9.740720452e-05
182.4754167 -2.460507994e-05 -9.546108407
164.5438047 10.94474039 -9.740720452e-05
-344.8231513 -2.460507994e-05 -95.79322441
489.1909357 -2.460507994e-05 -167.3092944
554.0526297 -2.460507994e-05 -53.32386041
-466.7655883 -2.460507994e-05 -170.3569414
655.4390487 132.9529024 -102.3734274
-373.9075293 -2.460507994e-05 -150.0123544
580.6694967 -2.460507994e-05 -175.8035914
-412.0143683 11.28394839 -9.740720452e-05
340.8400247 -2.460507994e-05 -161.3720064
179.9880967 -2.460507994e-05 -145.3304524
-624.9066083 -2.460507994e-05 -156.9176304
-325.5559113 -2.460507994e-05 -111.7381814
583.4840047 6.495937395 -9.740720452e-05
76.11222466 9.034578395 -9.740720452e-05
626.4369117 -2.460507994e-05 -184.4945304
-33.87726634 39.85572339 -9.740720452e-05
604.1466057 -2.460507994e-05 -33.52250541
40.32781666 -2.460507994e-05 -244.8145394
655.4390487 74.28979439 -217.0738084
319.1023297 -2.460507994e-05 -99.38311041
226.2794907 1.160210395 -9.740720452e-05
-593.4880883 12.99918639 -207.8715354
-192.6413153 21.48195339 -9.740720452e-05
83.48737166 49.55051839 -9.740720452e-05
-384.9292053 -2.460507994e-05 -29.98647641
-38.76288734 -2.460507994e-05 -29.39495941
655.4390487 203.3627474 -99.34413141
71.40807266 -2.460507994e-05 -106.9148664
35.44928566 -2.460507994e-05 -203.2854974
257.1446337 -2.460507994e-05 -37.19069941
322.6828037 11.29085339 -9.740720452e-05
-373.4027203 -2.460507994e-05 -53.63880441
-331.4685443 -2.460507994e-05 -137.7434964
237.2584967 -2.460507994e-05 -63.49398241
655.4390487 148.0124224 -103.4038564
-140.1003423 -2.460507994e-05 -187.9282204
363.8056567 -2.460507994e-05 -140.7253434
197.4638927 -2.460507994e-05 -235.0532524
-606.8244083 32.41078639 -166.8267424
-541.9448983 -2.460507994e-05 -96.05346641
-139.2084963 -2.460507994e-05 -42.49523041
-140.5848363 -1.521241605 -9.740720452e-05
-69.06604034 -2.460507994e-05 -171.3336034
469.3342207 -2.460507994e-05 -49.56185141
-229.3034573 -2.460507994e-05 -152.1051174
-67.73186834 -2.460507994e-05 -222.7480184
267.1567797 -2.460507994e-05 -138.3955724
-206.2271973 -2.460507994e-05 -240.7205404
-178.0841043 12.75125939 -9.740720452e-05
651.4390487 33.65535939 -7.013192407
279.1545927 -2.460507994e-05 -11.93208941
-582.9501683 -2.460507994e-05 -1.203032407
659.4390487 94.45119939 -158.6921754
241.4294047 -2.460507994e-05 -126.6527554
94.08404866 13.48274239 -9.740720452e-05
620.6617797 -2.460507994e-05 -74.96199741
-299.5056583 -2.460507994e-05 -164.6266524
-560.0488583 -2.460507994e-05 -62.76532041
566.9953207 -2.460507994e-05 -27.86297641
-430.9819583 -2.460507994e-05 -205.1550074
-649.0203683 22.58134839 -36.96156341
-44.72577634 -2.460507994e-05 -152.7134104
-45.85238834 31.02459339 -9.740720452e-05
-135.6388833 -2.460507994e-05 -252.2872094
204.1779247 7.556937395 -9.740720452e-05
-323.9369893 -2.460507994e-05 -96.97315941
-471.1084683 -2.460507994e-05 -121.1734294
655.4390487 161.0911844 -67.76871341
-175.1291483 -2.460507994e-05 -204.5208294
655.4390487 117.2184984 -166.6365164
-645.1677783 0.8329353949 -9.740720452e-05
227.5810807 28.15028339 -9.740720452e-05
266.0699647 -2.460507994e-05 -218.3801854
-330.4878853 -2.460507994e-05 -174.8026824
87.46901466 -2.460507994e-05 -212.6092384
666.0608247 182.4140864 -196.0000974
659.4390487 27.09456039 -183.3087934
34.43938866 -2.460507994e-05 -10.93416741
394.9230607 -2.460507994e-05 -135.8885954
22.00468266 -2.460507994e-05 -28.09355041
-299.9161793 -2.460507994e-05 -221.3347964
-485.8727783 -2.460507994e-05 -22.53381941
-165.1395993 -2.460507994e-05 -53.53664541
321.1592207 -2.460507994e-05 -39.01919441
-426.6441083 -2.460507994e-05 -92.53721441
665.7289127 -2.460507994e-05 -115.8633254
659.4390487 105.5513624 -190.5671434
116.8286647 52.47517839 -9.740720452e-05
219.8721567 -2.460507994e-05 -85.69592141
31.47977566 -2.460507994e-05 -177.3336384
-212.1020513 40.93686139 -9.740720452e-05
-646.5619583 44.04383639 -9.740720452e-05
518.0949487 52.07927939 -9.740720452e-05
655.4390487 114.8481154 -58.23209741
-574.9763383 -2.460507994e-05 -83.11925641
555.5146197 32.94773439 -9.740720452e-05
168.5111177 -2.460507994e-05 -173.7088014
-517.8370483 -2.460507994e-05 -230.0818104
-639.2366683 -2.460507994e-05 -126.3045424
672.3303907 156.8557864 -196.0000974
61.35900666 -2.460507994e-05 -2.343820407
651.4390487 81.10317939 -130.8661394
-641.2871483 4.664984395 -44.58065841
-496.0627083 -2.460507994e-05 -138.0941124
432.4664457 -2.460507994e-05 -32.28786841
548.1730277 -2.460507994e-05 -103.1489074
396.7791427 -2.460507994e-05 -5.617440407
121.6855597 -2.460507994e-05 -180.2537074
65.16016566 -2.460507994e-05 -22.98513041
-422.1235783 -2.460507994e-05 -243.4261184
651.4390487 58.05933639 -132.5970714
-317.5831253 -2.460507994e-05 -142.9851624
307.6982757 67.57587239 -9.740720452e-05
-635.8062083 -2.460507994e-05 -100.7855064
659.4390487 179.8228594 -115.2559244
-36.96552134 -2.460507994e-05 -78.34132741
-298.9004033 50.03936239 -9.740720452e-05
344.6240147 -2.460507994e-05 -109.3165084
659.4390487 238.6828431 -184.1580474
-396.3203683 58.15621139 -9.740720452e-05
634.1017237 -2.460507994e-05 -210.7749004
7.436405664 -1.804850605 -9.740720452e-05
137.4119647 -2.460507994e-05 -55.06366841
-276.1054903 -2.436995605 -9.740720452e-05
248.5942407 -2.460507994e-05 -208.2668654
622.2390777 67.99997539 1.209638593
-160.8555743 -2.460507994e-05 -11.94193641
645.9173207 -2.460507994e-05 -145.2259474
-193.1550173 -2.460507994e-05 -144.5519004
-92.56321734 10.16876739 -9.740720452e-05
441.3853857 -2.460507994e-05 -6.663100407
-453.7824383 -2.460507994e-05 -247.1551544
655.4390487 238.9801667 -62.68828041
250.3109297 35.91763239 -9.740720452e-05
-362.3580753 -2.460507994e-05 -177.7187614
423.5715847 -2.460507994e-05 -208.5099844
-94.01818334 -2.460507994e-05 -150.0068254
222.1006737 -2.460507994e-05 -216.9835444
41.81229066 -2.460507994e-05 -87.65403241
553.0356637 -2.460507994e-05 -151.8579694
435.5410597 25.19878139 -9.740720452e-05
-508.9816383 41.36854039 -9.740720452e-05
651.4390487 141.9563934 -147.0193804
-430.0769683 -2.460507994e-05 -117.1014834
655.4390487 178.4069534 -58.10317941
256.2910307 -2.460507994e-05 -158.4464564
655.4390487 233.8344945 -85.77854741
370.0155097 -2.460507994e-05 -158.4068464
487.9816807 -2.460507994e-05 -46.41459541
-618.8565083 -2.460507994e-05 -62.95334741
624.8071717 -2.460507994e-05 -30.16430041
32.42633566 44.59059139 -9.740720452e-05
-125.6914813 23.58781639 -9.740720452e-05
418.5793587 -2.460507994e-05 -152.5537974
-152.4146963 -2.460507994e-05 -214.2034144
-6.816768336 -2.460507994e-05 -195.3046094
656.0661577 160.7670684 -44.89848741
-4.829660336 52.82281439 -9.740720452e-05
671.7687157 62.76981439 -44.00009741
-17.16147634 -2.460507994e-05 -12.79212741
655.4390487 103.3600134 -120.8308124
-448.7337083 -2.460507994e-05 -41.81067441
152.4949297 57.01768239 -9.740720452e-05
-357.9934153 -2.460507994e-05 -238.9276734
59.99739466 -2.460507994e-05 -148.4000074
659.4390487 141.7879954 -65.44399541
-159.2936803 -2.460507994e-05 -191.8890074
651.4390487 100.5597344 -166.2379864
55.46367666 52.15287739 -9.740720452e-05
615.3392777 -2.460507994e-05 -46.91103941
-614.8216683 47.60539339 -142.2139954
362.2033757 -2.460507994e-05 -209.5173304
-606.4390383 11.97786839 -151.8309904
-333.0782973 67.99997539 1.724236593
480.7818477 -2.460507994e-05 -143.0888284
202.8852207 36.52189139 -9.740720452e-05
291.8409187 -2.460507994e-05 -251.1126064
-533.3413183 -2.460507994e-05 -250.8656414
214.9528607 -2.460507994e-05 -59.62539841
317.8985387 -2.460507994e-05 -171.9268514
675.1924247 164.8249074 -44.00009741
662.1361847 139.6514124 -195.7480134
646.9771617 2.693402395 -9.740720452e-05
659.4390487 0.9484653949 -132.3578694
-162.9550153 -2.460507994e-05 -239.6778734
655.4390487 30.84578439 -30.11179241
-260.7122803 -2.460507994e-05 -66.97294141
96.73314366 65.13257939 -9.740720452e-05
-99.55185634 -2.460507994e-05 -224.7142094
-649.3715883 9.626831395 -19.69863341
-396.7356583 31.86742239 -9.740720452e-05
-259.9588953 -2.460507994e-05 -189.1871664
-322.9360943 -2.460507994e-05 -45.37044741
-12.05306534 -2.460507994e-05 -74.22032941
-80.28499334 -2.460507994e-05 -212.2998724
342.1661797 -2.460507994e-05 -214.6040314
592.4756997 -2.460507994e-05 -171.6031414
-105.7379153 -2.460507994e-05 -166.7943474
-376.2640823 -2.460507994e-05 -205.8175964
-200.7408773 -2.460507994e-05 -164.9391854
562.6966817 -2.460507994e-05 -191.4629214
-455.2308583 -2.460507994e-05 -99.98722941
-560.5380083 -2.460507994e-05 -164.8586424
-634.3676083 28.14035939 -65.87576841
-627.0382383 24.54142839 -104.6152634
-306.7364393 -2.460507994e-05 -135.4418754
-639.3445283 -2.460507994e-05 -64.38768741
226.3509397 -2.460507994e-05 -184.7902914
508.7391867 -2.460507994e-05 -71.63674241
-70.78921134 -2.460507994e-05 -80.30331141
154.2296987 -2.460507994e-05 -155.9603964
-187.5949933 -2.460507994e-05 -192.8489374
472.6958807 -2.294094605 -9.740720452e-05
422.6911207 67.99997539 2.236740593
-624.9880783 -2.460507994e-05 -186.2086594
215.7975657 66.59152839 -9.740720452e-05
655.9532807 82.28891639 -45.24867541
572.2411077 -2.460507994e-05 -201.7776084
90.65799166 -2.460507994e-05 -166.0818314
145.5117017 -2.460507994e-05 -64.44139441
381.9529297 -2.460507994e-05 -128.4523674
37.93542266 30.68023239 -9.740720452e-05
481.9642907 -2.460507994e-05 -88.42057641
-633.2588483 15.42257339 -9.740720452e-05
651.4390487 58.56043739 -79.31457641
-176.9355543 -2.460507994e-05 -116.5249654
-225.7577323 -2.460507994e-05 -116.7468994
118.8775327 -2.460507994e-05 -244.2739954
80.94625666 20.41390339 -9.740720452e-05
660.9743027 -2.460507994e-05 -232.1013284
655.4390487 16.69876639 -105.7933724
591.9341217 -2.460507994e-05 -127.9352814
-305.6103743 34.57380639 -9.740720452e-05
-583.7120683 35.12214939 -221.7771644
655.4390487 35.05991139 -81.11541541
651.4390487 101.5316704 -80.10855941
428.9489847 2.367987395 -9.740720452e-05
-125.7295783 -2.460507994e-05 -228.8080404
673.3763207 214.4066509 -44.00009741
655.4390487 12.38703339 -50.20648741
659.4390487 67.82027039 -191.1400484
302.6190697 -2.460507994e-05 -161.5662294
-291.9727103 -2.460507994e-05 -246.3270024
-197.1692813 -2.460507994e-05 -34.59261741
-388.2319933 -2.460507994e-05 -180.3176194
-169.1351473 25.57748939 -9.740720452e-05
659.4390487 141.2803474 -160.7860494
387.9599207 59.54478739 -9.740720452e-05
191.7380407 -2.460507994e-05 -195.3880164
-252.2025203 -2.285923605 -9.740720452e-05
655.4390487 179.1634944 -83.71768941
-470.2157383 -2.460507994e-05 -189.5232394
659.4390487 199.8169364 -154.7413454
583.6555837 50.28636439 -9.740720452e-05
-499.5976783 -2.460507994e-05 -91.92021341
311.7070927 -2.460507994e-05 -29.83048041
-112.6244173 47.51244039 -9.740720452e-05
651.4390487 30.91410039 -249.8520244
656.0564857 225.2206978 -159.5000974
582.5359667 -2.460507994e-05 -142.8194114
-520.3913483 31.32931139 -9.740720452e-05
651.4390487 15.12344339 -201.8696774
-481.6751483 -2.460507994e-05 -8.374240407
638.3659007 -2.460507994e-05 -181.6525874
-261.2078883 -2.460507994e-05 -207.2814714
649.5437457 44.46664439 -9.740720452e-05
87.35070566 -2.460507994e-05 -9.902321407
