# .PCD v0.7 - Point Cloud Data file format
VERSION 0.7
FIELDS x y z
SIZE 4 4 4
TYPE F F F
COUNT 1 1 1
WIDTH 1224
HEIGHT 1
VIEWPOINT 0 0 0 1 0 0 0
POINTS 1224
DATA ascii
-40.96571406 49.9784414 -149.1503007
-221.1271741 -2.460242331e-05 82.31106835
-1.073034061 -2.460242331e-05 -23.27484065
-81.33197406 -2.460242331e-05 -52.07191265
-247.2235941 -2.460242331e-05 8.194165349
-78.32372406 8.621410398 -180.8403727
-161.8262241 -2.460242331e-05 -202.2157007
-280.4717641 -2.460242331e-05 56.02709135
-151.4640341 67.9910404 -202.4228627
-27.33753406 -2.460242331e-05 -25.29126065
45.49822594 47.9291374 -150.5583317
-14.20700406 54.6087564 -161.9205947
-77.88124406 -2.460242331e-05 -22.19606465
-255.3459441 43.7545044 2.560517349
-8.632354061 -2.460242331e-05 -2.876326651
33.98178594 29.9552334 -145.1503007
-7.714494061 67.9999754 -160.4690037
-32.13589406 12.2309144 98.90331935
-174.4965641 -2.460242331e-05 93.47710535
-25.19431406 9.851102398 -171.4184577
-40.95299406 -2.460242331e-05 -146.7339527
-226.8909541 -2.460242331e-05 42.16464735
-120.4743641 -2.460242331e-05 76.36774935
-92.75369406 -2.460242331e-05 -93.34462165
-109.4185041 -2.460242331e-05 37.93552635
-63.24679406 -2.460242331e-05 48.03603635
-113.6934841 -1.653057602 -197.5330087
-260.3459441 16.2785154 42.03512835
-200.4386341 -2.460242331e-05 56.84028635
-25.27166406 -2.460242331e-05 18.54525435
-36.88692406 -2.460242331e-05 -39.05433865
-214.1507541 127.9508874 -148.7608697
-45.88840406 15.3730744 141.2290193
-15.13368406 -2.460242331e-05 -103.9034247
-147.5295641 33.1190014 -207.5174407
20.45706594 53.6938374 -157.9475377
-175.6001541 -2.460242331e-05 -197.5243697
-107.2612341 -2.460242331e-05 -14.04049465
-38.13097406 -2.460242331e-05 -168.9763677
-100.9496541 -2.460242331e-05 119.7759003
13.21211594 -2.460242331e-05 -134.0521177
-113.4938641 -0.3217586024 -115.6622657
-158.3419741 97.9566724 -149.1503007
-32.17373406 34.0851814 99.01976035
-124.8153741 112.5498334 -145.1503007
-255.3459441 40.2109964 24.01245435
-128.1515841 31.1816814 -201.7993387
-158.9153241 -2.460242331e-05 49.13349735
-93.81324406 -2.460242331e-05 6.033248349
-53.06716406 -2.460242331e-05 -15.52183665
-41.74800406 -2.460242331e-05 63.24072335
-187.9554741 -2.460242331e-05 52.12132835
-140.0688841 -2.460242331e-05 94.46061935
8.013095939 10.6920094 -24.66181465
-82.26429406 54.3898754 -182.0031697
-211.8520241 -2.460242331e-05 -102.9619737
-4.867844061 29.8237894 -159.1647637
-0.1936040608 60.8755984 -145.1503007
20.17488594 7.276593398 -145.1503007
-49.85584406 34.9426074 144.8496993
-135.9950741 134.6634764 -145.1503007
12.79216594 20.3902924 -145.1503007
-149.5606341 143.5973244 -145.1503007
-148.0930741 56.8132774 -207.6837217
-239.3096441 -2.460242331e-05 61.61391935
-87.54782406 67.0962574 -145.1503007
-171.0737941 135.4174454 -145.1503007
-225.3355341 -2.460242331e-05 -32.45305465
-0.8566640608 47.6053934 2.635801349
-187.6157641 -2.460242331e-05 99.97945335
-62.85865406 65.2531544 -149.1503007
-51.95995406 57.1915094 144.8496993
-24.54095406 -2.460242331e-05 -71.23484465
-20.20846406 13.1073004 62.19447635
-34.36727406 -2.460242331e-05 -90.66638065
-185.5194741 10.6296994 -218.7275947
-34.28497406 -2.460242331e-05 -116.4991137
-193.1622541 -2.460242331e-05 32.16066435
-191.1303941 -2.460242331e-05 -185.2850487
-123.4918841 6.434065398 -200.4243417
19.80665594 26.6875474 -60.95901065
-21.67863406 62.8119674 -145.1503007
11.47518594 -2.460242331e-05 -104.3800617
-106.7362041 -1.316506602 -67.65122065
-175.0920441 -2.460242331e-05 -22.92980665
3.726945939 -2.460242331e-05 -153.8794587
-103.0293041 118.7869074 -145.1503007
8.799685939 11.5926934 -161.3874257
26.00951594 8.895445398 -156.3091077
-23.32420406 75.3273984 -145.1503007
23.63246594 21.6672184 -157.0105337
-40.16914406 31.2980554 123.6269513
-225.8772341 -2.460242331e-05 -96.62824365
-174.0348741 -2.460242331e-05 69.19477835
-203.3021741 166.5333784 -149.1503007
-128.2493741 44.8171564 -195.5726007
-213.8471341 -2.460242331e-05 -120.3538667
-122.3092041 140.7028754 -145.1503007
-6.956284061 -2.460242331e-05 -72.37877565
-106.1761341 56.1161924 -195.3147687
-67.07302406 60.1147914 -183.7761297
-173.2935941 -2.460242331e-05 -145.3483327
-168.7818341 44.1283574 -213.7886107
-45.98394406 -2.460242331e-05 27.43005935
-12.82522406 55.2826294 -149.1503007
13.11813594 13.4599084 -40.37390665
1.103245939 24.0489764 -3.396030651
-202.3915641 -2.460242331e-05 -131.2616507
-45.24012406 57.3065644 -171.0779517
-57.09227406 -2.460242331e-05 -135.4032767
-146.8080241 -2.460242331e-05 -177.3472727
-196.2928541 -2.460242331e-05 -164.4705037
-70.76271406 -2.460242331e-05 36.79575035
-6.644094061 23.3408624 -149.1503007
-258.7598241 -1.468893602 -15.21214065
-108.9686841 -2.460242331e-05 -139.1159867
-88.32396406 33.1766054 -183.7912787
-209.8760441 150.1778064 -145.1503007
-60.87875406 -2.460242331e-05 139.8180683
-96.59261406 -2.460242331e-05 -59.74606665
-35.74346406 37.9849674 110.0062943
-255.3459441 21.8245404 -1.657093651
-158.8682041 10.7557474 -210.8632717
-88.28602406 -2.460242331e-05 118.4418213
-64.86295406 93.4567404 -145.1503007
-83.76745406 -2.460242331e-05 105.7751113
-168.3859241 0.9370403976 -213.6717847
-24.97341406 11.0311374 -145.2278527
-128.0079341 -2.460242331e-05 111.6311993
-215.6349941 -2.460242331e-05 -150.0268397
-132.2409041 -2.460242331e-05 20.43306135
-74.99467406 -2.460242331e-05 -10.73353965
-65.14644406 -2.460242331e-05 -83.67904365
-188.6948441 182.7524474 -148.7033187
-264.9529441 -2.460242331e-05 31.31433235
-173.1940841 62.6564954 -208.8350387
-50.28609406 -2.460242331e-05 -114.0488847
-134.5316441 -2.460242331e-05 -177.2496367
20.47691594 12.9991864 -63.02173865
-182.1135541 -0.9044516024 -99.23683965
-151.7095241 -2.460242331e-05 24.82758935
-134.4324241 -2.460242331e-05 51.83127035
-260.3459441 33.9861934 82.04762935
-15.00086406 6.600459398 -162.1548487
-42.00448406 -2.460242331e-05 38.44046235
-88.65255406 91.0982904 -149.1503007
-255.3459441 41.2724494 -18.50026465
-74.69292406 35.6875864 -179.7689827
19.34173594 32.4054864 -158.2766517
-23.87425406 2.848546398 73.47865435
-103.1727141 33.7068894 -194.4285127
-41.47179406 2.146857398 127.6378903
12.33277594 38.9313874 -37.95697265
-102.6432441 -2.460242331e-05 -37.26863265
-26.40685406 -2.460242331e-05 -12.68654465
0.5550559392 40.7287754 -157.5645567
-226.2016141 -2.460242331e-05 -57.30104965
-192.0558041 -2.460242331e-05 -126.2816987
-175.0827741 10.5848604 -209.3923587
-110.6457241 22.8960384 -196.6336667
-4.068454061 4.926066398 -145.1503007
38.48005594 28.1077764 -118.4298947
-74.56052406 -2.460242331e-05 -69.06634965
-150.9268941 42.6828924 -202.2643607
-168.4517741 29.7292994 -207.4356617
-28.24116406 -2.460242331e-05 56.63005735
-119.4479941 -2.460242331e-05 -187.3844817
-136.4331741 -2.460242331e-05 -158.0433007
-142.8298041 121.8302274 -149.1503007
-140.9143441 96.5050564 -145.1503007
-110.9950041 64.1961834 -148.5136067
41.00603594 5.772455398 -126.2030057
-255.3459441 47.0634414 45.07217235
27.16551594 -2.460242331e-05 -83.80524865
-81.92606406 -2.039929602 -181.9034487
-33.83044406 -2.460242331e-05 -137.3811117
34.69030594 10.9495034 -145.1503007
-186.8109541 164.1021404 -149.1503007
-169.8259641 159.9655844 -149.1503007
-219.1372741 -2.460242331e-05 -22.01610065
-211.5865241 -2.460242331e-05 37.67797035
-207.1033041 181.4701264 -149.1503007
-191.7604841 143.0783524 -145.1503007
-207.6844841 -2.460242331e-05 83.20518135
14.43329594 3.155411398 -44.42112465
-220.9054941 -2.460242331e-05 93.43228935
-4.623324061 35.6235064 -149.1503007
-181.3958841 -2.460242331e-05 77.52655335
40.24871594 48.6071714 -123.8736867
-111.3153941 98.7026584 -149.1503007
-178.2661241 126.1597684 -145.1503007
-43.63423406 49.9999754 134.6490363
-255.3459441 25.1089664 -25.01254865
25.94946594 48.5392734 -79.86507465
47.20552594 40.3765284 -142.3813897
-81.32445406 -2.460242331e-05 70.99872235
-81.73697406 104.2371954 -149.1503007
35.75372594 43.2601204 -145.1503007
-83.02158406 -2.460242331e-05 55.91383735
-89.65834406 18.8538494 -190.4406597
-93.73370406 110.4013034 -149.1503007
-159.1506741 108.4430734 -145.1503007
-8.289274061 -2.460242331e-05 -47.47610965
-136.2053441 113.1126064 -149.1503007
-9.702094061 17.6319734 29.85911635
-102.4887841 -2.460242331e-05 61.94415135
-255.3459441 7.173320398 26.88717635
-13.09848406 8.689244398 40.31299035
-138.1844541 -1.537450602 -204.7598617
-30.03032406 19.6868674 -166.5897937
-42.18799406 21.7273674 -176.4329947
20.52518594 42.2708454 -151.6717037
-62.75002406 41.7797984 -176.2448317
-260.3459441 13.5265004 16.94691435
23.33236594 -2.460242331e-05 -122.3085187
-155.2676041 152.3500594 -149.1503007
-260.3459441 37.3599724 62.62537535
22.16682594 46.9549514 -68.22325165
-53.66710406 35.0123774 -179.8202777
46.47605594 24.1542564 -142.6183917
-65.35585406 -2.460242331e-05 -147.4210407
-58.79381406 5.118554398 -175.0774217
-146.4454441 14.7002154 -207.1975347
-55.58460406 -2.460242331e-05 -98.06368865
-109.7727641 46.0610104 -196.3760697
-28.27902406 62.8110874 -166.0730127
-212.5801341 -2.460242331e-05 -41.94140265
-255.3459441 10.6941664 -3.623437651
-51.47540406 -2.460242331e-05 45.04177835
-54.88747406 -2.460242331e-05 -124.2794387
-174.2918741 145.3774834 -149.1503007
-106.2802641 7.309019398 -189.0898817
33.15622594 17.8300864 -154.2002397
-48.14982406 11.4381354 150.8496993
-22.97400406 -2.460242331e-05 -49.02443765
14.49690594 -2.460242331e-05 -71.54376965
-170.7812341 -2.460242331e-05 46.22208735
-239.9155841 -2.460242331e-05 77.40501335
-193.7483641 131.0509764 -149.1503007
-4.499564061 32.2882254 13.84774035
-255.3459441 23.7511734 20.85767035
-233.7059541 -2.460242331e-05 -46.45123265
7.098855939 53.4652334 -155.6335887
-64.47283406 35.4434824 -146.4529227
-135.3648341 54.4931134 -203.9278407
-100.1994041 -2.460242331e-05 -111.4726547
43.39312594 3.976672398 -151.1795107
-192.6619041 -2.460242331e-05 1.969564349
-78.53549406 -2.460242331e-05 -172.1602767
7.878525939 33.1984644 -161.6592457
-59.13082406 -2.460242331e-05 -164.2361187
-52.17499406 48.7624004 -145.1503007
-12.35599406 -2.460242331e-05 -28.93694565
-22.91774406 -2.460242331e-05 41.40839635
-106.4978941 -2.460242331e-05 9.076102349
-32.39228406 56.8591834 -149.1503007
-100.8341841 -2.460242331e-05 -166.4823297
-255.3459441 24.7699454 76.98845035
-162.4278941 -2.460242331e-05 68.53868535
-35.91407406 16.2708184 110.5309453
-258.7782741 -2.460242331e-05 66.92199435
-197.0762541 -2.460242331e-05 15.81691135
-93.97366406 -2.460242331e-05 34.75811335
-264.0376741 -2.460242331e-05 1.784182349
-46.48095406 87.2411004 -145.1503007
-71.06408406 57.5875184 -149.1503007
3.201835939 66.2878214 -163.0392517
-22.71823406 49.0258504 -164.4321177
-47.94143406 -2.460242331e-05 96.16786635
-87.27438406 -2.460242331e-05 15.42616935
-217.3437041 -2.460242331e-05 -73.51228765
-16.96102406 9.321692398 52.20051435
35.51687594 13.0757214 -109.3097977
-228.2447341 -2.460242331e-05 59.71828635
-44.54796406 24.7165214 137.1033973
-255.3459441 7.447625398 -19.04427165
-260.3459441 27.1719964 61.19694135
-119.3313541 -2.460242331e-05 86.58923235
22.80121594 35.1955494 -70.17546665
30.97124594 10.3524524 -95.31949565
-260.3459441 11.9697644 52.33066635
-56.04257406 24.3876054 -180.5212377
-21.60562406 30.9423984 -164.1038037
-172.4730641 53.6193404 -214.8778257
-53.27401406 68.9279604 -145.1503007
-259.9510441 49.9999754 69.19433335
-115.6730341 -2.460242331e-05 128.4716363
-14.03690406 45.1887074 -149.1503007
-183.2810341 -2.460242331e-05 28.90425435
-97.98348406 87.0946294 -149.1503007
-234.6910841 -2.460242331e-05 -25.99892565
-156.4521341 29.5269134 -203.8947677
-161.0364741 127.0694794 -149.1503007
-127.9249641 -2.460242331e-05 -152.6320417
-24.45344406 41.5757994 75.25940435
31.96234594 -2.460242331e-05 -128.2044607
-269.8768941 -2.460242331e-05 19.78033435
-62.08123406 67.9999754 -176.7284907
-1.798744061 14.7084014 -145.1503007
-6.885524061 -1.553573602 21.19215735
26.25312594 9.776587398 -80.79847465
27.18508594 25.8246154 -83.66748565
5.394455939 44.1170744 -145.1503007
-36.39047406 45.4779964 -174.7222467
-225.3885041 -2.460242331e-05 -81.38614965
-247.2858741 -2.460242331e-05 18.19820935
-9.115914061 36.6000954 28.05540435
-260.3459441 30.0765344 0.9618473488
-192.2365141 -2.460242331e-05 -103.9916557
-17.35387406 -2.460242331e-05 -126.1591347
-200.3332841 -2.460242331e-05 90.74254135
-14.36448406 45.7904514 44.20866035
-27.32527406 37.9359904 -149.1503007
-100.2273041 53.9986274 -187.3037557
-46.51876406 40.5651534 -145.1503007
-123.0616841 126.6978554 -145.1503007
-260.3459441 34.9204314 30.83325235
8.131185939 36.1807824 -25.02574565
10.65618594 59.0726254 -145.1503007
-35.20007406 -2.460242331e-05 -17.27963165
-134.4566941 90.1315504 -149.1503007
-106.9312141 17.1848394 -189.2819657
0.2599859392 3.807383398 -0.7991876512
-56.02494406 12.6894444 144.8496993
-188.4362441 -2.460242331e-05 -47.94886065
34.58404594 -2.460242331e-05 -144.1378937
-161.1893941 -2.460242331e-05 88.51293535
-165.1962341 -2.460242331e-05 11.70167735
-51.63983406 -2.460242331e-05 74.74155635
-183.1274641 22.4635894 -218.0217537
17.38600594 15.4949064 -152.5980217
-260.3459441 48.9856984 23.79484035
-184.5662641 -2.460242331e-05 7.531180349
-260.3459441 10.9232134 62.08907035
-163.7671441 -2.460242331e-05 -188.9336007
-113.1950441 -2.460242331e-05 109.0937923
-189.9826041 154.5349694 -145.1503007
-136.7574241 -2.460242331e-05 119.7940623
-229.3506841 -2.460242331e-05 28.26759435
-246.3268641 -2.460242331e-05 38.17630635
-55.96365406 49.6467924 -174.2422897
2.505385939 -2.460242331e-05 -99.92183565
-47.31639406 -2.460242331e-05 -41.91058265
-256.2188241 -2.460242331e-05 46.16458335
-202.0401641 -2.460242331e-05 -64.69347865
-181.0384441 -2.460242331e-05 -30.94169365
-156.0732841 -2.460242331e-05 -174.5503237
-80.71818406 16.0855154 -187.8025757
-115.9783341 63.0606774 -191.9516227
-211.7912441 -2.460242331e-05 20.41350935
39.61362594 -2.460242331e-05 -134.8459667
-65.99174406 -2.460242331e-05 106.4134413
-19.31629406 -2.460242331e-05 -1.582309651
-167.4425341 -2.460242331e-05 110.7554093
-63.40586406 44.5793064 144.8496993
-187.1863741 124.0321824 -149.1503007
-88.23685406 -2.460242331e-05 -134.0331537
-260.3459441 32.8667384 20.37321535
-190.3791541 -2.460242331e-05 -148.8333977
-184.6573941 67.9999754 -213.3708007
24.18072594 0.4940253976 -150.5930147
-6.616804061 9.251454398 -165.9365607
-22.81198406 -2.460242331e-05 -160.0709277
-199.1482841 -2.460242331e-05 67.81756635
19.70057594 49.9999754 -55.78094565
-135.1128441 -2.460242331e-05 -0.7108806512
-90.55945406 53.0521714 -149.1503007
-48.86554406 67.9999754 -173.5888127
-171.5479441 -2.460242331e-05 28.88839035
-23.56501406 29.8011304 -145.1503007
-148.5653641 -2.460242331e-05 -156.4602667
3.829515939 -2.460242331e-05 -77.32473765
-89.92267406 -2.460242331e-05 -84.26492165
36.26157594 20.7429114 -145.1503007
-90.09584406 -2.460242331e-05 -74.24154465
-145.8116741 -2.460242331e-05 -198.7881617
-103.1025941 -2.460242331e-05 -183.9726807
-80.23930406 -2.460242331e-05 -148.6964677
-118.9694141 84.3134444 -145.1503007
-148.3416541 103.6103604 -145.1503007
-81.40934406 44.7377704 -181.7508897
-130.0177941 -2.460242331e-05 37.61538735
-116.1282541 -2.460242331e-05 64.22497635
41.64711594 35.0809874 -151.6947287
-142.0089441 -2.460242331e-05 23.26897635
-32.16971406 37.0064444 -167.2210917
-14.91269406 31.6786644 45.89591035
-33.96314406 -2.460242331e-05 68.50078335
-192.7673241 -2.460242331e-05 -81.99940865
2.878235939 -2.460242331e-05 -41.41646365
-158.4498041 -2.460242331e-05 -159.1729557
-73.41660406 -2.460242331e-05 -34.43246865
-57.10724406 25.2208424 144.8496993
-9.567054061 26.9930704 29.44371335
3.062225939 22.7085264 -145.1503007
-51.49009406 -2.460242331e-05 -75.85636565
-129.4625941 -2.460242331e-05 -141.9912067
-180.6784941 107.2635834 -148.2064927
-44.00693406 68.0001494 -149.1503007
28.09826594 37.2055434 -145.1503007
-38.94384406 15.1743634 119.8555583
-80.19959406 85.3979294 -149.1503007
-119.0675241 104.7248694 -149.1503007
-179.1340641 -2.460242331e-05 55.00959435
-41.25492406 44.3069094 126.9688763
-205.6908641 129.1420194 -145.1503007
-126.8687641 -2.460242331e-05 -7.213980651
-16.95057406 -2.460242331e-05 22.63839535
-55.51024406 -2.460242331e-05 16.71537135
-193.8035141 -2.460242331e-05 -71.31589765
-32.32932406 21.4576004 99.49836535
-125.1858841 73.0621394 -149.1503007
-103.3676341 105.9099834 -145.1503007
-163.1144741 -2.460242331e-05 32.66757335
-25.33970406 26.6248964 77.98674035
-182.1089441 40.6218524 -217.7212057
-53.72521406 2.887602398 144.8496993
-225.4407541 -2.460242331e-05 1.078851349
-170.7751341 112.7256094 -149.1503007
-97.54190406 -2.460242331e-05 -102.6675207
-3.701394061 7.642128398 11.39203935
-255.3459441 27.2325934 29.34432935
-105.9015641 -2.460242331e-05 101.4183893
-78.31601406 -2.460242331e-05 -95.30772965
-30.50714406 -2.460242331e-05 95.68435235
40.95564594 21.3542284 -126.0488497
35.89831594 22.1024934 -110.4839767
-123.7284541 -2.065393602 -135.2244547
-12.41560406 47.7657164 -167.6476857
-252.2093841 -2.460242331e-05 -34.85172365
-85.36206406 -2.460242331e-05 -114.5583307
-33.78046406 44.4095334 -149.1503007
-84.06389406 -2.460242331e-05 80.66954735
-247.2714641 -2.460242331e-05 53.08806935
1.041825939 14.9697464 -3.207167651
-142.8367141 66.9586114 -206.1326607
-73.86348406 53.0015294 -185.7798747
-29.97567406 39.8614704 92.25499435
-57.11244406 99.6835894 -145.1503007
-191.3579241 29.9048794 -220.4504177
-80.07256406 -2.460242331e-05 -76.22126965
-90.68046406 67.9999754 -190.4843827
-213.1433741 189.6904744 -149.1503007
-43.37290406 33.8340314 -170.5269677
-160.9401141 59.2427474 -211.4746557
-111.6208841 119.7858974 -149.1503007
-81.36955406 -2.460242331e-05 -2.190951651
-118.3715141 26.8730704 -198.9134107
-158.4819941 118.5846844 -145.1503007
-146.4510141 24.2101214 -207.1991787
-260.3459441 3.424950398 75.07280435
-149.8563641 8.276050398 -201.9484637
-2.949934061 39.7114884 9.078401349
-260.3459441 42.8968824 82.92938735
13.44837594 40.2450524 -145.1503007
-97.41733406 -2.460242331e-05 -18.13172465
-62.58645406 -2.460242331e-05 96.30115035
-73.72215406 -0.9644676024 -185.7381697
-163.8851041 19.7320074 -206.0881117
-97.05184406 14.3818074 -192.6223527
-22.80946406 -2.460242331e-05 31.23835135
-38.45953406 6.205043398 -175.3327907
-11.05748406 29.8119594 -167.2469267
-209.6754241 137.0050674 -149.1503007
-94.80601406 32.0826094 -191.9596467
-165.7356041 -2.460242331e-05 -140.7367777
-72.55758406 100.8050984 -145.1503007
-66.94721406 84.9867204 -149.1503007
-213.4076341 -2.460242331e-05 -1.463220651
-260.3459441 27.8253034 47.65968135
-7.926794061 49.9295794 24.39539535
-258.3330641 -2.460242331e-05 8.687180349
-106.3419741 131.8548364 -145.6035487
-2.696404061 -2.460242331e-05 -58.42394265
-176.5403441 -0.4178286024 -118.6626927
-99.65614406 -2.460242331e-05 70.27960235
-82.25006406 64.0799904 -188.2546057
-158.1166941 138.0584424 -149.1503007
18.68050594 66.1591504 -158.4717687
-33.66653406 26.8960304 -145.1503007
-260.3459441 40.6744124 -7.530520651
-70.86044406 63.8248334 144.8496993
-132.2538641 9.977321398 -196.7542607
-175.6097441 36.1568164 -209.5478607
-230.5194141 -2.460242331e-05 -104.0707177
-188.8007541 35.9035174 -213.4403077
-184.3931741 145.6099794 -149.1503007
-38.01930406 -2.460242331e-05 -124.4192027
-97.76477406 -2.460242331e-05 -176.7502557
35.72427594 67.9999754 -148.1644157
-73.26322406 -2.460242331e-05 -55.43841465
-259.7249441 49.9999754 -1.693658651
-38.28786406 40.8782244 117.8371733
-10.72824406 60.6593664 -167.1497767
-17.14264406 48.9834064 52.75892835
-28.18925406 14.2400144 86.75652735
-180.0817641 -2.460242331e-05 -190.0706847
-184.1317941 173.6391654 -149.1503007
6.175465939 2.189300398 -19.00548365
27.27351594 26.0697254 -149.6803837
-167.3574141 168.9090704 -145.1503007
-95.97544406 -2.460242331e-05 -146.6191627
-57.11983406 -2.460242331e-05 113.3791403
-130.4414741 62.0648444 -196.2194527
-32.54228406 -2.460242331e-05 -67.10753465
-152.7649841 -2.460242331e-05 57.47221535
34.22984594 48.3032034 -105.3494887
-141.4178641 148.4397344 -145.1503007
12.96637594 38.2308654 -153.9021827
28.03171594 46.0868004 -149.4566507
-260.3459441 21.0880704 71.00187835
-198.1562941 -2.460242331e-05 -152.5536187
-255.3459441 17.8783304 63.03068935
-260.3459441 38.2960434 6.967284349
-24.24898406 -2.460242331e-05 -135.5541027
-163.7907141 50.9767034 -212.3158177
-111.0899541 -1.229431602 -38.24496665
5.826815939 19.4851414 -156.0089487
-34.29627406 48.6189784 105.5524083
-4.637974061 18.2972234 14.27345335
-19.41731406 37.3400634 59.75978735
-103.1366441 -2.460242331e-05 -26.70814565
-148.0095441 -2.368606602 -147.9221367
-178.2764741 -2.460242331e-05 -138.3991887
-33.57403406 -2.460242331e-05 43.29234135
-97.35435406 -2.460242331e-05 98.12582335
-177.4739941 -2.460242331e-05 -177.6863917
-80.84822406 29.3087144 -187.8409477
-196.7250441 -2.460242331e-05 -52.76537565
-176.7851041 -2.460242331e-05 -11.11065865
-124.0903341 31.9312864 -194.3453367
-242.1627541 -2.460242331e-05 -42.51568165
-41.28150406 -2.460242331e-05 -158.0116327
-93.29946406 2.636434398 -185.2594627
-99.56839406 126.7198434 -145.1503007
-219.0744141 -2.460242331e-05 -91.51916165
-147.3151941 -2.460242331e-05 98.91342635
-13.61063406 -2.460242331e-05 4.716541349
-60.93015406 -2.460242331e-05 -116.1970617
-70.71393406 -2.460242331e-05 4.554920349
37.77733594 37.3562144 -116.2673157
-53.36256406 -2.460242331e-05 135.9133073
-90.43339406 -2.460242331e-05 -53.94129265
-78.78226406 75.2897294 -149.1503007
-262.6139941 -2.460242331e-05 40.17483435
-205.0845541 192.8418314 -145.1503007
-246.7499841 -2.460242331e-05 -0.9580786512
-242.7141241 -2.460242331e-05 -23.37266965
-31.40598406 4.699659398 -166.9957267
2.013865939 35.2183704 -6.198553651
-46.34005406 49.4544874 142.6193423
-193.5829441 9.971569398 -221.1069817
-94.21786406 38.9394394 -185.5304697
30.64532594 0.5689593976 -94.31621065
-34.56561406 5.743083398 106.3827763
2.509975939 -2.460242331e-05 -119.7514717
-99.19290406 64.4234834 -193.2541407
-255.3459441 20.4040064 -18.05082665
-255.3459441 8.886504398 12.04301735
-102.5291441 65.6104574 -145.1503007
-107.6018641 -0.04598960242 -89.75476865
-131.9431141 40.1476894 -202.9181527
-67.22172406 -2.460242331e-05 -13.89255665
-119.6965041 61.4774974 -199.3043917
-233.1859341 -2.460242331e-05 -6.811260651
-119.6831241 -2.460242331e-05 52.23185935
-6.715284061 65.1545164 -149.1503007
30.20359594 42.2924924 -92.95781765
-154.7187641 43.7528934 -209.6388447
-17.17780406 26.1822584 -149.1503007
-21.72572406 -2.460242331e-05 -98.76505665
-110.4149841 -2.460242331e-05 -130.8952717
-135.4699441 -2.460242331e-05 12.73954435
-71.99660406 -2.460242331e-05 -78.92212665
-79.07700406 -2.460242331e-05 116.9599953
43.39651594 39.7538514 -133.5614267
-61.32483406 48.0568634 -182.0799397
-154.4074541 60.2557794 -203.2914147
-56.18875406 48.7177054 144.8496993
-77.87994406 -2.460242331e-05 -131.3991977
-101.6971641 94.5312204 -149.1503007
-260.3459441 40.8044624 14.88291735
-64.54636406 -2.460242331e-05 58.23879835
-31.75093406 27.7861564 -167.0975167
-32.66056406 -2.460242331e-05 -3.245870651
-118.4314741 8.650150398 -192.6755027
2.791905939 -2.460242331e-05 -145.6499567
-53.33001406 67.9999754 149.1631813
-116.4554541 -2.460242331e-05 -165.7965317
43.23636594 60.7666224 -144.9700107
-141.3904641 108.0666514 -145.1503007
-55.93653406 42.5977834 -149.1503007
-127.0008041 -2.460242331e-05 -184.0644547
11.78055594 6.440910398 -36.25611665
-77.59368406 -2.460242331e-05 -111.8130897
-96.23861406 -2.460242331e-05 21.64305335
-98.89405406 6.371875398 -193.1659537
-20.62525406 22.4427244 63.47712835
23.93708594 13.1650124 -73.67102765
28.33991594 53.8291864 -155.6214497
-58.19876406 90.7860994 -149.1503007
-15.39056406 22.6257874 47.36647135
-47.52208406 53.5353204 -178.0069897
-128.6328541 -2.460242331e-05 29.31038535
-35.91694406 79.0786944 -149.1503007
-210.4935441 -2.460242331e-05 64.32874635
22.44231594 52.2606114 -147.6155467
-93.27522406 -2.460242331e-05 134.9336203
10.80321594 1.411880398 -160.7962187
-184.3347441 16.9488424 -212.1224607
-195.7549941 -2.460242331e-05 99.50550135
-104.4576341 -2.460242331e-05 -57.60413565
45.16741594 24.0643464 -150.6559477
-178.2348841 162.3976894 -149.1503007
38.14403594 57.4651244 -152.7284247
-143.8451841 -2.460242331e-05 70.30152535
-17.01277406 38.9778734 -162.7485317
-144.7549241 -2.460242331e-05 4.135239349
16.61109594 39.4958914 -51.12432465
15.11684594 49.1684564 -153.2676127
6.017645939 26.8802704 -18.52087865
-46.35673406 -2.460242331e-05 112.5218573
-87.98476406 60.6407894 -183.6911857
-114.0871841 -2.460242331e-05 44.54260335
-35.06261406 -2.460242331e-05 -28.29172465
-170.6077741 152.9853054 -145.1503007
-260.3459441 25.9832554 83.21490335
-54.66280406 -2.460242331e-05 -62.05016265
16.95000594 3.053677398 -52.16679065
13.27095594 29.5174924 -153.8123057
-98.62393406 -2.460242331e-05 -129.5314207
-46.49784406 40.0427734 -177.7047557
-125.4326841 -2.460242331e-05 101.5739903
-144.1959441 134.2192624 -145.1503007
-120.5386741 120.1818504 -149.1503007
-96.36992406 -2.460242331e-05 56.11558235
48.18851594 12.8323904 -143.5317327
-45.96838406 -2.460242331e-05 52.46449435
-3.127484061 25.5923604 9.624815349
-186.6017641 -2.460242331e-05 42.51345435
-93.81807406 -2.460242331e-05 -39.50253265
-233.6796141 -2.460242331e-05 -79.16066565
-260.3459441 6.326476398 -12.87673765
-68.14455406 28.2834594 -184.0923197
-129.8175641 131.5027314 -149.1503007
35.87637594 46.6161074 -153.3975727
-41.66231406 -2.460242331e-05 84.16286235
-56.36790406 -2.460242331e-05 -23.52704865
-11.23077406 41.9604274 34.56416235
-65.18577406 71.7427184 -145.1503007
-42.28042406 -2.460242331e-05 20.37584035
-116.6135641 -2.460242331e-05 -153.1667917
-109.7112441 35.1097154 -190.1023087
-166.4377141 9.696958398 -213.0969017
-210.5152941 158.6068814 -145.1503007
7.264465939 18.2742514 -22.35834965
-255.3459441 44.2941734 62.74896035
-149.6561941 51.5908684 -201.8893977
7.830585939 -2.460242331e-05 -94.01602965
-119.1686741 15.1266774 -199.1486407
-27.66990406 67.9030304 -172.1489617
-185.2175741 27.6613364 -212.3829717
-260.3459441 24.7216764 37.95290535
-37.72784406 61.3513204 -145.1503007
-140.9475741 48.7863554 -199.3196297
-21.73276406 10.2940154 -164.1413207
-255.3459441 22.1656434 10.33394635
-5.567974061 -2.460242331e-05 -118.8988177
-272.6422541 -2.460242331e-05 63.47035535
-111.6005741 -2.460242331e-05 -186.3575177
-7.785114061 -2.460242331e-05 -14.85133165
28.26557594 6.354304398 -145.1503007
-26.17113406 9.797581398 80.54613735
-179.7397741 -2.460242331e-05 99.45019135
-120.5267441 36.9725664 -199.5493817
-72.07010406 6.724548398 -185.2506777
-54.72722406 20.3620424 -173.8774377
-198.5392241 161.7194534 -145.1503007
-229.6276241 -2.460242331e-05 7.732937349
-255.3459441 6.180793398 -31.14918065
-33.12044406 -2.460242331e-05 18.24987635
-86.68642406 99.6342004 -145.1503007
-88.07380406 27.1158514 -189.9730897
13.62030594 21.1267814 -41.91946265
-20.56360406 58.0257894 -170.0520167
-34.47988406 -2.460242331e-05 88.93903335
-95.21723406 44.3984794 -192.0809917
-46.43884406 31.2781994 150.8496993
-208.8033041 -2.460242331e-05 -22.04504665
-124.5596241 -2.460242331e-05 92.53582735
-199.2605041 -2.460242331e-05 -122.7754917
-193.6709741 -2.460242331e-05 24.27659535
4.466625939 8.517009398 -13.74658465
16.84297594 19.7940644 -51.83780765
-118.6460541 -2.460242331e-05 38.12423535
-255.3459441 12.7563974 78.38184335
-124.4077641 -2.460242331e-05 -173.6582577
-92.86653406 71.1340104 -149.1503007
-178.8485241 -2.460242331e-05 22.50542835
-61.79866406 4.411224398 -182.2197587
-140.5774641 31.1299874 -199.2104167
-197.0294641 -2.460242331e-05 -174.3711877
-81.72482406 61.9643694 -145.1503007
-108.0765041 3.437340398 -195.8755337
-261.5005941 -2.460242331e-05 52.18241235
-67.93574406 46.0942434 -145.1503007
-151.6434641 124.6616244 -145.1503007
-182.1265841 -2.460242331e-05 90.07981735
-1.182504061 -2.350165602 3.640230349
4.386025939 61.5435494 -156.4341017
-260.3459441 9.439714398 38.44604635
10.92405594 57.7930724 -160.7605627
-247.3315241 -2.460242331e-05 79.53475035
12.11887594 30.4811404 -37.29850765
-53.66818406 -2.460242331e-05 26.81216835
13.02618594 46.3023464 -40.09121265
-206.1462541 -2.460242331e-05 6.464045349
-25.37952406 -2.460242331e-05 80.46210935
-68.93935406 55.3088194 -178.0712007
-13.22601406 -2.460242331e-05 -145.0792647
-77.83747406 -2.460242331e-05 -45.12324365
-85.02058406 55.5929104 -189.0721377
-95.33491406 11.1898954 -185.8600917
-38.49890406 62.3670964 -169.0887297
-52.68096406 -2.460242331e-05 -7.865780651
-106.5552241 -2.460242331e-05 125.0034073
-167.9259741 -2.460242331e-05 2.790853349
-1.201634061 49.2780294 -164.3386387
31.52737594 -2.460242331e-05 -118.0884527
-178.0664741 138.4335994 -145.1503007
-164.3996541 46.0633044 -206.2399467
-59.21136406 12.7078294 -175.2006327
-232.3156541 -2.460242331e-05 77.49254035
-49.78157406 -2.460242331e-05 -56.22518965
-42.25290406 13.8635504 -176.4521477
-255.3459441 33.7099364 -19.10273965
3.990715939 51.5708844 -145.1503007
-114.3633141 79.2746304 -149.1503007
-207.8273241 -2.460242331e-05 -173.7815497
-84.60843406 -2.460242331e-05 -99.70830865
7.668775939 14.7714504 -149.1503007
-51.54242406 4.930566398 -172.9376577
-20.72623406 56.4649684 -149.1503007
-75.33393406 21.2588704 -186.2137777
-45.60384406 -2.460242331e-05 -14.36244965
-33.48503406 17.0754594 -149.1503007
18.58538594 -2.460242331e-05 -87.82509465
-121.5860841 98.8499204 -145.1503007
-102.2319841 82.3252004 -145.1503007
-93.50901406 51.7175734 -191.5769237
23.67306594 46.9499534 -156.9985547
-58.49702406 38.8786944 144.8496993
19.40053594 -2.460242331e-05 -129.7780037
-3.036744061 34.3539334 -164.8801497
-188.8776041 59.0262904 -219.7185187
-162.6558441 157.7244854 -149.1503007
-42.02234406 -2.460242331e-05 -58.29041465
-15.61151406 -2.460242331e-05 -45.81948965
18.81532594 8.705903398 -158.4319857
-259.1000541 49.9999754 -17.14558965
-68.06668406 -2.460242331e-05 91.18935535
-45.63966406 32.0912734 -177.4515197
-26.27644406 -2.229504602 -171.7377757
-81.30991406 -2.460242331e-05 -156.1057107
-255.3459441 40.4311264 41.60352735
-163.7562741 -2.481086602 -6.802725651
-74.45435406 108.0414724 -145.1503007
-214.9076341 -2.460242331e-05 74.08835435
-110.6450941 -2.460242331e-05 -146.4049687
1.418715939 46.3143144 -4.367085651
-203.5583841 -2.460242331e-05 -166.2264177
-23.62314406 10.2745924 72.70419035
-192.4209341 -2.460242331e-05 -25.75963365
-76.96502406 -2.460242331e-05 -61.90977965
-10.80147406 9.251113398 33.24345835
-96.14208406 65.4514524 -186.0982747
-82.30492406 -2.460242331e-05 98.46666835
-233.8669941 -2.460242331e-05 -39.00408265
-128.9492441 51.2514254 -202.0347147
-276.3370641 -2.460242331e-05 69.90009235
-143.7206241 141.3963804 -149.1503007
-260.3459441 22.7049154 -7.048375651
-114.4002441 -2.460242331e-05 26.41144235
36.04698594 5.877711398 -110.9410077
-41.16459406 24.6392974 126.6904843
-255.3459441 8.138043398 48.45433935
-86.19151406 118.0447414 -149.1503007
-69.38764406 23.9982424 -178.2034847
-165.1430541 -2.460242331e-05 41.45193535
-134.0888041 -2.335562602 -197.2957327
-255.3459441 37.2906064 -3.284689651
-255.3459441 45.8319254 54.19491635
-88.90963406 22.2970514 -183.9640977
12.39607594 -2.460242331e-05 -126.7246607
-54.82033406 -2.460242331e-05 -157.1148117
-28.91330406 59.2930964 -172.5158667
-111.8447441 -2.460242331e-05 -2.417297651
-127.5712141 -2.460242331e-05 54.46739235
32.67478594 26.7187564 -100.5630637
-256.7792741 -2.460242331e-05 27.53196235
-183.2226641 52.7569554 -218.0498467
-174.7142541 119.7411144 -145.1503007
-45.31869406 34.5360704 -149.1503007
-43.33244406 12.1281804 134.4764233
-255.3459441 49.6292214 36.22513335
-2.336374061 41.3171374 -145.1503007
-45.03939406 -1.309079602 -171.0188597
-9.510834061 -2.460242331e-05 -65.51998065
4.414035939 -2.460242331e-05 -28.65177365
-92.12214406 54.7388034 -184.9120557
-133.6111841 96.4217764 -145.1503007
-6.355914061 -2.460242331e-05 -150.0231837
-167.5474441 130.3626154 -149.1503007
-49.14691406 27.6826104 144.8496993
-106.6933141 61.6042554 -189.2117657
-103.4548841 -2.460242331e-05 85.23878235
-217.0961741 -2.460242331e-05 -13.28297265
-108.5756241 48.8447164 -189.7672047
-255.3459441 25.0280894 66.01644135
-20.48711406 21.0963154 -145.1503007
-139.9508241 -2.460242331e-05 -182.0876627
-68.09082406 -2.460242331e-05 66.34515235
-96.61299406 119.6531734 -149.1503007
-58.86092406 -2.460242331e-05 83.24214435
-95.77456406 18.4195484 -185.9898237
-221.3720841 -2.460242331e-05 -62.69685565
-10.59451406 -2.460242331e-05 39.33825535
-95.56471406 93.2051764 -145.1503007
-122.5536441 -2.460242331e-05 67.54769535
3.961605939 24.0435384 -12.19312465
-126.9057941 81.5440044 -149.1503007
-75.93910406 46.1026464 -186.3923517
-255.3459441 44.9328104 71.50777535
-154.0233541 -2.460242331e-05 13.69132435
30.01765594 25.1147724 -92.38522965
-71.08446406 -2.460242331e-05 -4.657738651
-99.63606406 -2.460242331e-05 -67.82813865
-212.3506841 144.4258954 -149.1503007
-39.59840406 42.6122714 -145.1503007
5.928245939 49.1736154 -18.24605165
-6.517494061 16.6703214 -165.9072567
-255.3459441 38.7605824 79.79718135
-200.9790041 -2.460242331e-05 -140.2605307
-169.4902041 -2.460242331e-05 -178.2158057
-9.007704061 -2.460242331e-05 -130.1997387
15.84095594 -2.460242331e-05 -98.21702365
-74.18923406 -2.460242331e-05 -152.5818337
-24.32673406 50.9752064 -171.1624507
-192.4616641 -2.460242331e-05 -202.6344657
15.30988594 12.5472974 -145.1503007
-260.3459441 6.673172398 19.93983135
-57.08433406 73.4913444 -149.1503007
-44.16834406 56.3854654 -149.1503007
-21.00637406 61.7367974 -163.9269757
-136.2272041 141.8174834 -145.1503007
-40.71505406 30.1545174 -145.1503007
-83.74607406 -0.7507206024 -188.6960537
-166.6781341 2.493310398 -206.9122887
-131.7951541 -2.460242331e-05 104.8217433
-192.9150941 159.8933414 -149.1503007
-45.30194406 34.0653584 139.4240733
-255.3459441 44.7681674 30.20521635
-71.43348406 67.0652804 -178.8071777
-45.57044406 8.594531398 144.8496993
-33.85862406 26.5718274 104.2051703
4.968275939 8.479834398 -156.2622887
3.221325939 30.9469994 -156.7777847
-260.3459441 40.3358454 55.93879735
-152.4464641 158.5003494 -145.1503007
33.81028594 41.3286424 -104.0580607
-77.29232406 -2.460242331e-05 13.36144135
-29.23584406 46.5375884 89.97803635
-82.88616406 -2.460242331e-05 -17.17404365
-114.2924941 66.8381554 -197.7097627
-193.3349441 -2.460242331e-05 -95.16758765
-228.9487941 -2.460242331e-05 21.19516635
-121.8404341 -2.460242331e-05 60.03636435
-172.2955241 -2.035467602 -208.5698487
-59.87578406 18.5418134 -181.6523507
-181.6537841 6.698289398 -211.3313547
-64.01020406 58.1763874 -149.1503007
28.94292594 36.5096524 -89.07776565
-178.6471141 25.8875174 -210.4441377
-201.2303541 145.5394884 -149.1503007
2.264615939 6.601876398 -6.969210651
-190.1058641 117.1738704 -149.1503007
-218.4917641 -2.460242331e-05 36.21635235
-201.9384541 -2.460242331e-05 34.75360735
-47.21392406 41.4811334 144.8496993
-120.1496841 -2.460242331e-05 106.2392753
-154.7751841 93.3818114 -145.1503007
-146.6726141 28.0888234 -201.0089947
6.661305939 -2.460242331e-05 -85.87002265
-6.119784061 6.361537398 -159.5341917
-55.22215406 38.6909494 -174.0234847
-120.7393641 48.5592644 -193.3565217
-129.5253541 87.1004924 -145.1503007
-153.8820841 6.016533398 -209.3919547
42.93205594 29.0683884 -132.1317737
-90.95152406 -2.460242331e-05 -160.5293457
-151.2027141 -2.460242331e-05 42.47140735
-60.39248406 35.3365914 -181.8048187
-51.20508406 18.1707014 144.8496993
-145.8398441 -2.460242331e-05 88.16132435
-29.53121406 -2.460242331e-05 -81.47334565
-64.03784406 -2.460242331e-05 -66.20501665
-169.3427041 -2.460242331e-05 104.0187963
-260.3459441 8.991273398 31.46399735
-103.9312541 40.6564874 -194.6523447
-26.91951406 79.7964924 -149.1503007
-90.28210406 60.0390714 -149.1503007
-178.7587441 -2.460242331e-05 -168.8551897
-34.09249406 25.1653664 -174.0441537
21.41016594 6.705702398 -65.89349065
-255.3459441 3.445582398 3.403703349
-193.6954741 125.3329404 -145.1503007
-17.81364406 -2.460242331e-05 -73.08681465
6.649355939 50.7058814 -162.0219497
-154.2342641 26.0171084 -209.4958777
-214.6823141 154.7073194 -149.1503007
-100.5877541 20.2959714 -193.6657367
-65.26592406 -2.460242331e-05 -52.48277465
-166.9290441 13.0013674 -206.9863287
-194.3144741 -2.460242331e-05 49.28829835
-51.96332406 85.6997484 -149.1503007
-19.71972406 7.784128398 -148.4238567
-39.49571406 -2.460242331e-05 -65.39283565
-241.4258941 -2.460242331e-05 84.19075135
-208.0558941 175.8657874 -145.1503007
-260.3459441 38.2289174 70.05958635
-56.47078406 62.6399524 -145.1503007
-21.33159406 7.190843398 65.65205835
-23.62641406 43.8114764 -149.1503007
-194.4382941 -2.460242331e-05 -34.93566565
-89.07463406 -2.460242331e-05 -45.19178065
-75.27098406 52.3712034 -145.1503007
-42.25749406 81.8829354 -149.1503007
22.21608594 43.9045294 -145.1503007
-255.3459441 7.647714398 83.06098735
-118.5742941 134.8623594 -149.1503007
-19.15492406 40.0627294 -145.1503007
-144.9228841 7.715835398 -206.7482547
24.53533594 14.8048984 -150.4883757
43.71923594 51.3282474 -144.8275237
-18.91144406 -2.460242331e-05 -113.0898337
13.23590594 22.4396294 -153.8226497
35.79811594 60.7447754 -147.1649167
42.33304594 47.2981014 -130.2885737
-140.4091541 11.9725304 -199.1607517
-28.55578406 -2.460242331e-05 12.51489135
32.19083594 36.8701724 -99.07381165
-21.18272406 15.5618304 -149.1503007
-8.705684061 -2.460242331e-05 27.62236635
16.58873594 27.1074384 -51.05524565
-178.2362741 -2.460242331e-05 -150.0978617
-197.8887941 177.4575354 -145.1503007
-60.59520406 4.641589398 144.8496993
-7.477614061 12.1314714 -149.1503007
-62.88871406 -2.460242331e-05 -101.4298767
39.31319594 42.0574464 -120.9943127
1.174445939 -2.460242331e-05 -132.5380417
-130.0699641 138.0681214 -145.1503007
-65.52636406 59.5598844 144.8496993
-28.57505406 64.9422344 -149.1503007
-3.004534061 60.1558604 -158.6149307
34.47570594 37.0027714 -147.5551377
-202.4018841 -2.460242331e-05 -57.88564465
-165.3085441 -2.460242331e-05 -168.4730577
-204.0533541 156.0943714 -149.1503007
43.55047594 35.2194264 -144.8773227
-156.7933141 -2.460242331e-05 29.33726335
-212.4188841 -2.460242331e-05 -68.83000865
-151.1730641 -2.460242331e-05 118.1384353
-218.6458841 -2.460242331e-05 -103.0958767
-196.0773441 116.7807354 -145.7411347
-22.71576406 18.7424794 69.91094635
12.34641594 4.446344398 -145.1503007
-211.6449841 -2.460242331e-05 92.08618635
-167.5218941 53.3181344 -207.1612687
-255.3459441 24.1042244 42.48830435
-185.0870841 -2.460242331e-05 -79.50111165
-10.00228406 -2.460242331e-05 15.37837135
-167.5499641 32.7689484 -213.4251087
-210.8723241 -2.460242331e-05 13.70168535
-10.64042406 14.2811324 -160.8681557
-229.0584841 -2.460242331e-05 83.88475335
-138.4656341 41.9124344 -198.5872507
-114.3652341 20.6030864 -191.4756227
-189.1031041 42.6556224 -213.5295237
-153.9024041 3.003651398 -203.1423837
31.85825594 25.3426314 -154.5832467
-112.0348541 -2.460242331e-05 5.214216349
-99.48483406 -2.460242331e-05 -92.83901465
-49.58596406 -2.460242331e-05 -21.30304965
-91.72225406 -2.460242331e-05 51.23080435
-21.49667406 43.6668734 66.15935335
-163.3985941 -2.460242331e-05 79.14073635
-28.91558406 31.7124314 88.99220235
-18.17152406 31.9551234 55.92552535
-85.61763406 48.5118794 -145.3458427
20.21140594 24.1172534 -151.7642957
-3.590794061 63.1028274 -165.0436377
-8.882724061 43.2784934 27.33758835
-172.9810941 18.0359674 -208.7721877
-165.2341941 -2.460242331e-05 -147.4327767
-26.99454406 22.5739294 83.07970435
-139.6713441 129.0520264 -145.1503007
-222.9475041 -2.460242331e-05 -69.21741765
-122.5402141 64.2267314 -193.8879237
-65.34885406 -2.460242331e-05 40.75390235
-53.48305406 54.6228124 150.8496993
-255.3459441 29.5198684 -7.114060651
-187.8051241 -2.460242331e-05 -162.1135507
-27.50162406 59.0478374 -145.1503007
-260.3459441 14.3472394 -1.104156651
-38.34929406 8.773808398 118.0270473
-36.59684406 44.7107574 112.6328463
-84.13830406 112.3597204 -145.1503007
-255.3459441 14.9365854 21.14373235
-42.91229406 62.9052774 -176.6467207
13.80773594 15.7326234 -159.9096377
-82.53962406 79.0573624 -145.1503007
-145.6038841 39.0164214 -200.6936297
-110.4118141 -2.460242331e-05 91.92308635
-255.6802141 49.9999754 4.800371349
-4.774324061 -2.460242331e-05 -108.0907607
-16.37944406 49.9345034 -145.1503007
-45.22026406 10.2498784 -171.0720927
-207.6318441 186.7227414 -145.1503007
-62.75035406 -1.196561602 -176.2449307
-107.1880041 -2.460242331e-05 -118.8612397
-245.2367841 -2.460242331e-05 46.79315335
-44.09902406 27.1112354 -170.7412327
-131.4719841 38.5264674 -196.5235387
-57.68442406 -2.460242331e-05 8.242024349
-116.3898341 -2.460242331e-05 71.17337035
-98.79302406 33.4725544 -186.8805237
-62.80657406 -2.460242331e-05 -38.93488765
-207.7563641 -2.460242331e-05 -80.49470965
-191.2143941 -2.460242331e-05 -88.41159965
-260.3459441 49.7340044 52.09491735
-166.0336741 -2.460242331e-05 -197.1346427
-260.3459441 31.2169434 75.01032435
-28.39970406 -2.460242331e-05 -52.92258065
-14.68774406 64.4995714 -145.1503007
-66.75032406 61.8300104 -177.4252547
-44.81025406 -2.460242331e-05 118.9237983
38.96907594 5.695099398 -119.9339187
-4.927414061 43.9874324 -159.1823427
-208.6630341 170.3404714 -149.1503007
-106.8577841 95.2978574 -145.1503007
-40.79448406 37.5519544 125.5516573
-187.3831941 -2.460242331e-05 -179.8852967
-8.458154061 58.1280554 -145.1503007
-140.9738841 55.3538704 -199.3273917
-40.58618406 44.8858004 -169.7046517
-52.85098406 -2.460242331e-05 68.28759235
-182.8159841 38.1639404 -211.6743017
-98.23493406 37.7810114 -192.9714597
-133.2800641 -2.460242331e-05 45.37075635
25.47696594 29.3501624 -78.41048765
-195.5897741 -2.460242331e-05 -3.895133651
22.76768594 32.0061974 -151.0099787
-162.5070941 -2.460242331e-05 106.4599003
-69.42548406 106.8096524 -149.1503007
-12.57391406 67.9999754 -164.8487687
-227.3247741 -2.460242331e-05 -38.68266365
-117.9297541 -2.460242331e-05 -172.7656757
-50.55509406 -2.460242331e-05 -129.1727957
-96.01600406 -2.460242331e-05 -154.6091847
-260.3459441 34.9018034 48.44319835
-50.97878406 -2.460242331e-05 -168.6417717
-239.8726241 -2.460242331e-05 42.37226135
-187.8550241 -2.460242331e-05 76.58022535
-99.06086406 110.8145884 -145.1503007
-38.51074406 89.9322234 -145.8510517
-181.1840341 58.9208044 -211.1927397
-66.33854406 -2.460242331e-05 -112.5670167
-38.46762406 -2.460242331e-05 14.53612635
-176.8927641 -2.460242331e-05 61.12162435
-67.30673406 62.6861654 -145.1503007
-42.71093406 -2.460242331e-05 -164.3546957
38.83536594 28.3081934 -149.1503007
-114.9013041 -2.460242331e-05 -15.95769065
5.597975939 18.0334944 -162.3321947
-18.48799406 5.116981398 56.90072335
-32.05883406 -2.460242331e-05 104.7326533
-35.81773406 -2.460242331e-05 -110.2043607
-109.1380041 73.9769774 -149.1503007
-260.3459441 26.3173534 25.33380735
-59.41372406 -2.460242331e-05 65.09730835
-15.58623406 14.0180794 47.96861135
-50.81029406 -2.460242331e-05 -104.4178007
-24.56105406 70.4037534 -149.1503007
-145.0680041 -2.460242331e-05 77.11490435
-255.3459441 30.0822474 23.36371835
-40.50634406 35.8839844 -175.9367677
6.394875939 -2.460242331e-05 -55.81584565
-92.92727406 86.9169514 -145.1503007
-28.90229406 -2.460242331e-05 -99.03097665
-18.90617406 -2.460242331e-05 -139.1610537
-211.6105541 -2.460242331e-05 28.82158935
28.13114594 0.4877013976 -155.6830527
-193.5547241 -2.460242331e-05 82.48767535
-47.09495406 -2.460242331e-05 -80.56426365
-74.57708406 -2.460242331e-05 30.97576535
-46.53471406 -2.460242331e-05 89.88641235
-118.6671541 15.5110194 -192.7450477
39.48449594 4.258500398 -146.0771257
46.13004594 58.8409304 -150.3718947
-63.14775406 65.6693764 -182.6178517
-77.06621406 -2.460242331e-05 -29.14988465
-63.87906406 40.6264014 -182.8336477
-70.76434406 40.6272214 -178.6097267
-165.4876241 151.0559884 -149.1503007
-18.21902406 49.9999754 62.90250535
-139.5599841 90.2386224 -145.1503007
-22.82454406 -2.460242331e-05 -20.75102365
-203.1865441 -2.460242331e-05 78.65163335
-11.02307406 -2.460242331e-05 -41.35886265
-255.7528041 -2.460242331e-05 61.28897835
-61.19182406 -2.460242331e-05 -16.00604765
-82.57540406 67.3326154 -149.1503007
-65.86850406 4.292477398 -177.1650447
-199.6040741 169.8534134 -145.1503007
11.57271594 17.4159354 -35.61774565
-183.5248641 160.1546254 -145.1503007
-241.5981741 -2.460242331e-05 5.198566349
-132.4687441 49.4283514 -196.8176677
-200.2526841 -2.460242331e-05 -91.29459165
-255.3459441 17.9259224 4.578549349
-179.2402741 149.0292424 -145.1503007
9.215735939 19.0319654 -28.36369565
-191.0222341 136.7937814 -149.1503007
-198.8354841 -2.460242331e-05 28.05818635
-51.52376406 79.1835414 -145.1503007
-181.5535041 5.433681398 -217.5573047
-80.73644406 41.8903764 -187.8079627
-283.5429441 -2.460242331e-05 62.66314535
-249.6186341 -2.460242331e-05 -27.82123865
-225.4489041 -2.460242331e-05 76.07276435
45.46616594 29.8082754 -139.9309917
-143.3680741 5.710142398 -200.0338797
-255.3459441 3.718910398 71.19824035
-30.66874406 52.9692564 -173.0338657
-44.16206406 46.3442064 -177.0155077
-158.7591941 144.2830014 -145.1503007
-11.92767406 18.4029154 -149.1503007
-127.3190541 108.3390604 -149.1503007
-11.05357406 62.0420844 -160.9900707
-46.16127406 62.2802284 144.8496993
-12.66637406 6.285695398 -145.1503007
-196.0852041 -2.460242331e-05 -133.9832337
-86.84205406 1.627141398 -183.3539907
-57.20171406 60.6805424 144.8496993
-6.498794061 28.1989404 -145.1503007
-0.9135740608 30.5389444 -149.1503007
-255.3459441 45.8109274 15.92978735
-61.51967406 57.6519474 -182.1374347
-116.4765941 41.6352694 -198.3542527
-194.0454241 -2.460242331e-05 62.73613635
-20.30416406 29.1070004 -169.9754607
-90.17208406 114.1245464 -145.1503007
-84.29537406 93.2275584 -145.1503007
-125.3068041 43.4627194 -200.9598927
-260.3459441 40.4578244 76.38624335
-183.4682341 -2.460242331e-05 69.18545835
-42.79002406 -2.460242331e-05 46.25043635
-97.54163406 -2.460242331e-05 127.7295053
-84.25468406 18.3039984 -182.5904987
-162.5773741 31.0867104 -205.7022247
0.6023759392 41.3508414 -163.8063087
-83.94998406 -2.460242331e-05 -23.77919065
-188.4390341 -1.912499602 -213.3335047
-116.4710441 115.4107364 -149.1503007
-214.4145241 170.8013144 -145.1503007
-109.5695641 82.9403824 -145.1503007
-193.2197941 148.8081984 -149.1503007
-203.8232841 -2.460242331e-05 -48.65017965
-41.12937406 71.8650264 -145.1503007
-182.7189641 -2.460242331e-05 -14.02423265
-68.30020406 8.695761398 144.8496993
-97.75355406 -1.953683602 -186.5737927
-255.3459441 31.0852944 49.51515035
-99.41361406 5.128556398 -187.0636477
35.59181594 43.7316034 -109.5411127
2.453685939 19.5918104 -7.552322651
-34.45832406 -2.460242331e-05 55.51926035
-174.4483741 109.6600324 -145.1503007
-56.82141406 31.4493804 144.8496993
-156.2544241 55.3717294 -210.0919927
12.09577594 63.9051814 -160.4148097
-213.3881941 -2.460242331e-05 86.10314735
-153.9227141 114.1382354 -145.1503007
-133.2400141 -2.460242331e-05 68.33327035
17.20071594 55.5001474 -148.4958547
-70.60470406 -2.460242331e-05 56.82566835
-58.58945406 61.9471924 -175.0171167
-182.5559741 -1.365183602 -49.44196365
-201.6795541 -2.460242331e-05 -10.93735365
-223.5507541 -2.460242331e-05 63.79436735
3.982905939 36.2581284 -149.1503007
-164.6190441 113.5713754 -149.1503007
-124.4841741 132.7426394 -145.1503007
-208.1136541 -2.460242331e-05 -151.3854467
-144.2004741 84.7185944 -145.9237397
-157.2627841 -2.460242331e-05 -185.9233227
-131.0587841 32.1260464 -196.4016127
-73.39551406 -2.460242331e-05 -88.81679765
-260.3459441 33.8335384 40.59663135
-8.211504061 -1.702434602 -166.4071297
-117.2647041 7.225026398 -198.5868127
-127.3553341 144.8419974 -145.1668137
-112.1080941 55.9083754 -197.0651847
-179.7949241 66.9090924 -217.0383797
-153.4469241 146.2717604 -149.1503007
-37.99326406 38.1704584 -168.9395237
-255.3459441 16.1896804 30.85073135
-247.6225941 -2.460242331e-05 -39.62743765
-73.51614406 96.1999364 -149.1503007
-36.23042406 8.757410398 111.5063673
27.69673594 42.1035514 -85.24248565
-22.28875406 -2.460242331e-05 -64.29093165
-30.83736406 3.912767398 -173.0836227
