# .PCD v0.7 - Point Cloud Data file format
VERSION 0.7
FIELDS x y z
SIZE 4 4 4
TYPE F F F
COUNT 1 1 1
WIDTH 1206
HEIGHT 1
VIEWPOINT 0 0 0 1 0 0 0
POINTS 1206
DATA ascii
-237.82856 -2.498431644e-05 126.0788046
370.310136 13.07884509 -9.738560402e-05
130.730944 -2.498431644e-05 16.73975261
-138.985612 -2.498431644e-05 188.4621406
294.988847 -2.498431644e-05 11.07965561
-340.071055 64.54441189 -9.738560402e-05
-151.67749 -2.498431644e-05 111.1863216
201.878182 -2.498431644e-05 24.26192061
370.499971 3.733299486 251.1490626
84.986277 -2.498431644e-05 69.95166461
123.446329 -2.498431644e-05 75.96939761
252.808133 -2.498431644e-05 219.8724806
45.629784 -2.498431644e-05 233.5040306
28.247698 -2.498431644e-05 142.6859486
-205.358327 -2.498431644e-05 124.9631026
-182.222392 -1.485812524 -9.738560402e-05
-238.90631 -2.498431644e-05 235.7556066
-61.060668 -2.498431644e-05 2.741902614
-173.27712 -2.498431644e-05 246.4785266
-249.54549 -2.498431644e-05 19.92895761
-266.735463 -2.498431644e-05 194.5637546
7.976506 -2.498431644e-05 232.6861586
178.747783 -2.498431644e-05 251.5338556
287.808717 -2.498431644e-05 228.0569536
-351.153546 -2.498431644e-05 248.4849526
177.059387 55.36999699 -9.738560402e-05
-374.44346 -1.127123834 -9.738560402e-05
283.347137 -2.498431644e-05 72.56497161
99.429088 -2.498431644e-05 27.50650261
-193.93596 -2.498431644e-05 18.77217461
372.305785 -2.498431644e-05 14.88198361
222.170554 -2.498431644e-05 43.53134461
370.499971 39.57978049 183.6655266
324.608023 -2.498431644e-05 143.7142136
33.528736 -2.498431644e-05 22.81092961
-186.226756 -2.498431644e-05 142.1366336
340.402078 -2.498431644e-05 187.7445286
338.234731 36.45034989 -9.738560402e-05
-30.239771 -2.498431644e-05 81.39631761
254.9918 -2.498431644e-05 14.66053561
31.054061 -2.498431644e-05 202.6957856
-395.064855 -2.498431644e-05 35.52267161
-359.606422 -2.498431644e-05 130.0923906
272.333367 -2.498431644e-05 166.3847726
370.499971 10.28396815 168.7846816
-50.421835 -2.498431644e-05 70.94120261
-183.217218 -2.498431644e-05 86.02751361
63.338288 -2.498431644e-05 50.47087361
204.514107 -2.498431644e-05 75.01070461
370.499971 0.1720415757 195.0775166
219.147062 34.37413059 -9.738560402e-05
370.499971 13.94276159 99.54877461
320.134958 9.772902986 -9.738560402e-05
290.364821 -2.498431644e-05 132.6220696
322.973866 50.50149149 -9.738560402e-05
354.374913 -2.498431644e-05 217.7492056
247.846609 -2.498431644e-05 120.8390236
-89.032806 -2.498431644e-05 192.5145076
-57.930681 -2.498431644e-05 101.6345006
370.499971 37.08618139 237.9052206
370.499971 -1.250092154 145.8141646
-156.201379 -2.498431644e-05 213.0572016
147.240716 -2.498431644e-05 100.3866606
-314.180041 -2.498431644e-05 59.53278661
-72.325435 -2.498431644e-05 160.7758416
217.288497 1.290045346 -9.738560402e-05
-236.964868 5.807450606 -9.738560402e-05
170.757121 -2.498431644e-05 134.2720446
342.111647 -2.498431644e-05 140.5809226
-391.376752 -2.498431644e-05 119.3622346
159.504177 28.65248509 -9.738560402e-05
-340.632506 -2.498431644e-05 234.8577586
349.483506 -2.498431644e-05 247.3612186
361.808416 -2.498431644e-05 91.36893761
-160.392362 -2.498431644e-05 75.72312161
376.499971 1.418320606 69.39151261
-294.603082 -2.498431644e-05 105.1832176
-66.774986 -2.498431644e-05 63.89566561
-310.598957 -2.498431644e-05 188.6765946
-308.152691 -2.498431644e-05 42.36417861
234.217751 -2.498431644e-05 86.78747561
-166.119087 -2.498431644e-05 6.824635614
245.210456 -2.498431644e-05 189.9702926
320.607268 -2.498431644e-05 225.6521636
-209.342639 47.74333099 -9.738560402e-05
-16.444549 41.80549129 -9.738560402e-05
298.901629 -2.498431644e-05 68.03270561
-74.696828 -2.498431644e-05 144.6707326
199.658125 -2.498431644e-05 108.5464986
-390.863216 -2.498431644e-05 146.9188416
-155.944339 -2.498431644e-05 158.4460546
-348.55295 15.05686329 -9.738560402e-05
-308.53109 -2.498431644e-05 249.8508316
-7.754583 -2.498431644e-05 188.7349306
10.40742 -2.498431644e-05 86.90356561
263.887868 67.99997499 -2.468184386
376.499971 41.78534779 68.12099461
-42.217899 -2.498431644e-05 109.1566716
208.776904 -2.498431644e-05 193.5098686
-66.954195 -2.498431644e-05 37.76735761
-135.109489 67.99997499 -2.183105386
-100.190539 -2.498431644e-05 171.4954396
370.499971 17.29220559 48.53328561
139.819656 -2.498431644e-05 75.49352161
60.65563 -2.498431644e-05 189.0829056
-128.956609 52.54261889 -9.738560402e-05
195.30291 -2.498431644e-05 62.22019661
-10.918553 -2.498431644e-05 94.08076961
-204.481692 -2.498431644e-05 166.2518886
-214.60268 -2.498431644e-05 11.41998661
-93.021314 -2.498431644e-05 10.13383961
370.499971 16.43823689 76.30374161
181.739253 -2.498431644e-05 93.20734961
-90.273863 -2.498431644e-05 246.8121276
-130.024476 -2.498431644e-05 51.31116461
-332.288042 -2.498431644e-05 31.67184961
-319.160167 -2.498431644e-05 156.4326026
186.462249 11.20729147 -9.738560402e-05
19.907165 -2.498431644e-05 170.5348396
-231.124418 22.50652799 -9.738560402e-05
92.358202 -2.498431644e-05 212.7717326
232.875122 52.94538909 -9.738560402e-05
-5.819195 -2.498431644e-05 62.21906961
380.488498 -2.498431644e-05 43.93309761
50.127781 -2.498431644e-05 149.8463736
255.783823 -2.498431644e-05 92.99610261
356.488331 -2.498431644e-05 44.91413861
136.851432 -2.498431644e-05 196.2485876
394.454208 -2.498431644e-05 169.1893646
75.22356 -2.498431644e-05 213.7813466
-136.756738 -2.233979174 -9.738560402e-05
-174.292818 -2.498431644e-05 52.25018161
-337.565755 -2.498431644e-05 146.4988026
78.367227 -2.498431644e-05 107.0668556
-354.25432 -2.498431644e-05 216.7328656
310.254056 -2.498431644e-05 138.4637226
167.261801 -2.498431644e-05 59.33640561
234.562155 -2.498431644e-05 34.59965061
179.287699 -2.498431644e-05 189.3379276
-337.058555 -2.498431644e-05 199.3894916
-213.590747 -2.498431644e-05 214.2657516
173.915936 -2.498431644e-05 168.3942846
142.482375 22.83808789 -9.738560402e-05
117.475121 -2.498431644e-05 178.3682296
-221.9975 -2.498431644e-05 231.5422026
86.888042 -2.498431644e-05 144.5007686
-101.756928 -2.498431644e-05 234.2388176
391.621471 16.46621069 -9.738560402e-05
-347.700038 -2.498431644e-05 115.3620216
154.871498 -2.498431644e-05 219.9890276
-230.530383 -2.498431644e-05 188.2623766
162.8512 46.03144299 -9.738560402e-05
299.51882 -2.498431644e-05 104.4866896
-23.202091 -2.498431644e-05 209.6206416
-248.687745 41.96635739 -9.738560402e-05
61.370106 -2.498431644e-05 35.62721661
269.246951 -2.498431644e-05 26.35102761
20.81171 -2.498431644e-05 12.98715861
95.087449 53.33429829 -9.738560402e-05
-44.413097 -2.498431644e-05 146.3752066
-104.496266 62.98004219 -9.738560402e-05
-243.1047 -1.098801464 209.9999026
-120.743537 -2.498431644e-05 227.2319786
126.514264 -2.498431644e-05 45.77066061
-325.93098 -2.498431644e-05 230.3616806
-57.210046 -2.498431644e-05 135.4232426
-115.912891 14.84188769 -9.738560402e-05
58.551423 -2.498431644e-05 96.76977161
-292.027274 -2.498431644e-05 71.77570061
-160.029237 15.14863199 -9.738560402e-05
268.988776 -2.498431644e-05 195.4270536
-379.263408 14.65760209 -9.738560402e-05
-301.168091 3.855658076 -9.738560402e-05
-129.532894 -2.498431644e-05 79.01475861
-287.039777 37.20961159 -9.738560402e-05
277.630302 -2.498431644e-05 238.7202816
-51.619721 -2.498431644e-05 38.57630361
-48.278666 59.15309109 -9.738560402e-05
-166.656175 -2.498431644e-05 114.2934146
-104.776377 -2.498431644e-05 140.0784816
-19.077017 -2.498431644e-05 135.0676276
268.594173 -2.498431644e-05 41.63979361
41.92667 -2.498431644e-05 73.12775061
105.057275 -2.498431644e-05 251.8309776
-209.201405 -2.498431644e-05 46.70933361
61.519082 -2.498431644e-05 81.44886061
-262.354407 -2.498431644e-05 146.3667296
-170.927937 -2.498431644e-05 140.3579756
-204.427293 -2.498431644e-05 182.9224696
124.059549 67.99997499 -1.651224386
-347.953087 -2.498431644e-05 187.9207956
-308.065381 53.04066609 -9.738560402e-05
231.266057 -2.498431644e-05 72.58114661
321.208961 -2.498431644e-05 128.9805726
149.480979 56.58935469 -9.738560402e-05
-180.705051 34.58645989 -9.738560402e-05
-199.078678 -2.498431644e-05 236.1631606
-19.577339 -2.465979864 -9.738560402e-05
312.081957 -2.498431644e-05 14.67287861
21.822224 -2.498431644e-05 240.6778306
382.13465 64.60309539 -9.738560402e-05
-258.60202 -2.498431644e-05 97.06404861
171.283739 -2.498431644e-05 221.3216336
-292.62624 -2.498431644e-05 168.5896946
260.693213 -0.9667868343 -9.738560402e-05
72.28008 -2.498431644e-05 11.74059661
-235.893099 -2.498431644e-05 109.1321906
314.952218 -2.498431644e-05 251.6258646
-107.525124 -2.498431644e-05 97.41229161
-40.111862 -2.498431644e-05 185.9318066
126.107057 4.544730866 -9.738560402e-05
-315.976656 -2.498431644e-05 129.5477426
26.057597 49.95914079 -9.738560402e-05
-248.021183 -2.498431644e-05 251.4833376
-293.360769 -2.498431644e-05 38.07684561
348.3406 10.72621274 -9.738560402e-05
-268.830142 67.76232029 -9.738560402e-05
267.595849 -2.498431644e-05 152.5732806
301.919993 -2.498431644e-05 234.8954596
210.409571 -2.498431644e-05 12.88130261
-26.679723 55.86670919 -9.738560402e-05
-239.500762 -1.287136764 73.05477361
330.164666 -2.498431644e-05 212.1530806
2.075153 -2.498431644e-05 156.1127446
-234.171067 -2.498431644e-05 151.6030926
322.656533 -2.498431644e-05 196.5012196
255.97959 -2.498431644e-05 109.0531936
13.068231 59.02309869 -9.738560402e-05
-335.977146 5.763108456 -9.738560402e-05
-294.401522 -2.498431644e-05 227.6308626
116.033796 28.96502389 -9.738560402e-05
-377.38519 -2.498431644e-05 99.95605761
207.183571 67.62900789 -9.738560402e-05
68.597986 64.16511399 -9.738560402e-05
-16.849378 -2.498431644e-05 163.7323386
195.903646 -2.498431644e-05 123.8026046
0.1185180004 -2.498431644e-05 11.25607561
382.156697 -2.498431644e-05 221.1874166
-389.694613 -2.498431644e-05 16.44509661
-270.18843 2.253971846 -9.738560402e-05
205.67495 -2.498431644e-05 156.1535716
100.116919 -2.498431644e-05 41.80659061
383.948357 -2.498431644e-05 105.2532106
-110.783746 29.39448269 -9.738560402e-05
-282.226467 -2.498431644e-05 133.6875526
-102.994527 -2.498431644e-05 193.3402726
333.371725 -2.498431644e-05 65.94578961
-251.905024 -2.498431644e-05 177.2929716
76.451393 -2.498431644e-05 45.64440561
12.982591 -2.498431644e-05 40.75964561
-89.681302 9.204553596 -9.738560402e-05
-92.690758 -2.498431644e-05 216.4972956
-366.107093 -2.498431644e-05 36.22765061
-277.078425 -2.498431644e-05 244.2755806
334.803942 -2.498431644e-05 171.0760496
253.662051 -2.498431644e-05 51.23638461
-294.014362 -2.498431644e-05 13.86814261
-194.764566 -2.498431644e-05 208.9637076
193.11925 -2.498431644e-05 35.03078361
-180.754072 -2.498431644e-05 234.1939726
48.590823 -2.498431644e-05 182.2826576
-137.411983 -2.498431644e-05 157.2371016
-160.37609 -2.498431644e-05 52.90062161
111.040842 -2.498431644e-05 207.3690946
235.903692 -2.498431644e-05 148.1837286
-376.391988 -2.498431644e-05 239.7300886
-0.5188789996 -2.498431644e-05 78.48397061
-162.520644 -2.498431644e-05 235.8395666
-381.159764 -2.498431644e-05 65.60425561
102.299281 67.99997499 -2.064283386
-139.124437 22.83655809 -9.738560402e-05
-269.750155 -2.498431644e-05 108.9200976
68.247508 33.15989459 -9.738560402e-05
-362.659494 -2.498431644e-05 163.1072996
227.092918 -2.498431644e-05 114.8251036
172.786009 13.48712399 -9.738560402e-05
269.745219 -2.498431644e-05 74.00683261
-225.255792 -2.498431644e-05 27.39278561
2.689263 -2.498431644e-05 125.4241826
-328.370945 -2.498431644e-05 112.5203796
382.473334 -2.498431644e-05 119.9588346
291.982365 -2.498431644e-05 211.2581736
-252.840373 -2.498431644e-05 134.3555746
88.303368 28.45085749 -9.738560402e-05
-157.325894 52.75310569 -9.738560402e-05
-277.503948 -2.498431644e-05 76.93587661
-206.242406 12.83333519 -9.738560402e-05
-62.843445 -2.498431644e-05 207.3922876
142.604267 -2.498431644e-05 153.8744256
370.499971 33.60846469 22.40853461
-149.107911 -2.498431644e-05 34.92508361
376.499971 34.18575539 196.3508346
-276.910367 -2.498431644e-05 161.9569966
183.300628 -2.498431644e-05 147.0971476
-69.69667 29.05917519 -9.738560402e-05
376.499971 11.90718784 215.6918536
-133.275261 -2.498431644e-05 137.0902886
-79.212643 46.60735859 -9.738560402e-05
129.452563 55.75564529 -9.738560402e-05
-90.701603 -2.228738524 104.1719496
356.290195 -2.498431644e-05 13.39263361
120.734428 -2.498431644e-05 95.81736261
29.961444 -2.498431644e-05 67.03963461
76.593646 5.236888676 -9.738560402e-05
-322.730717 35.32055689 -9.738560402e-05
66.716552 -2.498431644e-05 203.4598026
335.207653 5.647299876 -9.738560402e-05
370.499971 11.84799184 24.32211961
216.252531 -1.075882464 223.9428636
234.590833 8.172766536 -9.738560402e-05
158.400347 -2.498431644e-05 251.2595916
-322.065694 -2.498431644e-05 175.1673166
22.643195 4.508024816 -9.738560402e-05
88.871336 -2.498431644e-05 185.6894936
317.399176 -2.498431644e-05 169.0682076
26.809448 -2.498431644e-05 38.91975561
268.956088 40.96195259 -9.738560402e-05
-180.900778 -2.498431644e-05 113.7010346
131.119334 -2.498431644e-05 65.13383761
80.55113 57.52056629 -9.738560402e-05
-141.870451 -2.498431644e-05 247.3311476
-354.535099 -2.498431644e-05 103.8367626
251.129339 -2.498431644e-05 65.02911361
177.607377 -2.498431644e-05 34.54443661
371.038718 49.99997499 209.0633316
-38.975746 -2.498431644e-05 208.9029916
247.5132 -2.498431644e-05 172.7391856
-54.035045 -2.498431644e-05 162.1669866
370.961562 54.18976239 -9.738560402e-05
42.417359 32.18765379 -9.738560402e-05
-394.679769 -2.498431644e-05 87.38252561
-62.146652 14.28861539 -9.738560402e-05
255.358272 12.00167217 -9.738560402e-05
370.499971 48.67741009 156.8346276
376.384499 49.99997499 37.43055561
43.570466 18.54564269 -9.738560402e-05
352.709722 67.99997499 -2.371857386
-97.404504 -2.498431644e-05 29.10945261
-119.153752 -2.498431644e-05 109.5486006
370.499971 30.22510309 46.15944361
36.71877 -2.498431644e-05 119.1447676
-295.17259 55.44918809 -9.738560402e-05
-168.663889 -2.498431644e-05 209.0241956
177.049848 -2.498431644e-05 204.2221176
62.582045 -2.498431644e-05 237.1634806
65.956276 -2.498431644e-05 125.2300246
20.22138 -2.498431644e-05 216.8120686
-350.282993 -2.498431644e-05 21.10467961
301.4634 8.513031236 -9.738560402e-05
-275.863982 -2.498431644e-05 218.6439476
-327.197398 -2.498431644e-05 138.6044976
-385.924488 67.99997499 -1.876681386
-25.611809 -2.498431644e-05 237.9552766
351.814875 -2.498431644e-05 195.9323206
-179.225122 -2.498431644e-05 171.8279116
-385.923018 43.59847419 -9.738560402e-05
-392.572629 -2.498431644e-05 232.7450066
265.766001 -2.498431644e-05 210.5502636
301.532592 37.93844329 -9.738560402e-05
-251.371153 -2.498431644e-05 47.14939361
-258.900214 28.41369619 -9.738560402e-05
-119.467769 -2.498431644e-05 41.75134661
39.18217 63.53137739 -9.738560402e-05
370.499971 36.97215279 221.6839826
290.478189 -2.498431644e-05 94.74409661
370.499971 5.410407666 181.4406496
376.499971 -1.003588524 131.5140296
-24.7368 29.45786929 -9.738560402e-05
179.607624 67.99997499 -0.9246533856
376.499971 25.65460799 237.8391926
-243.999785 -2.273602464 222.8230686
-69.465606 -2.498431644e-05 12.53601661
277.68977 -2.498431644e-05 128.0364496
370.499971 21.98057169 121.5203806
-172.00527 -2.498431644e-05 193.2074466
376.499971 34.75481379 147.2302926
164.547879 -2.498431644e-05 27.27975161
-133.701271 -2.498431644e-05 64.06301461
-200.201435 37.62991109 -9.738560402e-05
280.529452 27.28207089 -9.738560402e-05
385.577785 45.41028739 -9.738560402e-05
-175.015672 -2.498431644e-05 125.0821976
-42.051633 -2.498431644e-05 237.2514126
-21.386066 -2.498431644e-05 44.19236361
217.504954 -2.498431644e-05 82.28617661
-321.279949 50.75074399 -9.738560402e-05
-384.218517 -2.498431644e-05 42.29560961
294.31398 27.32522929 -9.738560402e-05
103.731696 -2.498431644e-05 235.8366256
-125.420473 -2.498431644e-05 252.1397586
369.928746 -0.9799917943 -9.738560402e-05
-313.108037 -2.498431644e-05 219.0775096
-162.613291 -2.498431644e-05 26.53478861
-79.596032 -2.498431644e-05 239.8343896
91.247165 -2.498431644e-05 130.7965406
86.771711 -2.498431644e-05 82.54717061
-318.057579 -2.498431644e-05 34.38654561
-13.832931 -2.498431644e-05 33.86749961
-81.848159 -2.498431644e-05 121.0448276
92.412002 16.46093029 -9.738560402e-05
35.39211 -2.498431644e-05 88.83282261
-197.225337 -2.498431644e-05 135.8544756
249.014206 -2.498431644e-05 249.9755226
-187.21954 -2.498431644e-05 53.96478961
314.657105 -2.498431644e-05 212.1758456
-303.15705 -2.498431644e-05 201.1999036
-74.588807 -2.498431644e-05 94.25750061
-50.410392 46.49840899 -9.738560402e-05
138.817407 10.76198089 -9.738560402e-05
-111.728935 -2.498431644e-05 156.9079806
17.16092 -2.498431644e-05 110.0999566
-302.150033 -2.498431644e-05 29.05010761
376.499971 11.0575502 150.7584076
-231.731746 -2.498431644e-05 61.81938461
-369.704374 -2.498431644e-05 186.8009506
376.499971 36.19367979 173.1332726
-126.745997 -2.498431644e-05 193.6092436
-83.582196 -2.498431644e-05 153.5644196
65.624468 12.40939959 -9.738560402e-05
376.499971 39.04682139 90.07470061
-246.395052 -2.498431644e-05 83.44724961
376.499971 27.97500869 72.75999061
376.499971 10.26669539 113.2224046
-273.400318 50.71829659 -9.738560402e-05
322.522428 -2.498431644e-05 23.78408961
248.625415 -2.218030364 26.58386961
151.141988 -2.498431644e-05 183.6441436
376.499971 3.603572766 55.79160561
-191.121728 -2.498431644e-05 71.68518361
371.122412 -2.498431644e-05 226.9717796
133.652836 -2.498431644e-05 109.8383796
352.335957 -2.498431644e-05 57.18735561
-161.727761 35.28842969 -9.738560402e-05
371.962095 28.73229739 -9.738560402e-05
150.264817 -2.498431644e-05 46.92816161
88.152704 -2.498431644e-05 38.64001261
206.464447 -2.498431644e-05 35.73303661
-11.765783 67.99997499 -0.4081593856
-255.436336 -2.498431644e-05 189.5989116
389.056934 -2.498431644e-05 240.0908916
310.687179 -2.498431644e-05 99.24529661
278.372259 -1.932188294 104.9493396
48.769534 -2.498431644e-05 47.16643261
-199.445133 -2.498431644e-05 113.2072156
376.499971 37.67387759 53.91257761
376.499971 45.15927559 111.3717416
142.084742 -2.498431644e-05 135.0640776
65.202624 -2.498431644e-05 162.4464956
130.94414 -2.498431644e-05 184.7190276
338.220613 -2.498431644e-05 38.67679961
15.352119 -2.498431644e-05 54.22810261
227.076962 -2.498431644e-05 240.3497346
392.312344 -2.498431644e-05 40.62623461
-100.046228 -2.498431644e-05 55.70568761
153.39977 -2.498431644e-05 203.6719236
274.794985 -2.498431644e-05 179.0178976
324.735465 -1.580176884 -9.738560402e-05
128.430953 -2.498431644e-05 133.3097886
-339.491907 33.85750429 -9.738560402e-05
-179.661227 -2.498431644e-05 214.3747606
-263.17966 -2.498431644e-05 67.18036761
209.739989 10.87530586 -9.738560402e-05
385.937658 -2.498431644e-05 194.3959606
-0.08380999955 -2.498431644e-05 241.8416276
2.765007 67.99997499 -1.534896386
184.340645 -2.498431644e-05 6.582428614
-162.368081 66.79760309 -9.738560402e-05
-93.979204 -2.498431644e-05 79.37541761
57.268577 -2.498431644e-05 139.9746466
93.519768 -2.498431644e-05 10.87679561
-47.748138 -2.498431644e-05 0.4208586144
-163.92804 -2.498431644e-05 168.7846546
319.888818 -2.498431644e-05 53.04588661
115.817185 -2.498431644e-05 141.0277576
124.731212 -2.498431644e-05 204.6934936
127.801439 -2.498431644e-05 238.0849256
91.910849 -2.498431644e-05 94.82670361
148.931901 -2.498431644e-05 112.3901376
-164.534063 -2.498431644e-05 87.57866461
-99.965952 51.74523249 -9.738560402e-05
-276.818259 19.68567799 -9.738560402e-05
-394.198354 -2.498431644e-05 71.65745561
-116.690884 53.15785249 -9.738560402e-05
-353.417489 -2.498431644e-05 91.78024861
-350.672294 -2.498431644e-05 161.5623096
-117.95664 -2.498431644e-05 75.54177861
109.354697 -1.908164744 -9.738560402e-05
-337.904481 -2.498431644e-05 71.69690061
-277.506207 -2.498431644e-05 13.10068461
370.499971 25.92447839 210.1250556
-242.345795 56.23818699 -9.738560402e-05
116.852289 43.73141119 -9.738560402e-05
320.590157 21.77734389 -9.738560402e-05
290.446894 -2.498431644e-05 23.91033161
284.344682 -2.498431644e-05 166.3525906
-178.646834 53.05289019 -9.738560402e-05
185.129516 -2.498431644e-05 221.9106216
-201.629322 -2.498431644e-05 93.18773661
-240.786685 -2.498431644e-05 140.7975806
-40.494922 21.68379269 -9.738560402e-05
-23.491936 -2.498431644e-05 115.7527236
-63.225425 -2.498431644e-05 89.27225461
326.87011 -2.498431644e-05 235.8443726
-367.640711 56.07467689 -9.738560402e-05
-355.063266 -2.498431644e-05 45.74116561
222.736633 -2.498431644e-05 176.1379316
160.375113 -2.498431644e-05 0.9762616144
105.451649 -2.498431644e-05 125.8603806
-36.139406 -2.498431644e-05 173.7004896
376.499971 32.75789349 247.4257556
-227.217762 -1.068663174 -9.738560402e-05
-154.47668 -2.498431644e-05 63.26605361
326.101232 36.63386799 -9.738560402e-05
-347.637901 -2.498431644e-05 133.4669686
102.789332 -2.498431644e-05 55.30101361
44.504669 -2.498431644e-05 18.19689061
197.83842 -2.498431644e-05 218.1514566
-375.296196 -2.498431644e-05 123.7297556
-296.997469 -2.498431644e-05 179.6428516
-38.553758 -2.498431644e-05 72.90694861
347.989705 -2.498431644e-05 162.2530556
-390.995038 16.41814329 -9.738560402e-05
76.361802 -2.498431644e-05 185.1562646
242.892935 -2.498431644e-05 46.27715761
-226.280825 36.24867929 -9.738560402e-05
373.787933 49.99997499 238.5195566
-45.546929 -2.498431644e-05 251.5136006
165.899282 -2.498431644e-05 196.1181536
69.411036 -2.498431644e-05 136.5136216
-301.154745 27.75304459 -9.738560402e-05
118.163225 -2.498431644e-05 23.26159561
95.960595 -2.498431644e-05 65.63920861
301.447214 -2.498431644e-05 148.8010736
338.13129 -2.498431644e-05 24.18223461
376.499971 38.79330119 159.0580796
370.499971 26.81782209 101.1133836
-174.611612 -2.498431644e-05 38.86734961
-293.16469 -2.498431644e-05 143.7514546
139.161767 34.24361549 -9.738560402e-05
284.292565 -2.498431644e-05 84.28349361
136.411537 -2.498431644e-05 224.0720856
-137.075519 -2.498431644e-05 231.1417496
87.05768 -2.498431644e-05 170.1153046
-355.52683 24.49834699 -9.738560402e-05
-91.014465 -2.498431644e-05 204.2016726
4.754094 8.407335106 -9.738560402e-05
145.281285 -2.498431644e-05 10.69771261
359.653326 -2.498431644e-05 104.7968946
167.982345 -2.498431644e-05 122.3957336
351.355676 -2.498431644e-05 96.56330061
-276.564296 -2.498431644e-05 32.88161861
-368.323824 -2.498431644e-05 67.42013761
227.508752 -2.498431644e-05 53.89261461
357.719077 -2.498431644e-05 75.21770161
206.081838 35.63913559 -9.738560402e-05
29.934973 -2.498431644e-05 130.4042976
-191.642915 61.82011859 -9.738560402e-05
-215.334666 -2.075015234 -9.738560402e-05
336.832647 47.99077899 -9.738560402e-05
-339.538457 -2.498431644e-05 248.7237346
394.786229 -2.498431644e-05 157.5789886
292.322299 62.65085109 -9.738560402e-05
311.781056 -2.498431644e-05 111.2263426
370.499971 3.956701806 157.7060506
52.825998 37.77327739 -9.738560402e-05
-242.857411 -2.498431644e-05 8.123876614
241.291856 -2.498431644e-05 221.1518576
376.499971 42.53521399 130.4970886
186.416378 35.48606239 -9.738560402e-05
-341.341468 -2.498431644e-05 44.89671561
76.03595 -2.498431644e-05 78.28861961
280.992467 -2.498431644e-05 217.2566226
-140.524836 34.28949539 -9.738560402e-05
-136.108623 -2.498431644e-05 202.6637466
376.499971 21.57694459 155.6127746
-160.779022 -2.498431644e-05 145.8034976
-254.393061 -2.498431644e-05 217.8793346
352.689976 -2.498431644e-05 145.1267306
-384.307764 -2.498431644e-05 192.4550786
205.271555 -2.498431644e-05 178.8554576
2.371598 -2.498431644e-05 203.6513256
-323.733187 13.93414049 -9.738560402e-05
-218.590828 -2.498431644e-05 101.2876476
376.499971 23.50633119 134.7383436
50.597964 -2.498431644e-05 105.4734376
279.351398 -2.498431644e-05 20.95542461
150.602105 -2.498431644e-05 89.44899261
95.128496 38.04885169 -9.738560402e-05
289.835111 3.819409476 -9.738560402e-05
-311.016884 -2.498431644e-05 8.490278614
-37.292994 -2.498431644e-05 46.92678861
1.954408 29.65513149 -9.738560402e-05
370.499971 34.71330659 10.51050161
376.499971 24.15556489 190.3206626
385.452762 -2.498431644e-05 29.40009061
-113.839516 -1.262799984 196.3340056
-307.467741 -2.498431644e-05 103.4172006
-65.060937 -2.498431644e-05 117.4872216
-266.764192 -2.498431644e-05 85.61185661
-199.535547 -2.498431644e-05 197.5825276
109.167138 -2.498431644e-05 115.1851126
362.336728 -2.498431644e-05 173.2981886
370.499971 9.997617256 139.3096876
187.855622 -2.498431644e-05 102.6876106
-291.74487 -2.498431644e-05 240.9854136
-211.051174 -2.498431644e-05 58.62557361
359.337772 15.63020839 -9.738560402e-05
-363.316507 39.42302929 -9.738560402e-05
379.422798 19.67135429 -9.738560402e-05
-127.141517 -2.498431644e-05 217.9924236
370.499971 5.050747786 44.87562961
226.033328 43.95062059 -9.738560402e-05
-331.943989 -2.498431644e-05 88.33951861
395.303265 -2.498431644e-05 145.6034876
376.499971 37.52204199 78.95495261
-73.805331 -2.498431644e-05 25.89923261
-250.853139 -2.498431644e-05 69.78940861
-241.375047 -2.498431644e-05 181.1183846
-62.887064 57.48292539 -9.738560402e-05
-141.940004 8.122853376 -9.738560402e-05
-103.413538 -2.498431644e-05 128.9903386
-88.87996 -2.498431644e-05 54.69320361
-356.831992 -2.498431644e-05 61.76003961
312.248878 -2.498431644e-05 84.84830261
-125.618434 -1.529865544 -9.738560402e-05
374.420366 -2.498431644e-05 170.5531616
206.37922 -2.498431644e-05 64.02972261
-71.009473 -2.498431644e-05 171.8325316
-109.540382 -2.498431644e-05 49.30251961
-28.221565 -2.498431644e-05 125.8193656
-340.173148 -2.498431644e-05 173.5322776
-325.273599 -2.498431644e-05 60.26787561
68.03639 -2.498431644e-05 102.9700976
-52.552999 -2.498431644e-05 10.44061761
-220.339331 46.16515789 -9.738560402e-05
-323.085989 -2.498431644e-05 23.50870461
-135.611908 -2.498431644e-05 172.7630196
376.499971 13.69008899 60.43323961
244.207657 -2.498431644e-05 73.69270161
-252.341139 -2.498431644e-05 161.9684236
181.958754 -2.498431644e-05 158.0962736
-372.698522 -2.498431644e-05 140.0315906
-393.306233 -2.498431644e-05 176.3735686
-105.204678 9.685443996 -9.738560402e-05
-376.187186 -2.498431644e-05 86.18443961
52.597305 -0.6475651543 -9.738560402e-05
170.395982 -2.498431644e-05 13.04908861
-184.551834 23.45834909 -9.738560402e-05
197.570228 -2.498431644e-05 14.10324761
52.908787 -2.498431644e-05 73.95907961
91.938998 -2.498431644e-05 235.0477516
-221.238905 -2.498431644e-05 202.4976276
199.09844 -2.498431644e-05 206.7151936
348.658298 -2.498431644e-05 131.7334246
-92.404125 -2.498431644e-05 117.3137666
-368.988935 10.72942707 -9.738560402e-05
376.499971 33.77866219 120.7389926
-364.134329 -2.498431644e-05 196.2664596
-127.981127 -2.498431644e-05 182.7040076
376.499971 15.16895479 243.9642466
-372.601637 -2.498431644e-05 10.75475061
236.94547 -2.498431644e-05 197.9091676
-203.880101 -2.498431644e-05 34.54173361
-374.499785 -0.2726404343 110.5282076
229.157667 -2.498431644e-05 4.877931614
376.296095 49.99997499 90.19248961
-78.691202 -2.498431644e-05 59.63787061
171.10367 -2.498431644e-05 80.68766261
-77.207337 60.56966749 -9.738560402e-05
-26.884495 -2.498431644e-05 23.96506361
152.365311 67.99997499 -0.4792263856
243.668023 -2.498431644e-05 160.6233396
281.124114 -2.498431644e-05 5.395727614
283.370134 -2.498431644e-05 249.8416776
38.50854 -2.498431644e-05 43.39414761
242.938277 48.68109929 -9.738560402e-05
-181.866173 -2.498431644e-05 30.70170261
375.903611 14.79957809 10.25689161
213.002367 -2.498431644e-05 105.9817566
-38.270228 -2.498431644e-05 197.6810996
-272.411558 -2.498431644e-05 121.3009296
-4.361597 -2.498431644e-05 136.3239946
87.222433 -2.498431644e-05 120.6765976
370.499971 0.6834356457 97.88280761
-21.785231 -2.498431644e-05 93.49082661
348.440795 -2.498431644e-05 231.8928636
299.616114 -2.498431644e-05 163.1083666
58.443064 57.73122479 -9.738560402e-05
324.627998 63.38520389 -9.738560402e-05
-14.843292 12.00321792 -9.738560402e-05
52.115385 -2.498431644e-05 207.4711996
-293.604453 12.12146639 -9.738560402e-05
176.509759 -2.498431644e-05 240.9219596
-46.277459 -2.498431644e-05 28.20595561
82.893293 -2.498431644e-05 17.55487761
79.749205 -2.498431644e-05 55.95624361
-18.397706 -2.498431644e-05 227.2420596
228.660264 -2.498431644e-05 158.5722166
38.755355 -2.498431644e-05 188.6890916
257.96538 -2.498431644e-05 124.6479526
-8.842326 -2.498431644e-05 105.6422916
333.654517 -2.498431644e-05 79.28285261
-25.171673 6.751057486 -9.738560402e-05
145.160256 -2.498431644e-05 174.3702226
171.730555 -2.498431644e-05 69.92980161
376.499971 12.23642739 192.4353906
305.249677 -2.498431644e-05 187.2598646
122.524734 -2.498431644e-05 168.8536666
88.802351 -2.498431644e-05 202.6144526
-100.601834 -2.498431644e-05 17.76553061
370.499971 2.722410316 240.4443046
-329.307718 59.03514369 -9.738560402e-05
-27.142491 40.82192799 -9.738560402e-05
-211.284427 -2.498431644e-05 230.8189116
267.128665 27.48816029 -9.738560402e-05
392.989934 -2.498431644e-05 217.7670116
-104.462558 -2.498431644e-05 182.7232906
300.094797 -2.498431644e-05 54.64640161
242.603609 -2.498431644e-05 95.28538361
301.730211 -2.498431644e-05 131.9897766
156.08151 -2.498431644e-05 147.3409046
13.829388 -2.498431644e-05 74.72875861
359.441902 -2.498431644e-05 34.62995761
-219.138849 -2.498431644e-05 79.34968661
-152.099329 -2.498431644e-05 82.47002061
206.963389 53.13078509 -9.738560402e-05
312.653339 57.32988659 -9.738560402e-05
343.902114 -2.498431644e-05 83.12692161
-6.509524 45.72685779 -9.738560402e-05
-94.623586 41.32808329 -9.738560402e-05
-175.180042 -2.498431644e-05 96.45563661
187.238828 46.21640049 -9.738560402e-05
382.695611 -2.498431644e-05 19.09386761
117.548732 -2.498431644e-05 229.4189466
-148.277717 -2.498431644e-05 9.911779614
4.021628 -2.498431644e-05 186.9682226
340.378564 -2.498431644e-05 105.1068326
14.763616 -2.498431644e-05 204.6374286
127.518141 -2.498431644e-05 28.31496961
-365.552956 -2.498431644e-05 224.9742606
278.205899 -2.498431644e-05 152.2708946
-16.280413 57.90097279 -9.738560402e-05
-285.91992 -2.498431644e-05 177.6538666
376.499971 20.91817719 166.6951016
-265.735631 -2.498431644e-05 222.2884716
-39.934306 -2.498431644e-05 57.17453361
-270.743265 -2.498431644e-05 139.1752506
192.619095 -2.498431644e-05 49.83716061
292.006317 -2.498431644e-05 46.06693361
-55.201853 -2.498431644e-05 247.2394596
-131.1696 -2.498431644e-05 22.62633761
35.487006 45.21211799 -9.738560402e-05
-380.58129 52.69822759 -9.738560402e-05
217.654339 67.99997499 -1.241425386
-188.083593 -2.498431644e-05 226.6217796
-250.772111 -2.498431644e-05 35.32607061
376.499971 5.181186476 202.1285026
321.623852 -2.498431644e-05 118.4665556
-256.822516 -2.498431644e-05 200.0256036
139.440005 52.47622679 -9.738560402e-05
156.254011 -2.498431644e-05 126.4747616
-366.224662 -2.498431644e-05 236.8855036
-170.983007 -2.498431644e-05 77.37784961
264.901614 -2.498431644e-05 135.6321336
-255.195316 62.71582009 -9.738560402e-05
-92.22914 -2.498431644e-05 163.5027946
-61.551627 -2.498431644e-05 226.8671266
-47.574781 36.46901579 -9.738560402e-05
-314.823594 -2.498431644e-05 241.5616366
-299.206962 -2.498431644e-05 114.5137606
184.082882 -2.498431644e-05 60.72391461
-204.220474 -2.498431644e-05 17.26486261
-382.710992 -2.498431644e-05 162.5953476
366.498918 -2.498431644e-05 82.10301861
-172.958859 3.794421976 -9.738560402e-05
177.468605 -2.498431644e-05 230.6008506
162.749532 -2.498431644e-05 50.00770061
272.118052 -2.498431644e-05 84.09837461
370.499971 23.07228849 25.71188361
306.257237 -2.498431644e-05 75.30426561
110.806275 -2.498431644e-05 103.4168796
-50.298499 24.94062509 -9.738560402e-05
134.389859 -2.498431644e-05 54.25378761
-154.100958 42.25008579 -9.738560402e-05
-60.440873 -2.498431644e-05 172.2668996
346.626227 42.98406429 -9.738560402e-05
202.664395 -2.498431644e-05 131.5744666
-144.350975 56.11255029 -9.738560402e-05
211.673888 20.98008069 -9.738560402e-05
-38.980245 -2.498431644e-05 9.535284614
-305.963814 -2.498431644e-05 66.29037561
-202.486111 -2.498431644e-05 249.4552316
-0.2820699996 19.65495179 -9.738560402e-05
-346.45911 45.69977379 -9.738560402e-05
394.553792 -0.07019975432 -9.738560402e-05
20.168154 -2.498431644e-05 188.3723026
163.350301 -2.498431644e-05 102.2560646
-106.149882 -2.498431644e-05 63.99246361
343.848415 -2.498431644e-05 178.1337516
370.499971 36.46457409 108.9287716
3.69335 -2.498431644e-05 33.23281061
-228.893282 -2.498431644e-05 160.7608396
-303.739348 -2.498431644e-05 162.9915686
237.122355 -2.498431644e-05 116.6325866
-82.147038 -2.498431644e-05 216.2115666
-254.959146 15.41345919 -9.738560402e-05
-126.44226 -2.498431644e-05 121.1609136
263.724992 -2.498431644e-05 238.3935866
-237.638982 -2.498431644e-05 51.82532661
-258.656883 39.95122709 -9.738560402e-05
376.499971 10.4455929 38.72245161
-287.969891 -2.498431644e-05 61.27941361
206.18766 -2.498431644e-05 97.51597861
13.481443 43.39911099 -9.738560402e-05
384.751728 -2.498431644e-05 89.37542561
-290.423179 64.60642409 -9.738560402e-05
196.031488 -2.498431644e-05 153.0593396
376.499971 19.20509969 105.7831206
-323.904481 -2.498431644e-05 216.6006506
-133.665083 -2.498431644e-05 88.25767161
224.065434 -2.498431644e-05 139.6131986
1.053483 -2.364976494 -9.738560402e-05
-149.9188 -2.498431644e-05 203.6806776
-233.385143 -2.498431644e-05 94.20381361
318.284629 -2.498431644e-05 75.43167861
70.700529 53.67914519 -9.738560402e-05
-358.222826 12.10274649 -9.738560402e-05
327.81367 -2.498431644e-05 187.8207176
-98.176034 -2.498431644e-05 70.18573461
362.427405 -2.498431644e-05 115.2514716
376.499971 39.36737089 229.4321016
-15.498093 -2.498431644e-05 65.30146661
370.499971 13.40630369 223.6546866
258.762486 -2.498431644e-05 189.6788376
34.40886 6.650938046 -9.738560402e-05
-366.969069 -2.498431644e-05 82.13046261
-235.759258 -2.498431644e-05 24.58533561
376.499971 40.79087049 27.54085461
11.798908 -2.498431644e-05 96.86344861
-373.499785 -1.039240994 42.95999761
300.721901 -2.498431644e-05 114.4668306
-342.303996 -2.498431644e-05 34.03764261
289.085421 -2.498431644e-05 201.6354076
46.607202 -2.498431644e-05 159.2540206
275.335149 8.444339916 -9.738560402e-05
-150.242879 -2.498431644e-05 135.1931146
-10.753822 -2.498431644e-05 176.6502496
188.35216 -2.498431644e-05 133.8417256
-374.499785 -1.714829524 213.5955596
71.271666 -2.498431644e-05 34.34461661
-219.462028 -2.498431644e-05 251.4325506
261.400102 -2.498431644e-05 165.8249926
101.5171 -2.498431644e-05 166.4134766
-12.219521 -2.498431644e-05 7.117496614
370.499971 2.200561416 124.2337586
370.499971 32.42119969 64.87982361
-287.002549 -2.498431644e-05 160.3722356
249.867778 40.06713709 -9.738560402e-05
110.484637 -2.498431644e-05 87.37495561
370.499971 15.22308799 89.68597861
376.477198 49.99997499 7.288011614
219.838525 -2.311572364 126.4999026
45.441737 -2.498431644e-05 246.0395516
-189.581068 -2.498431644e-05 239.0584576
166.229062 -2.498431644e-05 174.6268436
-116.659517 -2.498431644e-05 247.5477716
353.251101 -2.498431644e-05 86.35330361
-384.439687 -2.498431644e-05 54.06960361
175.155841 45.67981869 -9.738560402e-05
47.242139 -2.498431644e-05 114.7610676
-244.757513 -2.498431644e-05 113.4773006
-113.999068 -1.689258814 17.51614061
370.499971 49.40702469 183.4009496
150.595183 -0.2085076343 -9.738560402e-05
237.873238 -2.498431644e-05 183.4285836
-384.325825 25.79617109 -9.738560402e-05
-168.369303 -2.498431644e-05 60.08992761
-192.167873 -2.498431644e-05 90.07609761
344.614468 -2.498431644e-05 218.8139566
183.717697 -2.498431644e-05 180.5799536
-91.753549 -2.498431644e-05 183.0965866
-78.953441 -2.498431644e-05 34.23138561
212.819673 -2.498431644e-05 47.72040261
-184.946778 9.589783976 -9.738560402e-05
295.76979 -2.498431644e-05 194.3881306
387.565984 -2.498431644e-05 8.879274614
-230.785407 -2.498431644e-05 198.0307536
-131.881503 -2.498431644e-05 100.1449506
-193.697867 -2.498431644e-05 28.53922061
-385.850394 -2.498431644e-05 209.4255706
-327.90704 -2.498431644e-05 167.3433346
-222.472827 -2.498431644e-05 241.2842696
-39.435041 -2.498431644e-05 224.5576906
0.2322110004 -2.498431644e-05 93.68539061
-209.13256 -2.498431644e-05 86.98245961
206.927567 -2.498431644e-05 3.727814614
376.499971 8.284255186 76.29110161
-113.521922 -2.498431644e-05 172.9694296
-363.409105 66.10408449 -9.738560402e-05
248.206327 29.89052569 -9.738560402e-05
-209.080774 -2.498431644e-05 114.4254586
56.357421 -2.498431644e-05 57.41168861
-242.964034 -2.498431644e-05 158.2628076
-89.300196 24.20525099 -9.738560402e-05
-37.940259 -2.498431644e-05 88.44223261
39.196819 -2.498431644e-05 173.1850776
244.709856 -2.498431644e-05 144.1528316
90.011033 -2.498431644e-05 25.27711261
104.492959 -2.498431644e-05 12.37295761
-31.57401 -2.498431644e-05 143.5306676
-5.999762 -2.498431644e-05 251.3489976
1.447171 -2.498431644e-05 222.2907316
-374.181078 34.46703559 -9.738560402e-05
-155.577938 -2.498431644e-05 122.5290266
-61.967528 -2.498431644e-05 184.2736036
-341.242394 -2.299557554 -9.738560402e-05
376.499971 28.62372279 217.1556266
232.114928 -2.498431644e-05 43.90827361
199.511705 -2.498431644e-05 196.1110666
-323.856988 -2.498431644e-05 96.42012661
-35.270086 9.828547406 -9.738560402e-05
-221.649406 -2.498431644e-05 147.8925476
108.190346 -2.498431644e-05 47.02442261
270.522029 57.05231179 -9.738560402e-05
-22.341215 -2.498431644e-05 248.3958266
-49.437454 -2.498431644e-05 97.15411961
289.295653 48.26804889 -9.738560402e-05
370.499971 38.82663859 251.7889876
-216.653468 22.66932979 -9.738560402e-05
80.766998 -2.498431644e-05 151.8691136
-145.906162 -2.498431644e-05 161.6643416
53.945194 -2.498431644e-05 226.7569036
82.808477 -2.498431644e-05 243.9661436
280.176235 -2.498431644e-05 61.27025461
229.945385 -2.498431644e-05 219.2539766
-139.548556 -2.498431644e-05 15.19897661
194.907841 -2.498431644e-05 71.77329061
-19.760371 -2.498431644e-05 200.7009746
-119.790297 44.11949119 -9.738560402e-05
187.300791 58.64289629 -9.738560402e-05
-181.571606 -2.498431644e-05 74.26420661
376.499971 29.07261929 38.83135261
-217.546925 -2.498431644e-05 123.3682666
347.698327 24.07178149 -9.738560402e-05
370.499971 29.62204169 140.3757476
185.448004 -2.498431644e-05 113.0228676
265.134862 -2.498431644e-05 106.4347356
338.596196 -2.498431644e-05 251.8700896
-68.758359 38.52572339 -9.738560402e-05
332.801685 -2.498431644e-05 133.8462086
-5.709927 35.40388379 -9.738560402e-05
107.855329 36.23624459 -9.738560402e-05
-208.056591 -2.498431644e-05 74.63391561
370.499971 45.16136849 43.10366961
-259.716132 -2.498431644e-05 25.09116461
331.224996 -2.498431644e-05 107.5863596
376.499971 16.33968359 176.5584496
18.880927 -2.498431644e-05 64.66596261
372.001427 49.99997499 69.45769061
37.185477 -2.498431644e-05 139.5876176
-45.14979 -2.498431644e-05 165.4099356
158.814389 -2.498431644e-05 230.0567866
175.0092 -2.498431644e-05 99.84264161
-80.087398 -2.498431644e-05 80.20304561
383.50023 -2.498431644e-05 205.7642046
-196.027321 -2.498431644e-05 158.9613156
-296.558118 -2.498431644e-05 94.33531861
110.112946 -2.498431644e-05 195.7493816
-214.533616 -2.498431644e-05 38.93479061
277.988418 44.30526759 -9.738560402e-05
-200.988941 52.11067729 -9.738560402e-05
-7.431976 -2.498431644e-05 163.3276266
-374.960182 -2.498431644e-05 76.83927161
-42.366571 -2.498431644e-05 36.79379861
-237.429309 29.47286319 -9.738560402e-05
2.845618 52.08297079 -9.738560402e-05
370.499971 7.989470466 64.84443861
28.852362 -2.498431644e-05 173.3228226
123.363259 -2.498431644e-05 117.6621076
-135.612082 -2.498431644e-05 40.04544461
39.066998 -2.498431644e-05 226.8424726
-196.9136 -2.498431644e-05 51.76588461
232.692929 -2.498431644e-05 126.0683996
62.615029 -2.498431644e-05 9.547565614
161.844431 19.60458309 -9.738560402e-05
-118.353164 34.88951849 -9.738560402e-05
-212.564449 63.28658969 -9.738560402e-05
211.316107 -2.498431644e-05 143.4614296
138.982555 -2.498431644e-05 163.8425166
228.462242 -2.498431644e-05 63.67826961
-63.89367 -2.498431644e-05 73.44725561
142.216564 -2.498431644e-05 85.37173361
335.417338 -2.498431644e-05 198.5999726
108.45586 -2.498431644e-05 151.6446616
-36.007974 -2.498431644e-05 116.1071566
-62.575492 -2.498431644e-05 45.99168961
293.958214 -2.498431644e-05 184.2467536
-155.738832 -2.498431644e-05 173.5240646
370.499971 16.72656709 208.6665296
202.093212 -2.498431644e-05 243.9877436
-328.152464 -2.498431644e-05 154.0410006
-310.370967 29.00025449 -9.738560402e-05
370.499971 15.54328519 159.3452266
340.026763 -2.498431644e-05 5.586300614
223.537196 -2.498431644e-05 197.8506946
-289.562301 -2.498431644e-05 46.54868861
17.891546 13.67252829 -9.738560402e-05
-353.883409 -2.498431644e-05 171.7343056
-327.804322 -2.498431644e-05 198.7544816
-357.573206 -2.498431644e-05 121.0472306
-277.864155 -2.498431644e-05 104.4361856
218.18921 -2.498431644e-05 55.42570961
329.070505 -2.498431644e-05 97.10923161
74.955152 -2.498431644e-05 234.0276356
225.443555 -2.498431644e-05 211.1663396
370.499971 35.12677669 97.03515261
40.41008 -2.498431644e-05 97.06777061
2.895368 -2.498431644e-05 46.98257761
-251.667094 -2.498431644e-05 238.6665956
347.644099 -2.498431644e-05 42.21796061
113.143102 10.53369642 -9.738560402e-05
-232.210337 -2.498431644e-05 229.3980596
108.940313 -2.498431644e-05 22.93649661
386.608408 -2.498431644e-05 58.95860261
204.443635 -2.498431644e-05 165.4289886
376.499971 18.65158829 231.8425066
-77.515698 -2.498431644e-05 228.0106256
173.441014 -2.498431644e-05 182.2183336
-34.260517 -2.498431644e-05 98.97511861
-170.360955 32.09602269 -9.738560402e-05
-106.057906 -2.498431644e-05 34.65275961
362.230173 -2.498431644e-05 222.5364186
203.320023 -2.498431644e-05 118.3613726
-348.770338 -2.498431644e-05 239.6015956
376.499971 27.18774719 174.9880136
-36.596235 58.82218199 -9.738560402e-05
-31.240221 -2.498431644e-05 14.49550861
260.746437 -2.498431644e-05 224.5060656
374.076064 49.99997499 135.2445846
370.499971 15.66131709 131.7654856
118.515277 -2.003783504 -9.738560402e-05
-113.88439 -2.498431644e-05 141.0006636
-122.876421 -2.498431644e-05 26.48667061
297.509765 -2.498431644e-05 123.8857396
-331.601351 -2.498431644e-05 223.1699216
-86.095195 -2.498431644e-05 144.7843626
42.684166 -2.498431644e-05 205.5021226
-141.0747 -2.498431644e-05 112.4049466
133.691845 -2.498431644e-05 206.3961426
26.884597 -2.498431644e-05 164.4224076
-190.664001 30.21449169 -9.738560402e-05
316.540731 -2.498431644e-05 3.651932614
-339.395906 -2.498431644e-05 93.57585261
226.181218 -2.498431644e-05 101.4720796
154.913327 -2.498431644e-05 31.78241261
88.564222 8.230664206 -9.738560402e-05
161.49673 -2.498431644e-05 9.991775614
-266.959748 -2.498431644e-05 43.75797961
157.763462 -2.498431644e-05 191.4735926
-388.89677 -2.498431644e-05 94.34496161
-17.848396 -2.498431644e-05 24.47262361
376.499971 42.61959209 217.9404086
-186.42002 -2.498431644e-05 151.1843106
32.337124 56.47333539 -9.738560402e-05
-342.762657 25.42343699 -9.738560402e-05
-382.404361 -2.498431644e-05 143.7135246
370.499971 40.78167969 197.8386866
-327.218959 -2.498431644e-05 207.7728776
370.499971 39.18978749 167.0872686
21.989056 -2.498431644e-05 88.24673761
366.760253 -2.498431644e-05 136.5679666
-124.610881 18.86995559 -9.738560402e-05
333.76641 28.62243559 -9.738560402e-05
376.499971 38.58517879 44.95089961
165.051669 -2.498431644e-05 146.5686016
184.475648 -2.498431644e-05 199.1370916
-14.280268 -2.498431644e-05 153.5412656
-25.234019 -2.498431644e-05 67.08985761
-177.727958 -2.498431644e-05 134.4765046
-233.377662 -2.498431644e-05 42.43635561
376.499971 7.176437436 19.54338761
-119.911407 -2.498431644e-05 239.1793266
376.499971 16.12098359 83.06885561
-78.544209 27.56034089 -9.738560402e-05
-252.542012 -2.498431644e-05 10.91322861
-290.495958 -2.498431644e-05 120.6884186
11.521248 -2.498431644e-05 126.9331546
107.039589 -2.498431644e-05 135.3044746
376.499971 19.00440439 95.23821761
74.284978 -2.498431644e-05 120.4062616
158.521387 57.95527619 -9.738560402e-05
-316.14445 9.196048106 -9.738560402e-05
40.675912 -2.498431644e-05 52.86741961
-179.79409 -2.498431644e-05 8.477371614
376.499971 23.59739009 46.23928161
-292.189375 -1.263532324 -9.738560402e-05
309.619819 -2.498431644e-05 37.80268861
-305.849478 -2.498431644e-05 153.5171966
193.347555 27.66383249 -9.738560402e-05
370.499971 43.01535789 61.65421561
-263.428132 -2.498431644e-05 7.752428614
-222.978323 -2.498431644e-05 60.18451361
52.179743 -2.498431644e-05 217.1357206
-77.419314 -2.498431644e-05 185.3017956
-375.729469 -2.498431644e-05 58.55193861
55.166201 17.40738429 -9.738560402e-05
-115.349566 -2.498431644e-05 211.2666146
202.637709 -2.498431644e-05 146.0551726
-210.885685 -2.498431644e-05 159.9792436
9.605913 -2.498431644e-05 161.3171056
-177.070972 -2.498431644e-05 146.7526056
-226.225622 -2.498431644e-05 128.7721966
249.258003 -2.498431644e-05 208.8114296
190.610349 -2.498431644e-05 25.04459761
370.499971 18.44897829 113.4009956
370.499971 10.05249762 53.62689861
47.400182 -2.498431644e-05 9.840441614
49.922411 60.98298149 -9.738560402e-05
380.389815 -2.498431644e-05 141.0227636
136.178656 -2.498431644e-05 9.778866614
309.85458 -2.498431644e-05 173.6633266
361.478845 52.61121769 -9.738560402e-05
121.478103 -2.498431644e-05 87.01995961
-264.362058 -2.498431644e-05 117.6759176
312.439042 -2.498431644e-05 129.9286886
-283.347634 -2.498431644e-05 169.2282686
-226.649967 -2.498431644e-05 180.3457406
385.324345 -2.498431644e-05 167.8441226
346.464622 62.26708129 -9.738560402e-05
370.499971 32.83974589 202.6457796
287.124303 -2.498431644e-05 140.7953916
279.312007 -2.498431644e-05 116.1068806
-295.129364 -2.498431644e-05 23.76372661
63.434108 -2.498431644e-05 248.1894776
76.250856 -2.498431644e-05 68.91624261
-258.393363 -2.498431644e-05 155.2347566
102.977402 -2.498431644e-05 210.8479006
-318.89087 -2.498431644e-05 250.2983976
29.956458 33.07218539 -9.738560402e-05
256.671444 -2.498431644e-05 233.1736496
98.645261 2.531194936 -9.738560402e-05
145.383974 -2.498431644e-05 37.92324661
376.499971 41.70413089 16.19612361
215.231029 -2.498431644e-05 35.69132661
326.634896 -2.498431644e-05 174.2407926
-160.474383 -2.498431644e-05 108.0934406
159.425066 -2.498431644e-05 65.75117361
240.020469 -2.498431644e-05 239.1689486
-81.592908 -2.347762824 112.6328956
-69.454263 -1.675129614 -9.738560402e-05
-245.359432 -2.498431644e-05 104.5654646
-37.451467 -2.498431644e-05 151.6316256
-133.326524 40.51655369 -9.738560402e-05
-271.474399 -2.498431644e-05 69.86964961
118.693796 53.34277789 -9.738560402e-05
-202.366955 27.23354989 -9.738560402e-05
390.033666 67.99997499 -1.425691386
376.499971 18.05634809 70.19320961
349.660029 -2.498431644e-05 7.738484614
306.049513 -2.498431644e-05 210.8939036
382.119935 27.94027109 -9.738560402e-05
222.866932 26.00673709 -9.738560402e-05
81.563753 -2.498431644e-05 137.6378336
-18.998825 -2.498431644e-05 217.2193386
328.441709 12.29757479 -9.738560402e-05
168.505305 27.29937939 -9.738560402e-05
-80.515511 -2.498431644e-05 70.60095761
-14.417266 -2.498431644e-05 83.98013561
225.921905 8.448609246 -9.738560402e-05
-328.883868 -2.498431644e-05 121.1766516
-108.733938 -2.498431644e-05 165.0319636
-189.395005 -2.498431644e-05 168.9789276
-209.737644 -2.498431644e-05 151.0110426
-356.710442 46.58718359 -9.738560402e-05
297.649905 0.09838580568 -9.738560402e-05
394.796093 -2.498431644e-05 61.75516761
-208.230326 -2.498431644e-05 190.9905006
136.115813 44.49515079 -9.738560402e-05
-97.311497 -2.498431644e-05 223.8011696
-227.326222 -2.498431644e-05 76.58341261
-305.288494 -2.498431644e-05 50.66979361
-125.483967 -2.498431644e-05 155.3703576
-162.303817 -2.498431644e-05 190.0355356
-225.739806 -2.498431644e-05 107.3755596
-254.64851 -2.498431644e-05 86.21958861
274.14607 -2.498431644e-05 188.5026886
171.362937 -2.498431644e-05 50.60189261
19.796843 -2.498431644e-05 140.9443306
56.032085 -2.498431644e-05 28.85184661
-175.643588 -2.498431644e-05 105.0679816
-109.901883 -2.498431644e-05 242.1893286
263.553387 -2.498431644e-05 83.09354961
376.499971 9.049565516 95.76863761
153.273504 22.70387939 -9.738560402e-05
-98.86533 -2.498431644e-05 102.5929996
-17.554456 -2.498431644e-05 181.9244686
-143.999785 -0.4682271843 220.8365036
322.352306 -2.498431644e-05 15.18196761
-181.108022 -2.498431644e-05 242.7892766
-348.364332 -2.498431644e-05 63.34495761
365.034696 22.07197359 -9.738560402e-05
-51.795133 -2.498431644e-05 207.5879536
21.631396 25.00476049 -9.738560402e-05
-219.421366 -2.498431644e-05 88.59193361
74.407298 39.37120149 -9.738560402e-05
-112.519643 -2.498431644e-05 114.9973666
